# .PCD v0.7 - Point Cloud Data file format
VERSION 0.7
FIELDS x y z rgb
SIZE 4 4 4 4
TYPE F F F F
COUNT 1 1 1 1
WIDTH 1019
HEIGHT 1
VIEWPOINT 0 0 0 1 0 0 0
POINTS 1019
DATA ascii
2.8426774 -0.88353401 -1.2544153 1.0414878e-38
2.8156049 -0.85229945 -1.2509412 9.0308725e-39
2.7891548 -0.82258821 -1.245196 8.6624488e-39
2.8155658 -0.81317657 -1.2509412 8.1106903e-39
2.8420081 -0.80910599 -1.2565907 8.0174325e-39
2.8419967 -0.79782897 -1.2565907 8.0170906e-39
2.8678839 -0.78802884 -1.2680404 8.0159863e-39
2.8671136 -0.76811486 -1.2707846 8.7535542e-39
2.8937595 -0.76643771 -1.2794899 1.1875573e-38
3.0437112 -1.1454092 -1.29361 1.3084217e-38
2.9901543 -1.1299856 -1.2581462 1.1424316e-38
3.0180447 -1.1286145 -1.2698826 1.0419189e-38
3.0468595 -1.1213547 -1.2820103 7.5546579e-39
3.0476313 -1.1003088 -1.2791103 6.3557377e-39
3.0759435 -1.0946617 -1.2968718 6.0795292e-39
3.1079464 -1.0880806 -1.3011348 6.1699073e-39
3.1073871 -1.067647 -1.303106 5.6199565e-39
3.1393187 -1.0613666 -1.3076272 6.4464816e-39
2.825947 -0.87464511 -1.2132038 9.9563937e-39
2.8480306 -0.88240093 -1.2348354 1.0045371e-38
2.8229761 -0.85229206 -1.2239858 9.031576e-39
2.7964664 -0.82812047 -1.2184796 8.4794994e-39
2.8233662 -0.82115299 -1.2224455 8.3854933e-39
2.8244002 -0.80198967 -1.2185949 8.2021867e-39
2.8494279 -0.79218292 -1.2293966 8.0177856e-39
2.8768835 -0.78232992 -1.23511 8.2007503e-39
2.8479235 -0.77526891 -1.2348354 8.2007475e-39
2.8768723 -0.77095008 -1.23511 8.1067638e-39
3.0274832 -1.1405171 -1.2354126 9.2123925e-39
2.9932675 -1.1299825 -1.2467624 9.7666299e-39
3.0243263 -1.1256303 -1.2469026 8.6642396e-39
3.0563817 -1.127358 -1.247211 7.463893e-39
3.0258763 -1.1047829 -1.2411575 6.356849e-39
3.05476 -1.0912824 -1.2530109 5.9869622e-39
3.0845749 -1.0776526 -1.2652465 6.0787669e-39
3.1160085 -1.065303 -1.271569 5.6185258e-39
3.1458368 -1.0489821 -1.2837481 7.9205285e-39
3.1192167 -1.0390271 -1.2597429 8.0116381e-39
2.8318722 -0.90258414 -1.1916397 1.0688921e-38
2.8599465 -0.89930463 -1.1913248 1.1432603e-38
2.8860257 -0.91887861 -1.2021798 1.1240286e-38
2.8038278 -0.88350749 -1.1917634 1.3360387e-38
2.8318462 -0.87703443 -1.1916397 9.6751601e-39
2.8318217 -0.85228324 -1.1916397 8.3869437e-39
2.8308146 -0.82806516 -1.1952337 8.6635306e-39
2.8591237 -0.82036597 -1.1940442 8.4780603e-39
2.8302975 -0.80198377 -1.1970307 7.9273962e-39
2.8568647 -0.79217559 -1.2022024 8.0185157e-39
2.884388 -0.78232241 -1.2076682 8.3865751e-39
2.853873 -0.77526301 -1.2130802 8.2933061e-39
2.8848734 -0.76714879 -1.2058387 9.8552228e-39
3.0327241 -1.1444825 -1.2162625 7.8326951e-39
3.0327044 -1.1246293 -1.2162625 8.0195849e-39
3.0595539 -1.1273549 -1.2356112 7.5593172e-39
3.0329375 -1.095842 -1.215305 6.2628499e-39
3.0614166 -1.0864656 -1.2286513 5.8954784e-39
3.0626659 -1.0672231 -1.2240114 5.4359338e-39
3.0941663 -1.0594283 -1.2301074 5.8032772e-39
3.0658023 -1.031143 -1.2124116 7.4577707e-39
3.0909448 -1.0412169 -1.2418206 6.7194882e-39
2.8658957 -0.89929867 -1.1695695 1.0226871e-38
2.8905282 -0.91887408 -1.1857146 1.077678e-38
2.83921 -0.86904281 -1.1646845 9.1238025e-39
2.8658845 -0.88802165 -1.1695695 9.7677047e-39
2.8377247 -0.85786635 -1.1700755 8.663539e-39
2.8662212 -0.85278046 -1.1682098 8.2954669e-39
2.8658168 -0.82035929 -1.1695695 8.3869353e-39
2.8391318 -0.790797 -1.1646845 8.1096169e-39
2.8665295 -0.78934664 -1.1668501 8.201458e-39
2.8948944 -0.78231192 -1.1692494 8.1114204e-39
2.8642845 -0.77525258 -1.1750083 8.2014692e-39
2.8911281 -0.7680909 -1.1829704 9.5829379e-39
2.9195051 -0.76641202 -1.1853449 1.2246876e-38
3.0119581 -1.1417656 -1.1784594 6.6261855e-39
3.0369158 -1.1464636 -1.2009424 8.2039719e-39
3.0140181 -1.1260277 -1.1708702 8.3862108e-39
3.0384629 -1.1226382 -1.1951975 8.0192458e-39
3.0150359 -1.106357 -1.1670755 7.5579019e-39
3.0400045 -1.0928568 -1.1894524 6.1735255e-39
3.0690227 -1.0792426 -1.200812 5.8951155e-39
3.0431228 -1.0690299 -1.1779624 6.354272e-39
3.071121 -1.0632061 -1.1930786 5.7103739e-39
3.0989711 -1.0594234 -1.2125379 5.8940407e-39
3.0710931 -1.0351462 -1.1930786 6.8174025e-39
2.8242905 -0.88902652 -1.1169579 1.0041731e-38
2.84708 -0.8764869 -1.1359322 9.1237898e-39
2.8495133 -0.85226554 -1.1269473 8.478768e-39
2.8727918 -0.8541835 -1.1441883 8.2032601e-39
2.897959 -0.84489781 -1.1582727 8.2032629e-39
2.8747523 -0.83162737 -1.1369365 8.7532165e-39
2.9003365 -0.82099789 -1.1494913 8.5706119e-39
2.8732309 -0.79779774 -1.1423753 8.2014692e-39
2.9009037 -0.78799582 -1.147296 8.294734e-39
2.9001336 -0.76808184 -1.1500401 9.0283334e-39
2.9270775 -0.76640445 -1.1576552 9.3052594e-39
3.0786352 -1.1754384 -1.1660126 2.5732422e-39
3.048439 -1.1484374 -1.1588124 6.5415611e-39
2.9869363 -1.1311117 -1.1561886 4.3173543e-39
3.0181725 -1.1299576 -1.1556917 8.1128847e-39
3.0478954 -1.1285846 -1.1607274 7.8352076e-39
3.0202167 -1.098484 -1.1481025 7.1883949e-39
3.0470772 -1.0958277 -1.1635998 6.3597104e-39
3.0212266 -1.0709453 -1.1443079 5.6203503e-39
3.0483556 -1.0650541 -1.1588124 5.5299091e-39
3.0764039 -1.0591923 -1.1737458 5.4359366e-39
3.0477884 -1.0213774 -1.1607274 6.2656847e-39
3.0769167 -1.0431575 -1.1718125 5.7128808e-39
2.8525124 -0.90256351 -1.1161652 8.5694712e-39
2.8822625 -0.90492082 -1.1097424 5.985893e-39
2.9100287 -0.90747476 -1.1143657 7.1887326e-39
2.8524902 -0.88020754 -1.1161652 8.8461099e-39
2.881742 -0.88048774 -1.1115553 8.6627949e-39
2.9100175 -0.89609498 -1.1143657 8.2021839e-39
2.8534431 -0.8503986 -1.1125711 7.926669e-39
2.8829582 -0.8569926 -1.107023 8.2025356e-39
2.8553882 -0.82990366 -1.105383 7.8341258e-39
2.8806884 -0.81846482 -1.1151812 8.2947326e-39
2.8582976 -0.79077786 -1.094601 8.3854961e-39
2.8806639 -0.7940312 -1.1151812 8.3869142e-39
2.9069073 -0.78798974 -1.1253424 8.3858507e-39
2.88362 -0.77523321 -1.1043036 8.3865737e-39
2.9083912 -0.77091855 -1.119854 8.2025524e-39
3.0573695 -1.1762229 -1.1262573 1.7484856e-39
3.0557806 -1.1583567 -1.1320024 6.910694e-39
3.0275056 -1.1240473 -1.1215402 7.0969167e-39
3.0270855 -1.0930678 -1.1229631 7.0947601e-39
3.0284827 -1.0630701 -1.1177455 5.8987309e-39
3.0535886 -1.0610782 -1.1396623 5.7117836e-39
3.0552101 -1.0366853 -1.1336437 5.7121536e-39
3.0289505 -1.0119286 -1.1158483 7.5463384e-39
2.8643064 -0.90255171 -1.0730368 1.0786533e-38
2.9130304 -0.90747172 -1.1033889 7.1012453e-39
2.8642952 -0.89137363 -1.0730368 8.8493848e-39
2.8896766 -0.88235933 -1.0825483 6.9114605e-39
2.9130077 -0.8847121 -1.1033889 7.6475836e-39
2.8884561 -0.8519125 -1.0868994 6.5419535e-39
2.8896146 -0.82033551 -1.0825483 6.5423038e-39
2.8901823 -0.79326993 -1.0803728 7.1869445e-39
2.9129109 -0.78798372 -1.1033889 8.1096267e-39
2.8910568 -0.77522582 -1.0771095 7.7336317e-39
2.912894 -0.77091402 -1.1033889 8.4751624e-39
3.0337501 -1.1417439 -1.0987725 8.8493539e-39
3.0620708 -1.1643063 -1.1090223 5.4338291e-39
2.9811196 -1.1092093 -1.0674397 7.2777291e-39
3.0064573 -1.1194006 -1.0847635 7.282031e-39
2.9811022 -1.0918313 -1.0674397 5.9902104e-39
3.0043738 -1.0921218 -1.0922819 4.8828077e-39
2.9810731 -1.062868 -1.0674397 4.4218001e-39
3.0069156 -1.0638642 -1.082884 4.6054795e-39
3.035218 -1.0532285 -1.0930806 5.1593609e-39
3.0619638 -1.0570991 -1.1090223 5.9894803e-39
3.0635171 -1.0392296 -1.1032772 5.982635e-39
3.0351768 -1.0119222 -1.0930806 1.0691802e-38
2.8476865 -0.90562147 -1.0314659 1.4287827e-38
2.8702037 -0.90254581 -1.0514727 1.115895e-38
2.8452308 -0.88531262 -1.0403712 9.866415e-39
2.868212 -0.87646592 -1.0586607 6.8167537e-39
2.8464644 -0.85244399 -1.0357404 6.8196082e-39
2.868186 -0.85038388 -1.0586607 7.00617e-39
2.847609 -0.82806933 -1.0314659 8.0145542e-39
2.870131 -0.82988894 -1.0514727 7.0032791e-39
2.8975432 -0.81656855 -1.0535413 6.5404905e-39
2.9219451 -0.81642425 -1.0704587 7.1858291e-39
2.8985159 -0.79777247 -1.0499153 6.540845e-39
2.9229264 -0.79745698 -1.0667996 6.0834668e-39
2.9872665 -1.1439592 -1.0450897 9.9557169e-39
3.0116208 -1.1427788 -1.0659674 9.6809055e-39
2.9607458 -1.1165893 -1.0358206 9.4961597e-39
2.9841814 -1.1149989 -1.0562646 8.0167248e-39
2.9597111 -1.0917114 -1.0395125 7.372412e-39
2.9856806 -1.0860342 -1.0506772 6.5397731e-39
2.985657 -1.0628635 -1.0506772 6.1738716e-39
3.014611 -1.0492419 -1.0546898 5.7125417e-39
3.0429952 -1.0473199 -1.0646211 5.9884112e-39
3.0460963 -1.0355151 -1.0532372 6.8123718e-39
3.0698013 -1.0392233 -1.0802971 7.3698714e-39
2.9310756 -0.94159317 -1.0375283 1.3458426e-38
2.8790603 -0.91371483 -1.0191264 1.3278354e-38
2.9045897 -0.92181408 -1.0281601 1.3826137e-38
2.8525388 -0.88715184 -1.0136549 9.5883623e-39
2.8289092 -0.85937423 -1.0013938 8.1114218e-39
2.8524983 -0.84652919 -1.0136549 6.8195997e-39
2.8540339 -0.82363135 -1.0079556 6.2671616e-39
2.8782253 -0.81590843 -1.021822 6.6359105e-39
2.9015021 -0.80904651 -1.0390377 7.1865746e-39
2.8804231 -0.80193365 -1.0137354 7.5542879e-39
2.9014907 -0.79776949 -1.0390377 7.6482576e-39
2.9309351 -0.80124217 -1.0375283 7.8315797e-39
2.9589155 -0.80082029 -1.0413585 8.1034946e-39
2.9672387 -1.1190434 -1.0120865 9.0330319e-39
2.9667804 -1.0936182 -1.0136688 6.8185235e-39
2.9675176 -1.0735228 -1.0108998 5.6210411e-39
2.9929135 -1.061408 -1.0241365 5.8947484e-39
3.0223212 -1.0492342 -1.0264957 5.6199649e-39
3.0507779 -1.0473121 -1.0361614 5.4362911e-39
3.050766 -1.0355104 -1.0361614 6.1616186e-39
3.0807931 -1.0332564 -1.0400821 1.1620611e-38
2.9105501 -0.9330852 -1.0064048 1.4009085e-38
2.8608375 -0.9056083 -0.98337656 1.143949e-38
2.8332715 -0.87584502 -0.98550206 8.0185101e-39
2.8613098 -0.89083606 -0.98159546 8.9379524e-39
2.8346982 -0.85387665 -0.98020482 8.6642382e-39
2.8622322 -0.83913356 -0.9780333 8.0191981e-39
2.8346763 -0.83190972 -0.98020482 7.7440476e-39
2.8607545 -0.82251668 -0.98337656 7.6493688e-39
2.8607378 -0.80589837 -0.98337656 7.002507e-39
2.8863201 -0.80192775 -0.99217123 7.0932901e-39
2.9399388 -0.79933655 -1.004598 7.9162111e-39
2.9226408 -1.1247833 -0.96289414 9.9560813e-39
2.9477618 -1.1179638 -0.9771561 8.8497141e-39
2.9728556 -1.1108358 -0.99151707 7.4610357e-39
2.94924 -1.0952027 -0.97166771 6.8174445e-39
2.973846 -1.0916973 -0.9878251 6.2653498e-39
2.9746294 -1.0672003 -0.98487157 5.8940365e-39
3.0016925 -1.0541583 -0.99200851 5.3422906e-39
3.0300317 -1.0492264 -0.99830163 5.5259925e-39
3.0601172 -1.0473028 -1.0020099 5.2522628e-39
3.0839591 -1.0570771 -1.028592 5.0693345e-39
3.0024421 -1.0396761 -0.98921472 5.0671681e-39
3.0606205 -1.0315665 -1.0001127 7.639606e-39
3.0849864 -1.037223 -1.024762 1.1240998e-38
2.8434341 -0.89780188 -0.94842142 9.9560855e-39
2.8691213 -0.90929294 -0.95309812 1.0789796e-38
2.8453507 -0.88315529 -0.94135845 7.9263032e-39
2.8671436 -0.87975127 -0.96022248 8.8461113e-39
2.8424206 -0.85020775 -0.95195293 8.7560807e-39
2.8680861 -0.84799081 -0.95666027 8.4787722e-39
2.8462653 -0.83189815 -0.93782693 7.651894e-39
2.8680606 -0.82250935 -0.95666027 7.7419246e-39
2.8680439 -0.80589104 -0.95666027 7.3702442e-39
2.8936918 -0.80192035 -0.9652161 7.0943663e-39
2.9213183 -0.79399055 -0.96652001 7.3673645e-39
2.9474318 -0.7879492 -0.9771561 1.0497284e-38
2.8999016 -1.114898 -0.94365185 1.0049349e-38
2.9285862 -1.1210184 -0.94113886 9.9571575e-39
2.9567671 -1.1179549 -0.94422579 8.2940222e-39
2.9255927 -1.1022261 -0.95201647 7.5542851e-39
2.9552379 -1.0895066 -0.94971418 6.172794e-39
2.9582171 -1.0667441 -0.93873739 5.894761e-39
2.9815164 -1.0634615 -0.95967388 5.7110914e-39
3.0100939 -1.0512537 -0.96127725 5.2504622e-39
3.0647869 -1.0472981 -0.98493415 6.2609973e-39
3.0100822 -1.0396684 -0.96127725 5.9862349e-39
3.0377245 -1.0316811 -0.9701075 5.4323493e-39
2.8769329 -0.92775011 -0.92460078 1.4287457e-38
2.8521423 -0.91426849 -0.91663802 1.2907771e-38
2.8769135 -0.90836191 -0.92460078 9.0330207e-39
2.8521037 -0.87582618 -0.91663802 8.572037e-39
2.8768997 -0.89451337 -0.92460078 8.2029041e-39
2.8520818 -0.85385925 -0.91663802 8.7557206e-39
2.8520544 -0.82640058 -0.91663802 8.1103456e-39
2.8768222 -0.81696111 -0.92460078 7.64828e-39
2.876811 -0.80588228 -0.92460078 7.4635048e-39
2.9035122 -0.79445851 -0.92927575 7.0947419e-39
2.9262724 -0.79022664 -0.9483906 7.1880081e-39
2.9054523 -0.76837468 -0.92208773 9.2844263e-39
2.9282405 -0.77518862 -0.94113886 1.0106268e-38
2.9360268 -1.12477 -0.91394472 9.1244947e-39
2.935993 -1.0909388 -0.91394472 6.6337651e-39
2.9101658 -1.0589976 -0.9059146 5.7125095e-39
2.9374466 -1.0571063 -0.90850586 5.6196048e-39
2.9642093 -1.0553583 -0.91678387 5.5274148e-39
2.9641979 -1.0439786 -0.91678387 5.3433753e-39
2.9915612 -1.0373287 -0.92284662 5.3426676e-39
3.0169497 -1.0309725 -0.9361335 5.7089292e-39
2.9939432 -0.99598902 -0.91398591 9.6754684e-39
3.0176992 -1.0164902 -0.93333983 5.2407582e-39
2.8598883 -0.93439716 -0.88838607 1.4381099e-38
2.85987 -0.91609138 -0.88838607 1.2079082e-38
2.8837335 -0.90927833 -0.89966559 8.6646082e-39
2.8578982 -0.8758204 -0.89544904 8.1096169e-39
2.8846891 -0.8908127 -0.89610344 8.0170751e-39
2.8593249 -0.85385203 -0.89015186 8.3854947e-39
2.8856118 -0.83911014 -0.89254123 8.8475379e-39
2.8578489 -0.8263948 -0.89544904 8.2950956e-39
2.884619 -0.82064629 -0.89610344 7.8337587e-39
2.8846006 -0.8021816 -0.89610344 7.4624384e-39
2.9091604 -0.79072696 -0.90861011 7.0961698e-39
2.9386632 -0.78645521 -0.90306705 6.3604139e-39
2.9669378 -0.78223985 -0.90580708 8.7330252e-39
2.9371648 -0.77517968 -0.90850586 8.7330224e-39
2.9175985 -1.1204692 -0.87895936 8.7546262e-39
2.9175706 -1.0925242 -0.87895936 7.0025463e-39
2.9175425 -1.0645792 -0.87895936 5.8050709e-39
2.9448833 -1.0570987 -0.88131177 5.6181671e-39
2.9702129 -1.0553522 -0.89483035 6.0773207e-39
2.9463594 -1.0458202 -0.87587291 5.618523e-39
2.9717023 -1.0439711 -0.88934195 5.4341388e-39
2.9985268 -1.0361735 -0.89737213 5.3426592e-39
3.0253508 -1.0280678 -0.9054023 5.1600476e-39
3.0248263 -1.0126213 -0.90726483 6.9020507e-39
2.9462917 -0.97815776 -0.87587291 1.1429272e-38
2.8672287 -0.93512201 -0.86154675 1.4565483e-38
2.8886447 -0.94989622 -0.88185477 1.4474729e-38
2.8666232 -0.90876222 -0.86366564 8.7564507e-39
2.8694928 -0.88130063 -0.85307121 7.9266774e-39
2.8900452 -0.88896078 -0.87651151 8.0178038e-39
2.8665681 -0.85384476 -0.86366564 7.5578808e-39
2.8665352 -0.82089436 -0.86366564 8.1099756e-39
2.8679619 -0.798926 -0.8583684 7.5564445e-39
2.8914104 -0.79294229 -0.87116826 7.3709602e-39
2.9172633 -0.78512985 -0.87895942 6.8177823e-39
2.9431252 -0.78645074 -0.88675058 6.8188711e-39
2.9699397 -0.78223687 -0.89483035 9.1057551e-39
2.9034452 -1.1382228 -0.82842219 9.8671002e-39
2.9249868 -1.1372287 -0.85200423 9.1259282e-39
2.9024527 -1.1197588 -0.8319844 7.9223474e-39
2.9235013 -1.1260524 -0.85739523 7.8305231e-39
2.9008439 -1.0939096 -0.83777291 7.0947391e-39
2.9234791 -1.1036963 -0.85739523 7.186576e-39
2.9012818 -1.0622554 -0.8360554 6.2646141e-39
2.9256427 -1.0561876 -0.84930867 5.8032814e-39
2.9493454 -1.0570943 -0.8649953 5.4377387e-39
2.9293089 -1.0366224 -0.83583111 5.343364e-39
2.9523051 -1.0420554 -0.85411763 5.3422934e-39
2.9799488 -1.0354278 -0.85915583 5.1571721e-39
3.0052264 -1.0287852 -0.87284696 4.8820258e-39
3.0075846 -1.0074581 -0.86414444 3.6892461e-39
3.0299232 -1.0164779 -0.88863981 3.1331913e-39
2.9522412 -0.97815186 -0.85411763 6.7072212e-39
2.9003291 -0.94434506 -0.83910871 1.2820578e-38
2.875315 -0.90875351 -0.83188224 7.7401225e-39
2.8517318 -0.86819357 -0.81940448 7.7408274e-39
2.8745658 -0.88404143 -0.83453083 7.9248669e-39
2.8517156 -0.85186148 -0.81940448 7.4660608e-39
2.8738086 -0.85109174 -0.83717948 7.5568159e-39
2.8502631 -0.83553082 -0.82465571 7.833037e-39
2.875227 -0.82088566 -0.83188224 7.6475597e-39
2.8723078 -0.79892164 -0.84247673 7.7415336e-39
2.9005435 -0.7933948 -0.83777291 7.4638607e-39
2.9001575 -0.77262217 -0.83910871 6.8177949e-39
2.907829 -1.1382184 -0.81239247 9.2210021e-39
2.9078126 -1.1216 -0.81239247 7.5560816e-39
2.9077847 -1.0939027 -0.81239247 7.5546326e-39
2.9077516 -1.0606662 -0.81239247 6.9096388e-39
2.9082129 -1.034815 -0.81061137 5.8032842e-39
2.9332333 -1.0291665 -0.82145506 5.1582735e-39
2.9582355 -1.0232542 -0.83236229 5.1586098e-39
2.9351783 -1.0086718 -0.81426692 4.9724347e-39
2.9601963 -1.000698 -0.82511055 4.3299464e-39
2.9851706 -1.0041281 -0.83994651 3.9611765e-39
2.9351392 -0.96954876 -0.81426692 8.555056e-39
2.9581904 -0.9781459 -0.83236229 6.9934897e-39
2.8840342 -0.9362036 -0.80009884 1.0781492e-38
2.9061739 -0.94433922 -0.81773573 1.1990447e-38
2.8825581 -0.9087463 -0.80539608 7.4642447e-39
2.857476 -0.86818779 -0.79839963 7.9259473e-39
2.8825362 -0.88677931 -0.80539608 7.4649327e-39
2.8569794 -0.85004151 -0.80014998 8.1089078e-39
2.8829823 -0.85016721 -0.80363029 8.2010909e-39
2.8824701 -0.82087845 -0.80539608 7.3713274e-39
2.9074857 -0.79477274 -0.81239247 7.2787632e-39
2.9334748 -0.77952462 -0.81965798 8.2835461e-39
2.9151406 -1.1437504 -0.78567618 9.0333795e-39
2.9151187 -1.1215926 -0.78567618 7.4628055e-39
2.891912 -1.0881339 -0.77184689 7.2791219e-39
2.9129016 -1.0966674 -0.7936911 7.4635188e-39
2.8904378 -1.0625074 -0.77714413 7.0947307e-39
2.9150531 -1.0562273 -0.78567618 6.5401374e-39
2.91503 -1.0329615 -0.78567618 5.5281266e-39
2.9158385 -1.0068462 -0.78262287 4.8820412e-39
2.9381216 -1.0030798 -0.80348492 4.8802377e-39
2.91643 -0.97202623 -0.78033292 4.8805796e-39
2.9403074 -0.97792715 -0.79539829 5.524877e-39
2.8675938 -0.93350631 -0.76164109 5.8968923e-39
2.8883801 -0.93619925 -0.78420711 7.836267e-39
2.8675721 -0.91173011 -0.76164109 7.0947391e-39
2.8889718 -0.90717071 -0.78193688 7.2794933e-39
2.8646562 -0.86818063 -0.77214348 7.8312223e-39
2.8897793 -0.8867721 -0.77890986 7.6475457e-39
2.8653555 -0.8491258 -0.7695179 8.2918614e-39
2.8878186 -0.85748482 -0.78597283 8.107805e-39
2.8660598 -0.83551502 -0.76689225 8.4791113e-39
2.8893526 -0.82224447 -0.78023416 8.2936438e-39
2.9177363 -0.81692022 -0.77498966 8.2936326e-39
2.89114 -0.79890281 -0.77361262 7.557857e-39
2.9143705 -0.79160047 -0.78720278 7.5557018e-39
2.7815442 -1.2711594 -0.70601743 1.0691466e-38
2.826194 -1.2710193 -0.72471321 1.0874061e-38
2.8576589 -1.2710932 -0.72812313 1.105663e-38
2.8252206 -1.2389065 -0.72815502 1.1058081e-38
2.8522906 -1.2495217 -0.72398162 1.0868625e-38
2.9246469 -1.1520501 -0.75094503 8.57203e-39
2.8763843 -1.1077067 -0.73013377 6.6330729e-39
2.898129 -1.1240072 -0.74924535 7.1869459e-39
2.8754089 -1.0895609 -0.73363459 6.8174333e-39
2.897712 -1.0936199 -0.75065798 6.9099765e-39
2.8986468 -1.0624992 -0.74712646 6.726681e-39
2.9208913 -1.049574 -0.76430321 6.3557321e-39
2.8762972 -1.0206021 -0.73013377 5.5270518e-39
2.9000652 -1.0322931 -0.74182922 5.6210425e-39
2.9218471 -1.0311083 -0.760741 5.3430053e-39
2.901489 -1.0075787 -0.73653197 5.2504537e-39
2.9229343 -1.0052564 -0.75666988 5.1596987e-39
2.900295 -0.97243273 -0.7407698 4.8816782e-39
2.9208138 -0.97202188 -0.76430321 3.6870797e-39
2.873338 -0.93350053 -0.74063617 5.4384449e-39
2.8999856 -0.95266283 -0.74182922 4.4239595e-39
2.8706219 -0.91086054 -0.73995256 6.3578859e-39
2.8706119 -0.87812239 -0.73855436 7.5560662e-39
2.8955739 -0.88676625 -0.75772095 7.7386638e-39
2.8732564 -0.8518399 -0.74063617 8.0156038e-39
2.8732374 -0.83278579 -0.74063617 8.0174044e-39
2.8984096 -0.82525593 -0.74712646 8.2021628e-39
2.9235811 -0.81691438 -0.75361669 8.2925662e-39
2.9235604 -0.79614156 -0.75361669 7.8333733e-39
2.9497032 -0.79068643 -0.76035655 7.5585913e-39
2.8580348 -1.2980995 -0.70315367 1.0964088e-38
2.8705127 -1.2778471 -0.70483959 1.0678495e-38
2.9046609 -1.2821629 -0.72593749 1.0218947e-38
2.8598814 -1.2459153 -0.69621116 1.0129647e-38
2.8750198 -1.1443894 -0.70366585 1.0047527e-38
2.9045236 -1.1448694 -0.72593749 8.1117693e-39
2.8686619 -1.1178298 -0.70425212 6.6359175e-39
2.8659155 -1.0924357 -0.70517486 5.7125137e-39
2.8642244 -1.0668815 -0.70336783 5.252267e-39
2.9044414 -1.0624932 -0.72593749 6.9099793e-39
2.8658564 -1.0328877 -0.70517498 5.7121634e-39
2.9043972 -1.0185593 -0.72593749 5.2479426e-39
2.8705888 -1.0013592 -0.70354885 5.0667772e-39
2.9043753 -0.99659234 -0.72593749 5.9858776e-39
2.8691287 -0.96992528 -0.69929534 5.158977e-39
2.9043534 -0.97462535 -0.72593749 5.8951085e-39
2.8728154 -0.94335562 -0.70467377 6.448627e-39
2.9043314 -0.95265847 -0.72593749 7.7404616e-39
2.8361833 -0.90705323 -0.68685317 6.0784292e-39
2.8694282 -0.91462266 -0.7074762 6.8192256e-39
2.8690469 -0.88212329 -0.70348519 7.0021693e-39
2.8728294 -0.85665262 -0.7106232 7.5560662e-39
2.9085729 -0.84831101 -0.71004581 8.0148779e-39
2.8789842 -0.83550209 -0.71963131 7.8315797e-39
2.9074605 -0.82222641 -0.71401876 7.92449e-39
2.929426 -0.81690854 -0.73224366 8.0159877e-39
2.9323277 -0.79613274 -0.72155714 8.3840276e-39
2.907053 -0.7769199 -0.71534306 8.5687916e-39
3.0632496 -0.72681135 -0.76571494 1.1984707e-38
3.0944877 -0.73933059 -0.76147109 1.2998499e-38
3.1236176 -0.72858953 -0.76864123 9.9513477e-39
3.0632381 -0.71522605 -0.76571494 1.188673e-38
3.0913744 -0.71010441 -0.77274871 1.225481e-38
3.123606 -0.7167877 -0.76864123 9.0136324e-39
2.8700569 -1.2973337 -0.67272753 1.2340171e-38
2.8726449 -1.2724509 -0.67332822 9.9384165e-39
2.8187702 -1.2286965 -0.660721 1.2524922e-38
2.7981443 -1.2079722 -0.6450842 1.1232339e-38
2.8173594 -1.2180812 -0.66584122 1.1694452e-38
2.8664272 -1.1469423 -0.67191184 6.7259846e-39
2.843446 -1.1104332 -0.66103959 4.0533525e-39
2.8656964 -1.1280494 -0.67451537 4.8831356e-39
2.8420129 -1.0890255 -0.66620231 3.2250548e-39
2.8391623 -1.0622668 -0.67652774 3.0406523e-39
2.8671584 -1.0644267 -0.66893643 3.223959e-39
2.8663137 -1.0335809 -0.67191184 3.2228814e-39
2.871696 -1.0030725 -0.67318076 3.5920198e-39
2.8662488 -0.96880299 -0.67191184 3.6838637e-39
2.8662219 -0.9418121 -0.67191184 3.4094362e-39
2.8418362 -0.91239989 -0.66620231 3.7760622e-39
2.8719223 -0.91050977 -0.67201376 3.5923884e-39
2.8804879 -0.87821221 -0.67637914 4.328873e-39
2.8904943 -0.85726672 -0.67762154 4.7902071e-39
2.9143674 -0.84830523 -0.68885684 6.0798697e-39
2.91434 -0.82084656 -0.68885684 7.0947209e-39
2.9396324 -0.79474056 -0.69484091 8.2893012e-39
3.1298678 -0.75218695 -0.74587363 1.3733539e-38
3.1298497 -0.7344842 -0.74587351 1.1328884e-38
3.1590376 -0.72346789 -0.75283134 1.0954321e-38
3.1298323 -0.7167815 -0.74587357 1.0215354e-38
3.1596491 -0.70679051 -0.75053328 1.1321324e-38
2.8732219 -1.2962849 -0.64761275 1.3165608e-38
2.8736711 -1.271093 -0.645877 1.1873803e-38
2.8492167 -1.2335303 -0.64038867 1.151003e-38
2.8750737 -1.2494988 -0.64067006 1.2429459e-38
2.8243606 -1.2180742 -0.64024001 1.0957186e-38
2.8519492 -1.1425385 -0.63006324 7.2863737e-39
2.873558 -1.1577314 -0.64587706 9.2202903e-39
2.8505161 -1.1211308 -0.63522595 3.5016389e-39
2.850837 -1.0890167 -0.63393527 3.1321249e-39
2.8720746 -1.098353 -0.65108401 3.4969613e-39
2.8504572 -1.0622555 -0.63522595 2.8576778e-39
2.8734555 -1.0551665 -0.64587706 2.8544548e-39
2.8523092 -1.031924 -0.62834233 2.9462903e-39
2.8731489 -1.0335742 -0.64691842 2.8562723e-39
2.87747 -1.0025874 -0.64679903 3.0402838e-39
2.8774416 -0.97015262 -0.64678431 3.3172378e-39
2.8977671 -0.94980818 -0.65136546 3.3186643e-39
2.876596 -0.91281402 -0.64741129 3.5023437e-39
2.887435 -0.87891948 -0.64826936 3.7753405e-39
2.8971925 -0.85363072 -0.65311587 3.2250352e-39
2.9216096 -0.84719968 -0.66237068 3.6849427e-39
2.9206209 -0.82450145 -0.6659022 3.9593562e-39
2.9489124 -0.82058197 -0.66100031 3.778918e-39
2.9465239 -0.79789907 -0.66965121 4.5114622e-39
3.1376503 -0.75217915 -0.71741396 1.3548793e-38
3.0815856 -0.72679305 -0.69866496 1.1422878e-38
3.1083543 -0.72762501 -0.71072167 1.1143061e-38
3.1360703 -0.72857708 -0.72310591 1.0672764e-38
3.1376028 -0.70497185 -0.7174139 1.1414981e-38
2.8793888 -1.29268 -0.62504917 1.3533678e-38
2.8591478 -1.2816911 -0.6042496 1.2800068e-38
2.896796 -1.2770467 -0.62452048 1.2795394e-38
2.9336281 -1.2766422 -0.61999279 1.2797173e-38
2.8779216 -1.2494961 -0.63025612 1.2706774e-38
2.8561847 -1.1425344 -0.61457503 8.0282323e-39
2.8354669 -1.1225145 -0.59927803 4.5089735e-39
2.8572907 -1.1189831 -0.61044484 4.054084e-39
2.8575432 -1.08901 -0.60941231 3.3154357e-39
2.8575163 -1.0622485 -0.60941231 2.9484539e-39
2.8572073 -1.0354873 -0.61044484 2.9477462e-39
2.8796077 -1.0371664 -0.62331355 2.9473959e-39
2.8574681 -1.0140779 -0.60941231 2.6729488e-39
2.8805208 -1.0011777 -0.61984211 3.224675e-39
2.8913736 -0.972417 -0.62217319 3.4076342e-39
2.9014435 -0.94633102 -0.6243695 3.4076202e-39
2.8804331 -0.91345757 -0.61984211 3.4090593e-39
2.8573291 -0.87491828 -0.60941231 3.4098104e-39
2.8923535 -0.87961644 -0.6235171 3.4101439e-39
2.9034188 -0.85725379 -0.6303606 3.5044975e-39
2.9307187 -0.8506425 -0.62907374 3.6852888e-39
2.9302833 -0.82906824 -0.63058728 3.8700402e-39
2.9557321 -0.8213138 -0.63606513 4.2381025e-39
2.9557111 -0.80026394 -0.63606513 4.6032837e-39
3.1160939 -0.75684667 -0.6825276 1.6223188e-38
3.1156869 -0.73492497 -0.68393731 1.1881352e-38
3.1485226 -0.72856468 -0.67757058 1.2154343e-38
3.1778905 -0.72344899 -0.68389118 1.2335466e-38
3.1443563 -0.71283299 -0.69274908 1.1411715e-38
3.1736851 -0.70757073 -0.69921118 1.2245448e-38
2.8176377 -1.2605948 -0.57399541 1.1327832e-38
2.8412163 -1.2711401 -0.57879704 1.1328188e-38
2.9046423 -1.2742635 -0.5895009 1.187557e-38
2.9365253 -1.2766393 -0.60939831 1.2705324e-38
2.8674796 -1.1425231 -0.57327324 1.0235507e-38
2.8391972 -1.1189719 -0.58562404 4.9771249e-39
2.8655722 -1.1175475 -0.58015686 4.0533707e-39
2.8646026 -1.089003 -0.58359867 2.9491629e-39
2.8645756 -1.0622416 -0.58359867 2.5796826e-39
2.8649018 -1.0354797 -0.58230799 2.5789567e-39
2.88626 -1.0443573 -0.59901428 2.5782252e-39
2.8652308 -1.011394 -0.58101732 2.7633382e-39
2.8887074 -0.99981999 -0.58990204 3.1314116e-39
2.8890321 -0.96878022 -0.58860028 2.8555366e-39
2.9012845 -0.94581383 -0.59110123 2.9480909e-39
2.8658376 -0.91237599 -0.57843596 3.224689e-39
2.8861361 -0.92019957 -0.59901428 2.8577058e-39
2.8652074 -0.88714421 -0.58064854 3.1328325e-39
2.9004986 -0.87528288 -0.59371573 2.9480797e-39
2.9134712 -0.85724378 -0.59360206 3.3158141e-39
2.9389942 -0.84828061 -0.59880382 3.5923786e-39
2.9645174 -0.83903122 -0.60400558 4.051933e-39
2.9360805 -0.83180833 -0.60939831 3.869334e-39
2.9625542 -0.82426137 -0.61112994 4.4192525e-39
2.9910109 -0.8185901 -0.60940742 3.6874721e-39
2.9615617 -0.80579752 -0.61469209 4.1469803e-39
3.1547725 -0.75216204 -0.65480286 1.2622906e-38
3.1222503 -0.74514872 -0.65997225 1.2622902e-38
3.1531982 -0.73446083 -0.6604948 1.2522014e-38
3.1826038 -0.72344428 -0.66665608 1.3072322e-38
2.8468173 -1.2711345 -0.55831605 1.0502048e-38
2.8732662 -1.281677 -0.55262232 1.013758e-38
2.9155285 -1.2749401 -0.56175768 1.0585927e-38
2.8971837 -1.1458319 -0.55944127 8.3894786e-39
2.8731029 -1.1184322 -0.55262232 3.5931016e-39
2.8494372 -1.0906512 -0.54807556 3.3179679e-39
2.8723648 -1.086319 -0.55520368 3.1332137e-39
2.8522165 -1.0694152 -0.537835 2.7658521e-39
2.8730466 -1.0622331 -0.55262232 2.8569869e-39
2.8730199 -1.0354716 -0.55262232 2.4885589e-39
2.8729877 -1.0033579 -0.55262232 2.9477378e-39
2.8729665 -0.98194855 -0.55262232 2.763369e-39
2.8975759 -0.9687717 -0.55735844 2.9484553e-39
2.90165 -0.94312233 -0.55816251 3.1332067e-39
2.8728969 -0.91236883 -0.55262238 3.1342899e-39
2.8728702 -0.8856073 -0.55262232 3.5016333e-39
2.9097886 -0.86986393 -0.55972666 3.1331913e-39
2.9459555 -0.8559621 -0.57337713 3.1328409e-39
2.9710956 -0.84179437 -0.57996094 3.5016305e-39
3.0510454 -0.83905482 -0.59845769 4.8809734e-39
2.970351 -0.8279466 -0.5826326 4.4207127e-39
2.9939651 -0.82417607 -0.59862536 4.421454e-39
3.0264566 -0.82583719 -0.58217633 5.058148e-39
3.048032 -0.82767802 -0.60943449 3.6820532e-39
3.1030011 -0.7499423 -0.62044001 1.539558e-38
3.1345985 -0.75682813 -0.61486173 1.5212626e-38
3.1578856 -0.75215894 -0.64341909 1.2534655e-38
3.1335547 -0.74124008 -0.61862093 1.1329627e-38
3.1603572 -0.73327351 -0.63431197 1.1877355e-38
3.1873171 -0.72343957 -0.6494211 1.2428742e-38
2.8789029 -1.2709666 -0.5319714 1.0221505e-38
2.909147 -1.268339 -0.52798837 1.0498059e-38
2.9531708 -1.2628933 -0.54848009 8.8349206e-39
2.9064004 -1.2494676 -0.52611667 9.666119e-39
2.9567788 -1.2491603 -0.53523701 9.47493e-39
2.860671 -1.1224893 -0.50711352 6.7299573e-39
2.8812225 -1.1197619 -0.52293664 4.2413717e-39
2.8606339 -1.0853316 -0.50711352 2.9506063e-39
2.8798525 -1.0911286 -0.52784127 2.8576974e-39
2.8599098 -1.0614452 -0.50967366 2.7655004e-39
2.880106 -1.0622258 -0.52680868 2.9491699e-39
2.8814909 -1.035463 -0.52164596 3.0392062e-39
2.8814588 -1.0033494 -0.52164596 2.9480994e-39
2.9032934 -0.99035859 -0.53653061 2.6718796e-39
2.8823752 -0.9783709 -0.51820415 2.8562667e-39
2.9061182 -0.96741349 -0.52611661 3.0392146e-39
2.9060924 -0.94177222 -0.52611661 2.8566198e-39
2.8813679 -0.91236031 -0.52164596 3.0413656e-39
2.8813412 -0.88559884 -0.52164596 3.2264631e-39
2.9278424 -0.86811745 -0.54108983 2.3981486e-39
2.8813198 -0.86418968 -0.52164596 2.9516965e-39
2.9151919 -0.85960776 -0.52413565 2.857696e-39
2.9529111 -0.85815185 -0.54795039 2.7640584e-39
2.979135 -0.84455609 -0.55057305 3.3183014e-39
2.9796984 -0.82350564 -0.54843575 3.7749818e-39
3.0294368 -0.83147269 -0.57129866 3.5934519e-39
3.1423321 -0.78020394 -0.5866676 1.6220669e-38
3.1091247 -0.76152146 -0.59809005 1.6864256e-38
3.1413879 -0.76149797 -0.59005088 1.4472187e-38
3.1407466 -0.73677897 -0.59230644 9.7593936e-39
3.1672015 -0.72854596 -0.60926753 1.0772454e-38
2.9640713 -1.2985787 -0.50875086 1.0960846e-38
2.936285 -1.2687902 -0.51168299 1.058844e-38
2.9611356 -1.2601395 -0.51934534 8.9292588e-39
2.9868565 -1.2600074 -0.52385682 8.1924406e-39
2.9273279 -1.2493237 -0.49697751 1.0034194e-38
2.9654706 -1.2491516 -0.50345361 8.9274833e-39
2.9897678 -1.2489254 -0.5131703 8.8331325e-39
2.925801 -1.1463472 -0.50218445 6.5458827e-39
2.887224 -1.1210941 -0.5009951 3.5056298e-39
2.9148254 -1.1306994 -0.49487486 3.7786181e-39
2.8438478 -1.0868492 -0.47751775 3.6849581e-39
2.8648372 -1.0879815 -0.49175277 2.8584149e-39
2.8424432 -1.071058 -0.48259553 3.2243135e-39
2.8652782 -1.0623245 -0.49004602 2.8573344e-39
2.8918695 -1.0604302 -0.48378602 2.3988576e-39
2.8647761 -1.0269364 -0.49175277 2.7626207e-39
2.890676 -1.0434824 -0.48808828 2.7636969e-39
2.8661659 -1.0163187 -0.48663256 2.5814566e-39
2.88993 -1.0033408 -0.49066964 2.580763e-39
2.8902509 -0.97122675 -0.48937896 2.4882072e-39
2.9127612 -0.96515769 -0.50181752 2.3974395e-39
2.8926895 -0.93911058 -0.48034418 2.3970612e-39
2.9132125 -0.94176519 -0.50008184 2.6732977e-39
2.8898392 -0.91235185 -0.49066964 2.8573387e-39
2.8898125 -0.88559037 -0.49066964 2.8580491e-39
2.9117184 -0.8715905 -0.50528878 2.5836034e-39
2.889791 -0.86418122 -0.49066964 3.412634e-39
2.9271212 -0.85864955 -0.50578225 3.6856448e-39
2.9621751 -0.85100329 -0.5140481 3.0413698e-39
2.9871716 -0.84454805 -0.52118516 3.316149e-39
3.0690563 -0.83903682 -0.53259712 5.6948798e-39
2.9849632 -0.82793194 -0.52920008 3.0420985e-39
3.0131364 -0.82974595 -0.52854186 4.506063e-39
3.093679 -0.77772039 -0.54848194 1.5670014e-38
3.120338 -0.76923382 -0.55711514 1.3542698e-38
3.1479666 -0.76071197 -0.56599194 9.857001e-39
3.1484592 -0.73927659 -0.56411231 1.0494806e-38
3.1734276 -0.72853976 -0.58649987 1.0404777e-38
2.9684117 -1.2930826 -0.49285913 1.1238143e-38
2.9454725 -1.2655147 -0.47807521 1.1141266e-38
2.9461713 -1.24646 -0.47544959 1.0220732e-38
2.971981 -1.2409074 -0.47961605 8.8392366e-39
2.9960959 -1.2452263 -0.49001619 8.5604959e-39
2.9970074 -1.1824448 -0.48645404 1.0420285e-38
2.9453583 -1.15119 -0.47807521 5.7147193e-39
2.9711771 -1.1612779 -0.48226464 5.9001686e-39
2.9205213 -1.1306937 -0.47404701 3.7786055e-39
2.8507907 -1.0868423 -0.45212889 4.1459209e-39
2.8741746 -1.0906262 -0.45761776 3.5927401e-39
2.8535419 -1.0605185 -0.44197339 3.2246834e-39
2.8732095 -1.0587777 -0.46103129 2.9484525e-39
2.8535206 -1.0394615 -0.44197333 3.1317535e-39
2.8764517 -1.0340025 -0.44908404 2.6704223e-39
2.8967369 -1.033307 -0.46588853 2.8551919e-39
2.8773677 -1.0163075 -0.44567055 3.2236283e-39
2.8972735 -1.0054743 -0.46382344 2.8569743e-39
2.8739645 -0.97384483 -0.45795915 2.8551863e-39
2.8964829 -0.96765226 -0.4665769 3.0395803e-39
2.9175005 -0.95795536 -0.48446089 2.4885477e-39
2.896925 -0.93910629 -0.46485597 3.0395635e-39
2.917479 -0.93636268 -0.48446089 2.5825496e-39
2.8751583 -0.90749037 -0.4533509 3.1314088e-39
2.8968928 -0.9069925 -0.46485597 3.4069237e-39
2.8968716 -0.88558328 -0.464856 3.5016179e-39
2.9174142 -0.87158477 -0.48446089 3.4115732e-39
2.8968501 -0.86417413 -0.46485597 3.2282722e-39
2.931289 -0.85615599 -0.47428566 3.5931058e-39
2.9699001 -0.85008031 -0.48579612 4.051563e-39
2.9937472 -0.84454149 -0.49714053 3.7778488e-39
3.0205245 -0.84650552 -0.50158668 4.1451992e-39
3.0205135 -0.83532757 -0.50158674 2.7669325e-39
3.0443103 -0.83145785 -0.51691043 5.4200963e-39
3.130563 -0.80784136 -0.5198651 1.5206157e-38
3.1012514 -0.77771282 -0.52079225 1.1146302e-38
3.1274958 -0.79625916 -0.53104019 1.5393062e-38
3.1274605 -0.76150322 -0.53104007 9.667907e-39
3.1843472 -0.75213248 -0.54665649 1.0773529e-38
3.1027198 -0.73178107 -0.51525432 1.0681692e-38
3.1827791 -0.74033225 -0.55234838 1.0866101e-38
2.9457846 -1.2619365 -0.44532835 1.1233823e-38
2.9770706 -1.2601236 -0.46107572 1.0772091e-38
2.8832018 -1.2498651 -0.42518958 1.0780083e-38
2.9550261 -1.2455437 -0.44306707 1.1049415e-38
2.9784973 -1.238155 -0.45577848 9.392416e-39
2.9525983 -1.2110673 -0.45181912 7.4563259e-39
3.0013912 -1.1824404 -0.47042426 9.8710547e-39
2.9554105 -1.15118 -0.44131666 5.7075307e-39
2.9769716 -1.1612722 -0.46107572 5.6228642e-39
2.929065 -1.1306852 -0.44280514 4.329271e-39
2.8591173 -1.0815698 -0.4216623 3.8679229e-39
2.8816531 -1.1012354 -0.4303098 4.0555343e-39
2.8590958 -1.0605129 -0.42166221 3.3161672e-39
2.8598592 -1.0304308 -0.41876066 2.7637053e-39
2.8801839 -1.0322293 -0.43543008 2.947728e-39
2.8608918 -1.0043594 -0.41489196 3.132862e-39
2.8810945 -1.009226 -0.43201655 2.8569855e-39
2.9040468 -1.0015426 -0.43904236 2.7647843e-39
2.9040165 -0.97121298 -0.43904233 2.9477308e-39
2.9039843 -0.93909919 -0.43904233 3.4083432e-39
2.8814566 -0.90482992 -0.4303098 3.6835176e-39
2.9039309 -0.88557625 -0.43904236 3.5916653e-39
2.9039094 -0.86416709 -0.43904236 3.8675277e-39
2.9354897 -0.85511631 -0.44538048 3.6842197e-39
2.9781072 -0.84824151 -0.45577848 4.1448279e-39
3.0032451 -0.84453195 -0.46240935 4.4199756e-39
3.1366754 -0.80783528 -0.49751517 1.2166212e-38
3.1953259 -0.83473444 -0.50681299 1.465334e-38
3.108835 -0.78918773 -0.49310255 9.2047723e-39
3.1366522 -0.78466469 -0.49751517 8.8381632e-39
3.1366324 -0.76535577 -0.49751505 1.04966e-38
3.163903 -0.76264471 -0.50772405 1.0680251e-38
3.1057487 -0.73177803 -0.5041784 1.0589517e-38
2.9127765 -1.2602283 -0.408066 1.0964093e-38
2.9441593 -1.2674334 -0.41970122 1.0960846e-38
2.9872165 -1.2656052 -0.42399508 1.1417114e-38
2.9853265 -1.2381481 -0.43080574 1.0220377e-38
3.0131474 -1.2489021 -0.42767826 1.0772116e-38
2.9862933 -1.2117869 -0.42717344 8.1881204e-39
2.9626124 -1.172949 -0.41506058 1.2164434e-38
2.9885936 -1.194211 -0.41869783 1.1607985e-38
2.9424374 -1.1493205 -0.41766667 6.7310097e-39
2.8914654 -1.111842 -0.3944681 3.6885777e-39
2.9126408 -1.1246369 -0.40806597 4.3274507e-39
2.8681457 -1.0841928 -0.38865677 3.7782342e-39
2.8886542 -1.1012284 -0.40470856 4.1459349e-39
2.8678243 -1.0605042 -0.38974479 3.1328493e-39
2.8900225 -1.0693774 -0.39958835 3.2250268e-39
2.8673961 -1.0289191 -0.39119554 3.1299739e-39
2.8452127 -0.99594939 -0.38120946 3.3165217e-39
2.8655169 -1.0008452 -0.39796603 3.0395943e-39
2.8885481 -0.9950633 -0.40470856 3.0388769e-39
2.9096854 -0.99261642 -0.41839147 2.9462833e-39
2.870126 -0.98153853 -0.3810401 3.0417285e-39
2.8903973 -0.97736716 -0.39788157 3.1306998e-39
2.9115498 -0.97477359 -0.41150784 3.1310445e-39
2.8673117 -0.94469184 -0.39119563 4.0486932e-39
2.8894322 -0.94551861 -0.4012951 3.5920338e-39
2.9120488 -0.93603277 -0.4095411 3.1331997e-39
2.8884578 -0.90482301 -0.40470856 3.591315e-39
2.8884418 -0.88889825 -0.40470859 3.4065468e-39
2.9123964 -0.88021547 -0.40806603 3.3165217e-39
2.9373496 -0.87156487 -0.41156337 3.6834994e-39
2.9456522 -0.85777795 -0.41274381 3.7753377e-39
2.9853559 -0.85372597 -0.42929232 4.0501253e-39
3.0112872 -0.85006344 -0.43302146 3.9608192e-39
3.1686053 -0.83863634 -0.49080762 1.4466441e-38
3.0910542 -0.82384175 -0.45210081 1.4933171e-38
3.115937 -0.82362849 -0.46725887 1.2992385e-38
3.1427989 -0.8194145 -0.47516513 1.0971691e-38
3.1685936 -0.82694465 -0.49080762 1.3552039e-38
3.1169159 -0.79300725 -0.46356687 8.9278379e-39
3.1437907 -0.79238099 -0.4714402 1.0221095e-38
3.1178989 -0.7662136 -0.45987493 1.0865356e-38
3.1427467 -0.76728052 -0.47516513 1.1049065e-38
2.9601026 -1.2637368 -0.39297846 1.1603331e-38
2.9925263 -1.2637693 -0.40457183 1.1875218e-38
3.0175419 -1.2599766 -0.41164848 1.1598636e-38
2.9629567 -1.2456177 -0.382476 1.187559e-38
2.9950092 -1.2359418 -0.39538997 1.0955776e-38
3.0175309 -1.2488977 -0.41164848 1.1232719e-38
2.9684002 -1.2164955 -0.39405572 1.0496946e-38
2.9949851 -1.2117782 -0.39538997 8.2878691e-39
3.0174921 -1.2101215 -0.41164848 8.6562788e-39
3.0474305 -1.2153522 -0.40454796 8.0983981e-39
2.9943771 -1.1832217 -0.39750889 1.1795637e-38
2.9516578 -1.1555276 -0.39187169 8.1236467e-39
2.8942659 -1.1118393 -0.3842276 4.5136104e-39
2.9211137 -1.1264125 -0.37708965 4.0533497e-39
2.8743918 -1.0815545 -0.36580679 3.5016613e-39
2.8984559 -1.1012186 -0.36886683 4.0537407e-39
2.8526194 -1.0585841 -0.35435456 2.9488154e-39
2.8746464 -1.0583918 -0.36479124 2.7651416e-39
2.852771 -1.026567 -0.3536832 3.1321249e-39
2.8743498 -1.0394406 -0.36580679 2.6729278e-39
2.8516476 -1.0046433 -0.3577114 3.3157847e-39
2.8743076 -0.99732703 -0.36580679 3.6820603e-39
2.8747566 -0.98328865 -0.36411422 3.1328395e-39
2.8969252 -0.97078854 -0.37398705 3.0406537e-39
2.8756435 -0.94468349 -0.36072901 3.0417383e-39
2.8965452 -0.94064552 -0.37526718 3.0413614e-39
2.8968644 -0.91012287 -0.37398711 3.4083502e-39
2.8973994 -0.88464254 -0.371939 3.6834868e-39
2.9201589 -0.87753159 -0.37967101 3.3183196e-39
2.9208515 -0.86415017 -0.37708965 3.5919988e-39
2.9527907 -0.85234201 -0.38662052 3.5938205e-39
2.9940422 -0.84822559 -0.39750889 3.6860189e-39
3.0185933 -0.85005611 -0.40630525 3.7778544e-39
3.0411646 -0.8464849 -0.42611209 2.3041705e-39
3.0711052 -0.85398519 -0.41901156 1.8410287e-39
3.0975735 -0.83900827 -0.42831784 1.4753069e-38
3.1255629 -0.85806656 -0.43218526 7.0753241e-39
3.0960553 -0.82194006 -0.43380621 1.2076539e-38
3.1245153 -0.81979233 -0.43587717 9.0247278e-39
3.1236024 -0.79060835 -0.43910766 1.040368e-38
3.1549881 -0.78464627 -0.43046519 1.1232357e-38
3.0959814 -0.74797136 -0.43380621 1.104797e-38
3.1231966 -0.76333767 -0.44049215 1.114015e-38
2.9519775 -1.2602183 -0.35949358 1.0689669e-38
2.9055843 -1.2286097 -0.34326562 1.1513655e-38
2.9653776 -1.2374218 -0.36210659 1.1417487e-38
3.003113 -1.227147 -0.36572549 1.1144116e-38
2.9741445 -1.2164897 -0.37305084 1.0680995e-38
3.0016534 -1.2161649 -0.3710227 9.8519494e-39
3.0268428 -1.2090044 -0.37745172 6.3478078e-39
2.979856 -1.1838198 -0.35204598 6.5401164e-39
3.0016203 -1.1832144 -0.3710227 9.6769188e-39
2.9563138 -1.1498954 -0.36218727 5.9076866e-39
2.9082787 -1.1224416 -0.33302507 3.4073105e-39
2.9281731 -1.1264055 -0.35127607 4.0501491e-39
2.8627417 -1.082935 -0.31742904 4.6980157e-39
2.8813469 -1.0938308 -0.34041786 4.0533861e-39
2.8599668 -1.062057 -0.3274996 3.4998466e-39
2.8595924 -1.0320414 -0.32875842 5.4380946e-39
2.8593557 -1.0015035 -0.32951376 6.2653554e-39
2.881258 -1.004339 -0.34041798 4.9764158e-39
2.8626373 -0.97853142 -0.31742904 8.2050383e-39
2.8812294 -0.97626323 -0.34041789 5.0671653e-39
2.9025185 -0.96319973 -0.35350612 3.4090929e-39
2.8816626 -0.94643223 -0.3387253 4.8820678e-39
2.9052913 -0.93559402 -0.34326559 5.4373772e-39
2.9322104 -0.92836636 -0.33578783 9.1241248e-39
2.881156 -0.90256423 -0.34041795 3.0417579e-39
2.9048643 -0.90859807 -0.34472856 4.7912889e-39
2.9047711 -0.88180411 -0.34497237 4.3303177e-39
2.9302781 -0.8784135 -0.34267148 5.9926879e-39
2.9293172 -0.85878932 -0.34611332 3.3183084e-39
2.9654818 -0.85427433 -0.36549199 3.7771271e-39
3.0027394 -0.85370862 -0.36572549 4.050491e-39
3.0266244 -0.84450859 -0.37691739 4.5071434e-39
3.0529587 -0.8464731 -0.38298377 6.1533454e-39
3.080018 -0.84269929 -0.38637862 1.3183576e-38
3.1043389 -0.85038137 -0.40362012 8.8503853e-39
3.1316094 -0.84657788 -0.41003349 1.3838328e-38
3.1050665 -0.82762098 -0.40087593 7.7257522e-39
3.1330953 -0.81787002 -0.40449554 8.2853453e-39
3.1330678 -0.79059887 -0.40449554 1.003598e-38
3.1611001 -0.78464019 -0.40811521 1.0586999e-38
3.1300147 -0.7662015 -0.41557142 1.1048315e-38
2.915386 -1.2285999 -0.30742383 1.1335379e-38
2.9353445 -1.2387964 -0.32546237 1.1152778e-38
2.9790051 -1.2342623 -0.33164543 1.0498047e-38
3.0074589 -1.2271426 -0.34983376 1.049373e-38
2.9153755 -1.2179832 -0.30742383 1.1240301e-38
2.9870634 -1.2110329 -0.32578981 9.1169053e-39
3.0088928 -1.2124965 -0.34453651 9.4853108e-39
3.0350325 -1.2156434 -0.34752944 7.8343963e-39
2.9870362 -1.1838126 -0.32578984 5.5245197e-39
3.0088689 -1.188699 -0.34453648 6.3492497e-39
2.9366601 -1.1424539 -0.32029966 4.6101262e-39
2.9604187 -1.1576446 -0.32825169 5.7186276e-39
2.8924754 -1.1131217 -0.29979572 3.6828071e-39
2.9138832 -1.1259749 -0.31254408 3.8668173e-39
2.8682497 -1.0829294 -0.29728785 4.6976443e-39
2.8896852 -1.0999641 -0.30995128 4.0529938e-39
2.866852 -1.0620501 -0.30232319 3.8682676e-39
2.8668258 -1.0359492 -0.30232316 7.4620783e-39
2.8896143 -1.028897 -0.30995134 8.5713293e-39
2.8667946 -1.0046282 -0.30232316 9.1212493e-39
2.8888907 -0.99994457 -0.31249017 8.9390188e-39
2.8681452 -0.97852594 -0.29728785 8.4791029e-39
2.8895593 -0.97450018 -0.30995122 8.6624291e-39
2.9137311 -0.97380507 -0.31254408 7.8344719e-39
2.889878 -0.94598532 -0.30868173 8.754259e-39
2.9129913 -0.93399382 -0.31510422 8.1124854e-39
2.8880992 -0.90255725 -0.31502905 7.0962006e-39
2.9146028 -0.91187447 -0.30913058 7.5564431e-39
2.8866999 -0.89203018 -0.3201068 7.6464611e-39
2.9143436 -0.88621807 -0.30998394 8.2932837e-39
2.9363978 -0.88019145 -0.32029966 7.0990425e-39
2.9366558 -0.85557073 -0.31926709 3.7774789e-39
2.9663959 -0.84633392 -0.328949 3.6834994e-39
3.0085304 -0.85004163 -0.34453651 3.5930974e-39
3.0327148 -0.84634894 -0.35465381 4.7876637e-39
3.0618045 -0.84646422 -0.35063753 6.6222086e-39
3.0859673 -0.84269333 -0.36462328 1.1627039e-38
3.1110816 -0.8389948 -0.37892237 9.4097178e-39
3.0603023 -0.81852078 -0.35602859 4.5053301e-39
3.0859449 -0.82013917 -0.36462328 6.619364e-39
3.1125598 -0.81623363 -0.37343401 7.6410339e-39
3.1406615 -0.81212115 -0.37680584 8.2846307e-39
3.0113654 -0.78779906 -0.33394203 4.6933171e-39
3.0360835 -0.80572301 -0.34218618 4.233055e-39
3.1162863 -0.79062533 -0.35971302 8.2821041e-39
3.1398842 -0.79202741 -0.37957487 9.4831682e-39
3.1140151 -0.77071291 -0.36794564 1.0220382e-38
2.8995345 -1.2289276 -0.27440688 6.9121975e-39
2.9217005 -1.2418642 -0.2843827 1.0417034e-38
2.8995237 -1.2183992 -0.27440688 4.793098e-39
2.9223766 -1.2179762 -0.28182259 5.9887349e-39
2.943789 -1.2120265 -0.29448605 6.1702591e-39
2.9690111 -1.2062196 -0.29700994 3.8682452e-39
2.9465752 -1.1745576 -0.28416061 1.4729581e-39
2.9722462 -1.1899046 -0.30091664 3.3143399e-39
2.9237077 -1.1489676 -0.27670237 1.7506226e-39
2.9446785 -1.1602868 -0.29104424 1.841735e-39
2.96612 -1.1630371 -0.30742383 2.6682601e-39
2.8765433 -1.1142423 -0.2670761 3.0399671e-39
2.8980377 -1.1210124 -0.27948466 3.1324934e-39
2.9194913 -1.133047 -0.29206309 3.6809756e-39
2.8741584 -1.090381 -0.27570799 3.9615128e-39
2.8737369 -1.0620432 -0.27714661 3.7782089e-39
2.8737054 -1.0307223 -0.27714661 8.2929221e-39
2.8736753 -1.0007061 -0.27714661 8.9390118e-39
2.8979139 -0.99730343 -0.27948466 8.2950815e-39
2.8727319 -0.97504121 -0.28050357 8.754622e-39
2.8983521 -0.9727366 -0.27779198 7.4638761e-39
2.8975153 -0.94597769 -0.28075406 7.4613706e-39
2.9220953 -0.93663889 -0.28182259 7.3666484e-39
2.8999155 -0.91570598 -0.27186802 8.6631452e-39
2.921267 -0.90858167 -0.28474844 8.7549765e-39
2.9220474 -0.88886464 -0.28182259 8.3854737e-39
2.9440207 -0.87911338 -0.29242092 7.0983306e-39
2.9434304 -0.85342306 -0.29448605 3.7764013e-39
2.9686439 -0.83914453 -0.29700994 3.4994585e-39
3.0172148 -0.84271073 -0.31275308 3.0388516e-39
3.0405006 -0.83895528 -0.32615644 2.8544786e-39
3.0647531 -0.8464613 -0.33985546 2.4896225e-39
2.9909959 -0.83539009 -0.31003618 3.1346318e-39
3.0186524 -0.83172572 -0.30745584 1.8464195e-39
3.0434062 -0.82233399 -0.31546989 1.5669488e-39
3.0647364 -0.82969433 -0.33985546 2.4849478e-39
3.0152359 -0.79511756 -0.31981608 2.6696992e-39
3.0439608 -0.79242045 -0.31333262 3.1321207e-39
3.0918663 -0.79194057 -0.34286797 5.7063928e-39
3.1200299 -0.78208673 -0.34599206 7.8167988e-39
3.1451705 -0.77766889 -0.360192 1.0948613e-38
3.0200353 -0.76582336 -0.30215862 4.1459209e-39
3.0418899 -0.76694101 -0.32081321 4.8741519e-39
2.9092548 -1.228918 -0.23886245 7.0101637e-39
2.9550996 -1.2280722 -0.25318423 2.7644424e-39
2.8807783 -1.2186418 -0.25197023 4.6983912e-39
2.9050782 -1.2183937 -0.25409579 2.9495637e-39
2.9279776 -1.2179706 -0.26134163 2.7637123e-39
2.95226 -1.212018 -0.26350966 2.2101658e-39
2.9307356 -1.1755018 -0.25110111 1.9360928e-39
2.9512956 -1.1888255 -0.26695153 1.8428224e-39
2.9063933 -1.1446933 -0.24901807 2.0293646e-39
2.9293246 -1.1648867 -0.25622138 1.568032e-39
2.9059782 -1.1266447 -0.25046867 3.2232401e-39
2.8828154 -1.0918638 -0.24405752 3.8689809e-39
2.903574 -1.1025822 -0.25917354 3.8682284e-39
2.8755519 -1.0604774 -0.24434625 3.9600933e-39
2.8801842 -1.0309157 -0.24473734 8.4787553e-39
2.8819361 -0.99939269 -0.24693485 8.7542702e-39
2.8819101 -0.97329199 -0.24693491 8.5698804e-39
2.9062145 -0.96570981 -0.24901807 7.3741944e-39
2.9061928 -0.94465292 -0.24901795 6.4486508e-39
2.8832297 -0.91586858 -0.24189961 7.1905347e-39
2.9052339 -0.91131383 -0.25240311 8.200379e-39
2.9290593 -0.89947402 -0.25622138 7.8341174e-39
2.8845859 -0.89498651 -0.23686433 8.6606523e-39
2.9089179 -0.89200801 -0.23886245 8.3844115e-39
2.929512 -0.88531816 -0.25451463 8.2936368e-39
2.9513624 -0.87910604 -0.26557478 7.1923297e-39
2.9515011 -0.85647339 -0.26498479 3.4083474e-39
2.9777615 -0.843454 -0.26368529 3.1321109e-39
3.0273552 -0.8427006 -0.27567244 2.7654821e-39
2.9967399 -0.83538431 -0.28903136 2.8562554e-39
3.0267141 -0.8223033 -0.27794269 1.9346621e-39
3.0492511 -0.82232821 -0.29409692 1.7499079e-39
3.0287545 -0.79327345 -0.27037519 3.1335528e-39
3.0506847 -0.79462951 -0.28875366 3.4079957e-39
3.0750115 -0.78497213 -0.30211818 4.1430524e-39
2.9120319 -1.2289152 -0.22870691 9.7781444e-39
2.9363894 -1.2285788 -0.23062013 5.163349e-39
2.9635923 -1.2494729 -0.2222079 1.1154225e-38
2.9147985 -1.2183839 -0.21855137 6.184684e-39
2.9369347 -1.2137151 -0.22857203 2.4867737e-39
2.9579074 -1.2120123 -0.24285878 1.7499121e-39
2.9369071 -1.1861123 -0.22857203 2.3023628e-39
2.9607115 -1.1923844 -0.23253334 2.1179912e-39
2.8930984 -1.1455468 -0.20665255 2.7647605e-39
2.9161134 -1.1446836 -0.21347365 2.765513e-39
2.9363232 -1.1622256 -0.23062013 2.5796812e-39
2.8910041 -1.116838 -0.21420549 3.6842197e-39
2.9133255 -1.1341578 -0.22362919 2.8541101e-39
2.8902919 -1.0933479 -0.21672307 4.1444915e-39
2.8902626 -1.0637668 -0.21672319 4.1441146e-39
2.8793278 -1.0309839 -0.2096388 8.3836828e-39
2.8884091 -1.0006472 -0.21455005 8.6617089e-39
2.8907239 -0.97432715 -0.21470901 7.8355341e-39
2.9138544 -0.96833426 -0.22109029 4.4239693e-39
2.9361241 -0.96316612 -0.23062013 3.4965998e-39
2.9138331 -0.94727737 -0.22109029 5.7056992e-39
2.9389086 -0.94723856 -0.22037967 7.6475611e-39
2.8873608 -0.91586441 -0.22679375 8.1996601e-39
2.9139335 -0.90884846 -0.2205825 9.3067308e-39
2.9388821 -0.92069727 -0.22037967 9.3059923e-39
2.9144697 -0.88937038 -0.21855143 9.1212423e-39
2.9360409 -0.88000351 -0.23062013 8.5705824e-39
2.9575703 -0.87481803 -0.24285878 7.0086601e-39
2.9116633 -0.86041981 -0.22870691 6.0884891e-39
2.936018 -0.85700107 -0.23062013 3.3157945e-39
2.9610758 -0.85072917 -0.22995193 3.3175811e-39
2.9843128 -0.84452701 -0.23973323 3.1331829e-39
3.0345984 -0.84269333 -0.24918629 3.5902023e-39
2.9631748 -0.83199406 -0.2222079 3.134622e-39
3.0053563 -0.83537573 -0.25752401 3.0413474e-39
3.0331278 -0.82072777 -0.25448352 2.393841e-39
3.0326157 -0.791439 -0.25624925 3.8678878e-39
3.057987 -0.7909292 -0.26203749 3.5916569e-39
