# .PCD v0.7 - Point Cloud Data file format
VERSION 0.7
FIELDS x y z rgb
SIZE 4 4 4 4
TYPE F F F F
COUNT 1 1 1 1
WIDTH 993
HEIGHT 1
VIEWPOINT 0 0 0 1 0 0 0
POINTS 993
DATA ascii
0.85677111 -4.1500597 -1.4724329 1.9321454e-39
0.88778114 -4.1382532 -1.4724329 8.2867326e-40
0.91183847 -4.1314988 -1.4644477 1.0116268e-39
0.82765692 -4.2325163 -1.4569126 4.604706e-39
0.84833449 -4.2238312 -1.4596097 3.5923491e-39
0.85917044 -4.1563616 -1.4484774 2.4867344e-39
0.87271106 -4.2169867 -1.4515185 1.7502568e-39
0.89098012 -4.1466551 -1.4404923 8.2903339e-40
0.91423756 -4.1377997 -1.4404923 1.1034623e-39
0.94259912 -4.1879406 -1.4596097 1.196374e-39
0.97180778 -4.23979 -1.4793643 5.5388424e-40
1.178812 -4.1609745 -1.4793643 3.865706e-39
1.1770229 -4.0353417 -1.4484774 4.2319676e-39
1.1837677 -4.0969296 -1.4569126 3.9579017e-39
1.1933275 -4.031538 -1.4404923 3.6816763e-39
1.2137344 -4.0229669 -1.443154 2.5757001e-39
1.2419142 -4.0764151 -1.4515185 1.7477457e-39
1.2568146 -4.068305 -1.4596097 7.3791396e-40
0.83667552 -4.2404542 -1.419154 5.2493397e-39
0.83135927 -4.1765699 -1.4165368 4.1433607e-39
0.8523863 -4.2344728 -1.419154 4.0500903e-39
0.86316895 -4.1668634 -1.4085517 1.5640747e-39
0.89417899 -4.155057 -1.4085517 7.371979e-40
0.91743642 -4.1462016 -1.4085517 7.371965e-40
0.94503015 -4.1943254 -1.4353364 7.361203e-40
0.93374121 -4.1423988 -1.4005666 9.208829e-40
0.96236175 -4.1926003 -1.419154 8.279558e-40
0.9742716 -4.2462606 -1.4547623 3.6877832e-40
1.1508112 -4.0597506 -1.4005666 5.9832992e-39
1.1649809 -4.1105804 -1.4353364 4.879481e-39
1.1761197 -4.0485115 -1.40589 3.4050894e-39
1.1806917 -4.1045985 -1.4353364 4.3313533e-39
1.1965264 -4.0399399 -1.4085517 2.0232522e-39
1.2278241 -4.0866532 -1.4353364 1.6537634e-39
1.2128311 -4.0361371 -1.4005666 2.4856751e-39
1.2443452 -4.0827999 -1.4272451 1.4718833e-39
1.2768162 -4.1310687 -1.4547623 8.279558e-40
1.2608664 -4.0789466 -1.419154 6.4393168e-40
0.83910632 -4.2468386 -1.3948807 5.339383e-39
0.85481709 -4.2408571 -1.3948807 4.5117789e-39
0.86556816 -4.1731648 -1.3845962 1.4722448e-39
0.89657819 -4.1613584 -1.3845962 8.2831593e-40
0.91983563 -4.152503 -1.3845962 1.5647922e-39
0.93534064 -4.1465998 -1.3845962 1.5644488e-39
0.97029954 -4.1977 -1.3921837 1.0112681e-39
1.1524106 -4.0639515 -1.3845962 4.7858588e-39
1.1756681 -4.0550966 -1.3845962 3.6823924e-39
1.1989256 -4.0462413 -1.3845962 2.6686118e-39
1.2144306 -4.040338 -1.3845962 3.4976564e-39
1.2467762 -4.0891852 -1.4029719 2.6668209e-39
1.2624871 -4.0832033 -1.4029719 5.5174025e-40
0.84153736 -4.2532239 -1.3706074 4.8758923e-39
0.85724813 -4.2472425 -1.3706074 4.0508077e-39
0.87028503 -4.1777821 -1.3633026 1.7491848e-39
0.87295896 -4.2412605 -1.3706074 2.3949004e-39
0.8989774 -4.1676598 -1.3606409 1.2892941e-39
0.92223483 -4.1588044 -1.3606409 1.4722434e-39
0.94317472 -4.1516333 -1.3579792 1.195302e-39
0.9829343 -4.199388 -1.3706074 1.3782513e-39
0.99864513 -4.1934066 -1.3706074 4.4138449e-39
1.1402839 -4.0189419 -1.3353025 4.7880028e-39
1.1540099 -4.068152 -1.368626 4.6929472e-39
1.1780673 -4.061398 -1.3606409 3.8671494e-39
1.2013248 -4.0525427 -1.3606409 2.1172583e-39
1.2245823 -4.0436878 -1.3606409 1.7491834e-39
1.2527416 -4.0321641 -1.3633026 1.1960166e-39
0.82201391 -4.1496167 -1.3037716 4.324522e-39
0.84247369 -4.1979909 -1.331362 4.3248849e-39
0.87116611 -4.1878676 -1.3287002 1.6577039e-39
0.90217614 -4.1760612 -1.3287002 2.2087168e-39
0.92543358 -4.1672058 -1.3287002 2.2094567e-39
0.94869107 -4.1583505 -1.3287002 1.6552067e-39
0.97685045 -4.1468277 -1.331362 1.1031036e-39
1.0018865 -4.2019196 -1.3382429 1.1945803e-39
1.1426522 -4.0251617 -1.3116543 4.69581e-39
1.1812661 -4.0697994 -1.3287002 3.9600582e-39
1.2045236 -4.0609441 -1.3287002 2.8544492e-39
1.2254635 -4.0537729 -1.3260385 1.4726021e-39
1.2516382 -4.1019545 -1.3544251 1.2882095e-39
1.2681593 -4.0981011 -1.346334 8.3012501e-40
0.82359284 -4.1537638 -1.2880062 3.9582562e-39
0.85110754 -4.2051249 -1.2967596 4.418877e-39
0.87436509 -4.1962695 -1.2967596 2.5785755e-39
0.90537512 -4.184463 -1.2967596 2.4842247e-39
0.92863256 -4.1756077 -1.2967596 2.5775078e-39
0.95189005 -4.1667523 -1.2967596 1.4740399e-39
0.98290008 -4.1549459 -1.2967596 6.442848e-40
1.1458101 -4.0334558 -1.2801235 5.1553644e-39
1.1844651 -4.0782013 -1.2967596 4.1419286e-39
1.2077225 -4.069346 -1.2967596 3.4068831e-39
1.23098 -4.0604911 -1.2967596 1.8388651e-39
1.2550372 -4.0537357 -1.2887745 7.3791957e-40
1.2816044 -4.1019173 -1.3166666 7.3720911e-40
1.3036326 -4.0967793 -1.3058784 1.8374288e-39
0.85510617 -4.2156267 -1.2568339 3.586608e-39
0.8653515 -4.2685251 -1.2896961 3.8635494e-39
0.87756395 -4.2046709 -1.264819 3.1288669e-39
0.90857399 -4.1928644 -1.264819 3.1285095e-39
0.93183142 -4.1840091 -1.264819 2.9441183e-39
0.95508891 -4.1751537 -1.264819 1.933223e-39
0.97834641 -4.1662989 -1.264819 1.0116268e-39
1.0075587 -4.2168174 -1.281605 5.5245912e-40
1.0224591 -4.2087073 -1.2896961 1.1034637e-39
1.1489679 -4.0417495 -1.2485927 4.4178092e-39
1.1876639 -4.0866027 -1.264819 3.4998018e-39
1.2109214 -4.0777473 -1.264819 3.0359566e-39
1.2341789 -4.0688925 -1.264819 2.0236109e-39
1.2574364 -4.0600371 -1.264819 1.103821e-39
1.2903526 -4.1091452 -1.281605 9.1979129e-40
1.3060634 -4.1031637 -1.281605 1.6537578e-39
0.85670549 -4.2198277 -1.2408637 3.1267131e-39
0.87996304 -4.2109723 -1.2408637 2.3952577e-39
0.91097307 -4.1991658 -1.2408637 2.7611745e-39
0.93423051 -4.1903105 -1.2408637 2.8504905e-39
0.957488 -4.1814551 -1.2408637 1.9325055e-39
0.98074549 -4.1726003 -1.2408637 1.3782513e-39
1.0099897 -4.2232027 -1.2573316 1.0112849e-39
1.0257004 -4.2172208 -1.2573316 5.5245071e-40
1.1666423 -4.0421424 -1.2249446 3.6823924e-39
1.1978155 -4.0899525 -1.2408637 3.1303256e-39
1.2133205 -4.0840487 -1.2408637 2.8515681e-39
1.236578 -4.0751939 -1.2408637 1.9335691e-39
1.267588 -4.0633869 -1.2408637 6.45361e-40
1.3084944 -4.109549 -1.2573316 5.5209058e-40
1.3426552 -4.1603374 -1.2743486 1.7455933e-39
0.87102383 -4.2834234 -1.2330583 2.0254046e-39
0.88236225 -4.2172732 -1.2169082 2.760806e-39
0.91337228 -4.2054667 -1.2169082 3.3136351e-39
0.93662971 -4.1966114 -1.2169082 2.8540764e-39
0.95988721 -4.1877561 -1.2169082 1.7495506e-39
0.98857969 -4.1776333 -1.2142465 1.0119855e-39
1.0116105 -4.227459 -1.2411494 8.3010959e-40
1.0149544 -4.1691952 -1.208923 4.5989635e-40
1.0273212 -4.221477 -1.2411494 3.6877832e-40
1.1529152 -4.0521169 -1.2091792 3.8664193e-39
1.1700045 -4.1101608 -1.208923 2.2047708e-39
1.1896114 -4.0994887 -1.2195699 3.2199849e-39
1.1851064 -4.0446086 -1.1934137 2.9437595e-39
1.2157197 -4.0903497 -1.2169082 3.1270718e-39
1.2389772 -4.0814948 -1.2169082 2.3931053e-39
1.2676696 -4.0713716 -1.2142465 1.1056147e-39
1.2944044 -4.1197867 -1.2411494 7.361203e-40
1.3109255 -4.1159339 -1.2330583 4.5989635e-40
0.86683637 -4.1752839 -1.1618829 1.838505e-39
0.88476133 -4.2235746 -1.1929528 2.0232522e-39
0.88214242 -4.169456 -1.1618829 2.6675356e-39
0.91657114 -4.2138686 -1.1849676 3.7727915e-39
0.93982857 -4.2050133 -1.1849676 3.2235722e-39
0.95101988 -4.1432314 -1.1618829 2.4860296e-39
0.96228629 -4.1940575 -1.1929528 2.3005537e-39
0.9940961 -4.1843514 -1.1849676 1.196374e-39
1.0227884 -4.1742282 -1.1823059 7.3540984e-40
1.1732032 -4.1185622 -1.1769824 1.9303419e-39
1.172958 -4.0587301 -1.1618829 1.194939e-39
1.1871088 -4.108458 -1.1929528 1.5615636e-39
1.1874748 -4.0508294 -1.1697656 2.8537177e-39
1.2189186 -4.0987515 -1.1849676 3.0388334e-39
1.2421761 -4.0898967 -1.1849676 2.3938228e-39
1.2731861 -4.0780897 -1.1849676 1.1052559e-39
1.3141669 -4.1244469 -1.2006938 5.5173184e-40
0.89731222 -4.2332258 -1.1450418 2.0214585e-39
0.88372135 -4.1736031 -1.1461176 1.9328516e-39
0.91745239 -4.2239537 -1.1503654 3.4969361e-39
0.92506391 -4.1594448 -1.1408623 3.2232121e-39
0.9505741 -4.1497321 -1.1408623 2.8537275e-39
0.94904864 -4.0944653 -1.1159157 3.1292242e-39
0.98171252 -4.1394591 -1.1356072 1.6559102e-39
1.0042478 -4.1877007 -1.1610122 1.1967341e-39
1.0069594 -4.1290555 -1.1382349 6.4430302e-40
1.0368571 -4.1800952 -1.1450418 3.6877832e-40
1.021476 -4.1211538 -1.1461176 5.5137451e-40
1.1592308 -4.0687046 -1.1461176 2.4845835e-39
1.1454864 -4.0196729 -1.1159157 2.5757001e-39
1.1753265 -4.0649509 -1.1382349 7.3540424e-40
1.2074122 -4.1151576 -1.1450418 1.9317768e-39
1.1974961 -4.0541353 -1.1461176 2.5767777e-39
1.2229172 -4.1092539 -1.1450418 3.0359566e-39
1.2453749 -4.0982981 -1.1530271 2.3002034e-39
1.2763849 -4.0864911 -1.1530271 1.2889339e-39
1.3004422 -4.0797367 -1.1450418 6.4392607e-40
1.3165978 -4.1308317 -1.1764205 6.442848e-40
0.91216946 -4.296999 -1.1359649 1.6544753e-39
0.92296898 -4.2306719 -1.1210865 2.574991e-39
0.93437654 -4.168561 -1.0988213 3.7720769e-39
0.94542652 -4.2197161 -1.1290716 3.2217814e-39
0.95654619 -4.1577463 -1.106704 3.6799023e-39
0.98715824 -4.146091 -1.106704 1.9328586e-39
1.0315038 -4.1893477 -1.1210865 1.3782555e-39
1.1478244 -4.0258136 -1.0925696 3.3121819e-39
1.1784843 -4.073245 -1.106704 1.1027518e-39
1.2098114 -4.1214585 -1.1210865 1.8417462e-39
1.2253164 -4.1155548 -1.1210865 2.8512262e-39
1.2485739 -4.1066999 -1.1210865 2.2991174e-39
1.2795839 -4.094893 -1.1210865 1.196374e-39
1.3206495 -4.1414733 -1.1359649 6.4392607e-40
0.90211052 -4.2458282 -1.097131 6.4320861e-40
0.89926904 -4.1914239 -1.0672904 1.1967341e-39
0.92536807 -4.2369733 -1.097131 2.2069232e-39
0.93190593 -4.1774149 -1.0725456 3.1288655e-39
0.9589144 -4.1639662 -1.0830559 3.5898646e-39
0.97348255 -4.2234635 -1.0811607 3.4079803e-39
0.99260396 -4.1527219 -1.0778008 1.9317838e-39
0.99674004 -4.2146087 -1.0811607 2.209793e-39
1.0347025 -4.1977491 -1.0891458 8.279558e-40
1.1671255 -4.0894394 -1.0672904 4.5085503e-39
1.1808525 -4.0794649 -1.0830559 2.2065644e-39
1.2081083 -4.1325278 -1.0864841 2.7615361e-39
1.2285151 -4.1239562 -1.0891458 3.1281522e-39
1.2517726 -4.1151013 -1.0891458 1.8413819e-39
1.2827827 -4.1032944 -1.0891458 1.2885682e-39
1.3060402 -4.094439 -1.0891458 9.1943256e-40
0.90850103 -4.192657 -1.0515251 1.4711658e-39
0.93631941 -4.2424226 -1.0651904 2.0246871e-39
0.95182437 -4.2365193 -1.0651904 3.1295829e-39
0.97508186 -4.227664 -1.0651904 2.3941857e-39
1.0003375 -4.157691 -1.0515251 1.8410161e-39
0.99833935 -4.2188091 -1.0651904 1.380045e-39
1.0156435 -4.1518636 -1.0515251 1.6569864e-39
1.0448543 -4.2010989 -1.0651904 1.0119981e-39
1.0681118 -4.1922436 -1.0651904 1.8438986e-40
1.0733287 -4.2478232 -1.0955093 5.5244931e-40
1.1843994 -4.1479678 -1.0651904 4.8798383e-39
1.1849247 -4.210207 -1.079327 6.0726236e-39
1.2076569 -4.1391129 -1.0651904 2.5757141e-39
1.2309144 -4.1302576 -1.0651904 1.8413805e-39
1.2541718 -4.1214027 -1.0651904 2.023971e-39
1.2851819 -4.1095958 -1.0651904 1.0130617e-39
1.3084394 -4.1007404 -1.0651904 4.5989915e-40
0.93791884 -4.2466235 -1.0492201 2.4852995e-39
0.92696494 -4.1951237 -1.0199943 2.5782182e-39
0.95422357 -4.2428212 -1.041235 3.7749453e-39
0.97748107 -4.2339659 -1.041235 3.1274459e-39
1.0027059 -4.1639113 -1.027877 1.474393e-39
1.0007385 -4.225111 -1.041235 1.7477457e-39
1.0180119 -4.1580839 -1.027877 1.5647922e-39
1.0472535 -4.2074008 -1.041235 1.1953048e-39
1.070511 -4.1985455 -1.041235 4.5989635e-40
1.1867986 -4.1542697 -1.041235 5.703167e-39
1.1873558 -4.2165918 -1.0550537 6.5318011e-39
1.2100561 -4.1454148 -1.041235 3.4965662e-39
1.2333136 -4.1365595 -1.041235 2.2998377e-39
1.2565711 -4.1277046 -1.041235 1.7484632e-39
1.2875811 -4.1158977 -1.041235 1.1041797e-39
0.91774547 -4.148571 -0.97583914 1.9360802e-39
0.93927413 -4.1967673 -0.99897373 2.4885309e-39
0.9760409 -4.1859341 -0.9884634 2.577135e-39
0.97782928 -4.242651 -1.0119561 3.0352433e-39
0.99134701 -4.1801066 -0.9884634 2.2994761e-39
1.0031377 -4.2314119 -1.0172795 2.8497716e-39
0.99781591 -4.1165218 -0.98102713 1.5644334e-39
1.0203801 -4.1643043 -1.0042288 1.2889269e-39
1.0364758 -4.1605496 -0.99634612 7.3576157e-40
1.0659574 -4.2098985 -1.0092944 3.6841958e-40
1.0963326 -4.2609959 -1.0226891 3.6806085e-40
1.1128536 -4.2571421 -1.014598 8.2759706e-40
1.1597139 -4.1160021 -0.9884634 6.0704712e-39
1.1845624 -4.1639385 -1.0119561 5.7978388e-39
1.2109373 -4.1554999 -1.0066327 3.4050894e-39
1.2040533 -4.0943718 -1.0042288 2.3005523e-39
1.2365124 -4.1449609 -1.0092944 1.7502568e-39
1.2597699 -4.136106 -1.0092944 1.1963754e-39
1.2907799 -4.124299 -1.0092944 6.4356734e-40
1.3328046 -4.1733975 -1.014598 6.4392607e-40
0.9589873 -4.3254733 -0.98223352 2.8530058e-39
0.93170172 -4.2075644 -0.97269797 2.3959765e-39
0.95982152 -4.2575235 -0.98533893 2.5807223e-39
0.97469813 -4.3194914 -0.98223352 3.1317353e-39
0.97761995 -4.1900811 -0.97269797 2.6678943e-39
0.98156136 -4.2524533 -0.97469205 2.9441337e-39
0.99371547 -4.186327 -0.96481532 2.4817122e-39
1.0031919 -4.1230688 -0.95249301 1.3804037e-39
1.0396336 -4.1688437 -0.96481532 7.361203e-40
1.0769088 -4.2153487 -0.97735375 4.6025508e-40
1.1001664 -4.2064939 -0.97735375 9.187165e-40
1.178178 -4.1184683 -0.9569326 5.0581283e-39
1.1923965 -4.168972 -0.98533893 5.1503352e-39
1.1934841 -4.1126409 -0.9569326 2.4845821e-39
1.2187712 -4.1605334 -0.98001552 2.4842233e-39
1.2397114 -4.1533628 -0.97735375 2.3906054e-39
1.2629689 -4.1445079 -0.97735375 1.7481254e-39
1.2916613 -4.1343846 -0.97469205 7.361231e-40
1.3187144 -4.1836357 -0.99841577 1.8474859e-40
1.3430909 -4.1767917 -0.99032468 2.7622535e-40
0.96060783 -4.3297296 -0.96605134 3.0427753e-39
0.96461982 -4.2701259 -0.93742806 3.3168735e-39
0.97631866 -4.3237476 -0.96605134 3.0424109e-39
0.96705073 -4.2083502 -0.92540181 2.944484e-39
0.986278 -4.2570701 -0.95339835 2.856596e-39
0.97686762 -4.1448102 -0.91358286 2.5742694e-39
1.0037369 -4.1896338 -0.94116718 2.0243284e-39
1.0090877 -4.1309805 -0.91877091 1.3818386e-39
1.0504447 -4.1742239 -0.93328452 1.0134205e-39
1.0734038 -4.1654825 -0.93328452 8.2939073e-40
1.1033652 -4.2148952 -0.94541317 5.5173324e-40
1.1032264 -4.1517539 -0.94116718 1.1952978e-39
1.1196698 -4.2110915 -0.93742806 6.4356734e-40
1.1736828 -4.1296763 -0.92540181 4.6922395e-39
1.1955955 -4.1773739 -0.95339835 4.2373486e-39
1.2196527 -4.1706195 -0.94541317 1.5640747e-39
1.2429101 -4.1617641 -0.94541317 1.6559256e-39
1.2661676 -4.1529093 -0.94541317 1.5658712e-39
1.296378 -4.1390018 -0.95339835 1.1956579e-39
1.3455217 -4.183176 -0.96605134 7.3540284e-40
0.95411295 -4.2203975 -0.90175366 4.144095e-39
0.96941906 -4.21457 -0.90175366 3.9578988e-39
0.97920591 -4.1509514 -0.89023679 2.9448371e-39
1.0094271 -4.1394453 -0.89023679 2.3923878e-39
1.0328722 -4.1328616 -0.88245475 1.6559256e-39
1.0558902 -4.1808553 -0.90438122 1.380768e-39
1.0902593 -4.2270994 -0.92145777 9.2194509e-40
1.085004 -4.172936 -0.89387095 9.1979129e-40
1.1057644 -4.2211962 -0.92145777 5.5316677e-40
1.1290219 -4.2123408 -0.92145777 7.3505391e-40
1.1385753 -4.1525393 -0.89387095 2.480636e-39
1.1370581 -4.0296936 -0.88660502 4.7844519e-39
1.1462017 -4.0897121 -0.88245475 5.1488932e-39
1.1837041 -4.1329823 -0.90175366 2.5742666e-39
1.1997997 -4.1292286 -0.89387095 1.2871333e-39
1.2220519 -4.1769204 -0.92145777 1.6562689e-39
1.2453094 -4.1680651 -0.92145777 2.1158332e-39
1.2457179 -4.1117454 -0.89387095 1.8399413e-39
1.2685668 -4.1592102 -0.92145777 1.3811226e-39
1.3165312 -4.2015247 -0.94177794 1.012703e-39
1.3392872 -4.190424 -0.9498691 4.5989635e-40
1.3595837 -4.2526836 -0.94632345 2.7622535e-40
0.95648128 -4.2266183 -0.87810552 4.6950953e-39
0.95965743 -4.1677694 -0.85910863 4.5107181e-39
0.98232335 -4.1591392 -0.85910863 3.2203422e-39
1.0125445 -4.1476326 -0.85910863 1.8417336e-39
1.0405071 -4.1377673 -0.85651463 2.5749826e-39
1.0636238 -4.1858249 -0.87810552 2.4838646e-39
1.0865829 -4.177083 -0.87810552 1.9314209e-39
1.131421 -4.2186422 -0.8975023 8.268838e-40
1.1401542 -4.1566863 -0.87810552 1.7455947e-39
1.1477605 -4.0938063 -0.86689067 3.5866136e-39
1.1860725 -4.1392031 -0.87810552 1.9292671e-39
1.2013786 -4.1333756 -0.87810552 1.196374e-39
1.2314038 -4.1781697 -0.90548748 1.5644334e-39
1.2243377 -4.1246338 -0.87810552 1.9306992e-39
1.2469088 -4.172266 -0.90548748 1.9314209e-39
1.2472968 -4.1158924 -0.87810552 2.4813535e-39
1.2787185 -4.1625595 -0.8975023 1.6555529e-39
1.2942234 -4.1566563 -0.8975023 1.2867745e-39
1.327628 -4.207047 -0.90941352 1.0112681e-39
0.95806032 -4.2307653 -0.86234015 4.3281107e-39
0.93589336 -4.129425 -0.8097738 4.4246447e-39
0.95747817 -4.1771922 -0.83057451 4.6979834e-39
0.98544079 -4.1673269 -0.82798052 3.5901995e-39
1.0030267 -4.1038647 -0.8097738 1.7513526e-39
1.0148826 -4.1537733 -0.83576256 2.2119636e-39
1.0254046 -4.0953441 -0.8097738 9.2087029e-40
1.0481417 -4.142673 -0.83057457 1.7484632e-39
1.0738457 -4.134449 -0.82538652 1.012703e-39
1.0912393 -4.1816411 -0.85708499 2.0257661e-39
1.0995497 -4.1262245 -0.82019848 1.1059748e-39
1.1195636 -4.171648 -0.85445744 1.6573451e-39
1.1501757 -4.1599927 -0.85445744 1.1967327e-39
1.1807879 -4.1483374 -0.85445744 1.0130617e-39
1.203747 -4.139596 -0.85445744 7.371965e-40
1.2267061 -4.1308541 -0.85445744 1.3804037e-39
1.2573184 -4.1191988 -0.85445744 1.3804065e-39
1.3051749 -4.1621065 -0.86556172 1.2878521e-39
1.3284324 -4.1532512 -0.86556172 1.1956705e-39
0.93820173 -4.135488 -0.78672445 4.7909091e-39
0.9651131 -4.1820984 -0.80463445 4.4217721e-39
0.98372668 -4.1204686 -0.77904135 3.0363153e-39
0.98777896 -4.1734681 -0.80463445 3.407253e-39
1.0053351 -4.1099277 -0.78672445 2.3941871e-39
1.0277129 -4.1014071 -0.78672445 2.4853149e-39
1.0426314 -4.095727 -0.78672445 1.563716e-39
1.0784426 -4.1389489 -0.80463445 1.012703e-39
1.1086637 -4.1274424 -0.80463445 1.1041896e-39
1.1295849 -4.1749544 -0.83080935 1.0127226e-39
1.1313297 -4.1188126 -0.80463445 1.562281e-39
1.152544 -4.166213 -0.83080935 9.2158495e-40
1.1539955 -4.1101823 -0.80463445 9.1979129e-40
1.1831563 -4.1545577 -0.83080935 3.6806085e-40
1.1766614 -4.1015525 -0.80463445 9.3630559e-41
1.2069048 -4.1478896 -0.82292664 2.7658409e-40
1.2298639 -4.1391478 -0.82292664 1.0116268e-39
1.2604761 -4.1274924 -0.82292664 1.1949419e-39
1.2842247 -4.1208243 -0.81504393 6.442848e-40
1.3106912 -4.1688237 -0.83628285 7.3540424e-40
1.3316312 -4.1616526 -0.83362114 6.4320861e-40
1.3647218 -4.2099814 -0.85277563 3.6842519e-40
0.96745116 -4.1882391 -0.78128833 4.6965653e-39
0.97857577 -4.1293712 -0.755992 3.5902065e-39
0.9817825 -4.1804385 -0.78907037 3.9557647e-39
1.0084128 -4.118011 -0.755992 3.2203646e-39
1.0307907 -4.1094904 -0.755992 2.300202e-39
1.0531684 -4.1009703 -0.755992 1.0137792e-39
1.0800014 -4.1430426 -0.78907037 1.2867745e-39
1.0830055 -4.0896101 -0.755992 1.0112681e-39
1.1102225 -4.131536 -0.78907037 1.0112681e-39
1.1100999 -4.0785232 -0.75855303 1.0112681e-39
1.1328884 -4.1229062 -0.78907037 1.1027448e-39
1.1563336 -4.116323 -0.78128833 1.1949517e-39
1.1650575 -4.0583692 -0.755992 1.7470282e-39
1.1888134 -4.1031756 -0.78388238 3.6877972e-40
1.1956642 -4.0490303 -0.74830884 9.1979129e-40
1.216776 -4.0933104 -0.78128839 5.5209198e-40
1.2469972 -4.0818038 -0.78128833 6.4356734e-40
1.2865932 -4.1270452 -0.79139578 3.6877832e-40
1.3193251 -4.1759582 -0.80168056 6.4356734e-40
1.3348302 -4.1700544 -0.80168056 7.3576157e-40
1.3671528 -4.2163663 -0.82850224 3.6770492e-40
0.96004546 -4.1479964 -0.71757632 3.5941442e-39
0.97056872 -4.1964269 -0.75016022 3.9629407e-39
0.98165375 -4.1374555 -0.72525948 3.6827539e-39
1.0114908 -4.1260953 -0.72525948 3.4994613e-39
1.0338687 -4.1175747 -0.72525948 2.8544352e-39
1.050777 -4.0561075 -0.70866847 1.9353627e-39
1.0535035 -4.1093278 -0.72782052 2.1186764e-39
1.0655103 -4.050498 -0.70866847 1.7524092e-39
1.0883135 -4.0960741 -0.72782052 1.4722392e-39
1.1159207 -4.0863342 -0.72525948 1.1031078e-39
1.136006 -4.1310945 -0.75794226 1.0112681e-39
1.1465272 -4.0769949 -0.71757632 1.0112681e-39
1.1594511 -4.1245108 -0.75016022 1.746315e-39
1.1673661 -4.0644326 -0.73294258 1.2892857e-39
1.1972276 -4.1101279 -0.75016022 9.2338702e-40
1.2062014 -4.0542741 -0.71757632 1.3793275e-39
1.2226717 -4.1012216 -0.74756622 1.4704469e-39
1.2473366 -4.0902677 -0.75275427 8.2723833e-40
1.2752342 -4.1432395 -0.75198227 6.4392607e-40
1.2720014 -4.0793147 -0.75794226 8.268796e-40
1.300218 -4.1321445 -0.75723737 4.5989635e-40
1.3195738 -4.1216102 -0.7677477 5.5137731e-40
0.97446567 -4.2066622 -0.71125007 2.8587414e-39
0.97650284 -4.1463585 -0.70221013 2.3920305e-39
1.0046867 -4.1951556 -0.71125007 4.3266996e-39
1.0137992 -4.1321583 -0.70221013 4.1412139e-39
1.036177 -4.1236377 -0.70221013 3.5891191e-39
1.0538167 -4.0640907 -0.67831749 2.9451945e-39
1.0585548 -4.1151175 -0.70221013 2.8519268e-39
1.0743967 -4.0516844 -0.69349301 1.9317754e-39
1.118229 -4.0923972 -0.70221013 1.194939e-39
1.148066 -4.081037 -0.70221013 1.1031036e-39
1.1927898 -4.1211925 -0.71903211 1.6562689e-39
1.2077403 -4.0583162 -0.70221013 1.1963852e-39
1.2448976 -4.099009 -0.72681415 1.4718805e-39
1.2727638 -4.1520939 -0.72570652 1.1031036e-39
1.3005618 -4.1407189 -0.72833419 6.4392607e-40
1.3396285 -4.1826568 -0.75376964 7.3576297e-40
1.4364787 -4.209466 -0.76377326 7.350441e-40
1.4715503 -4.2594495 -0.7823109 1.747038e-39
1.4844213 -4.1936483 -0.75568217 1.5640747e-39
1.4874738 -4.2533865 -0.7823109 1.5662341e-39
0.98915559 -4.266407 -0.70468599 2.7669059e-39
0.97804183 -4.1504002 -0.68684387 1.4697309e-39
1.0070248 -4.2012963 -0.687904 2.8544478e-39
1.0188506 -4.1379476 -0.67659974 2.9466294e-39
1.0213561 -4.1934962 -0.69568598 3.6841874e-39
1.0384854 -4.1297002 -0.67916077 2.7629584e-39
1.0560963 -4.0700784 -0.65555429 1.9371578e-39
1.0534039 -4.1240201 -0.67916077 2.7608158e-39
1.0754877 -4.061934 -0.65808356 1.9332145e-39
1.0899309 -4.1077991 -0.68684387 2.115452e-39
1.1205374 -4.0984597 -0.67916077 1.5640747e-39
1.1503745 -4.0870996 -0.67916077 8.2939073e-40
1.1727523 -4.0785789 -0.67916077 1.380045e-39
1.2042421 -4.1285515 -0.68012196 1.3814799e-39
1.2187468 -4.1789918 -0.70468599 1.2896444e-39
1.20182 -4.0651979 -0.68684387 1.1974502e-39
1.2289068 -4.1175976 -0.68531001 1.9307062e-39
1.2723181 -4.1585946 -0.70468599 1.2867759e-39
1.3203696 -4.2020144 -0.71384388 8.279614e-40
1.3497801 -4.1860065 -0.72981423 2.7658409e-40
1.3698318 -4.247025 -0.72331768 3.6770492e-40
1.4289759 -4.2212572 -0.73410583 7.350441e-40
1.4546204 -4.2098684 -0.73949993 2.296965e-39
1.4731928 -4.2637639 -0.76590967 2.5721128e-39
1.4761083 -4.2033119 -0.73410583 2.7572187e-39
1.4891163 -4.2577009 -0.76590967 3.3089505e-39
0.99757725 -4.156846 -0.64074516 1.1942216e-39
1.0093631 -4.2074375 -0.66455787 1.7466695e-39
1.0219284 -4.1460314 -0.64586723 3.6805959e-39
1.0244737 -4.201684 -0.66455787 3.406167e-39
1.0289094 -4.0872855 -0.63279104 3.682405e-39
1.0407938 -4.1357632 -0.65611142 3.2214198e-39
1.0583762 -4.0760665 -0.63279104 2.488217e-39
1.0564818 -4.1321044 -0.64842826 2.8540862e-39
1.0965211 -4.117631 -0.64586723 2.668616e-39
1.1236154 -4.106544 -0.64842826 2.4842233e-39
1.1534525 -4.0951838 -0.64842826 1.840663e-39
1.1832895 -4.0838232 -0.64842826 1.3821974e-39
1.2056674 -4.0753031 -0.64842826 1.2889367e-39
1.2375807 -4.1252322 -0.64899385 1.194939e-39
1.2525167 -4.1756296 -0.67315525 1.194939e-39
1.2746866 -4.1648154 -0.6810379 1.103821e-39
1.3030108 -4.1548223 -0.67841035 8.268824e-40
1.3297216 -4.2032638 -0.69787365 5.5209058e-40
1.346826 -4.2015605 -0.68190336 5.5244931e-40
1.3635972 -4.2542729 -0.7071355 2.7623096e-40
1.4072466 -4.1737466 -0.69787365 1.1031036e-39
1.442151 -4.2243638 -0.7071355 2.2966077e-39
1.4605546 -4.2784548 -0.73310709 1.6537578e-39
1.424351 -4.1720433 -0.68190336 2.8501318e-39
1.4578618 -4.2183819 -0.7071355 3.3067967e-39
1.476478 -4.2723923 -0.73310709 2.6646657e-39
1.4553609 -4.1602368 -0.68190336 4.3238227e-39
1.4735725 -4.2124004 -0.7071355 4.5049644e-39
0.99516934 -4.1654758 -0.61513472 3.6770212e-40
1.0222634 -4.1543889 -0.61769575 1.654841e-39
1.0446413 -4.1458683 -0.61769575 3.5937911e-39
1.0575179 -4.0885806 -0.59232312 8.2759706e-40
1.0642761 -4.1376214 -0.62025684 4.1487571e-39
1.0968561 -4.125988 -0.61769575 1.4715245e-39
1.1266932 -4.1146278 -0.61769575 1.0123443e-39
1.1565304 -4.1032677 -0.61769575 8.279558e-40
1.1863674 -4.091907 -0.61769575 5.5209058e-40
1.2139747 -4.0821671 -0.61513478 3.6806085e-40
1.2391394 -4.1293263 -0.63342977 4.5953761e-40
1.2393519 -4.0740476 -0.61001271 1.8403113e-40
1.2648435 -4.1211023 -0.62824178 2.7586662e-40
1.2770548 -4.1710353 -0.65738982 6.4356734e-40
1.2860301 -4.1161604 -0.61786574 9.2555764e-41
1.3084564 -4.1614537 -0.64950716 2.7586662e-40
1.4104453 -4.182148 -0.66593307 5.6234948e-39
1.4321849 -4.1770773 -0.65528619 3.675938e-39
1.4602928 -4.2247667 -0.6828621 4.4106163e-39
1.45776 -4.1665382 -0.6579479 3.8596132e-39
0.97605544 -4.1256909 -0.57208914 9.2198432e-41
0.9947347 -4.1718116 -0.59464645 1.8403253e-40
0.99078876 -4.1200814 -0.57208914 2.7586662e-40
1.0253413 -4.1624727 -0.5869633 5.5209058e-40
1.0477191 -4.1539521 -0.5869633 5.5137311e-40
1.0570889 -4.0948381 -0.57208914 3.6806085e-40
1.099934 -4.1340718 -0.5869633 2.7586662e-40
1.1086556 -4.0752044 -0.57208914 1.8438986e-40
1.1320012 -4.1210914 -0.58952439 1.8438986e-40
1.1596082 -4.1113515 -0.5869633 1.8438986e-40
1.1894453 -4.0999908 -0.5869633 1.8403113e-40
1.2165396 -4.0889039 -0.58952439 1.8403113e-40
1.2408907 -4.0780892 -0.59464645 9.219563e-41
1.2724782 -4.1260076 -0.60230166 9.219563e-41
1.2875888 -4.120254 -0.60230166 9.2197031e-41
1.3192674 -4.1668334 -0.61797631 9.219563e-41
1.3965873 -4.1397691 -0.61009359 8.268796e-40
1.4136443 -4.1905499 -0.63399243 4.3288268e-39
1.4118934 -4.1339412 -0.61009359 1.745952e-39
1.4369018 -4.1816945 -0.63399243 2.4820723e-39
0.97757536 -4.1296825 -0.55691367 1.8403113e-40
0.99935156 -4.183938 -0.54854774 1.8403113e-40
1.0026375 -4.121664 -0.55185515 2.7622535e-40
1.035109 -4.1656957 -0.563914 5.5244931e-40
1.023295 -4.1168456 -0.54173815 6.4464354e-40
1.0507971 -4.1620359 -0.55623084 5.5244931e-40
1.052002 -4.1036305 -0.54932588 2.7658409e-40
1.0806341 -4.1506758 -0.55623084 4.5989635e-40
1.0969619 -4.0887971 -0.54173815 1.8403113e-40
1.1002691 -4.1424284 -0.55879194 2.7622535e-40
1.1264285 -4.0775781 -0.54173815 1.8403113e-40
1.1301061 -4.1310682 -0.55879194 9.219563e-41
1.1626861 -4.1194353 -0.55623084 1.8403113e-40
1.1925232 -4.1080747 -0.55623084 1.8403113e-40
1.2201303 -4.0983343 -0.55366981 2.7586802e-40
1.2445952 -4.1436553 -0.57895559 2.7586662e-40
1.2672611 -4.1350255 -0.57895559 9.219563e-41
1.2974824 -4.1235189 -0.57895559 9.219563e-41
1.3548231 -4.2225647 -0.60205191 1.8438986e-40
1.3717004 -4.2755556 -0.62622422 1.8403113e-40
1.3836495 -4.1518164 -0.58644551 4.5953761e-40
1.3981661 -4.1439157 -0.59432817 8.2723833e-40
1.4393009 -4.1879959 -0.61003703 1.654834e-39
1.4675858 -4.2439213 -0.61004198 1.4704455e-39
0.98137492 -4.1396623 -0.5189749 9.219563e-41
1.003475 -4.131248 -0.5189749 4.5953761e-40
1.0307393 -4.1216288 -0.51644564 6.4392607e-40
1.0531055 -4.1680989 -0.53318143 5.5173184e-40
1.0602061 -4.1104097 -0.51644564 1.8403113e-40
1.0829425 -4.1567388 -0.53318143 1.8403113e-40
1.091875 -4.09759 -0.5189749 1.8403113e-40
1.1213417 -4.0863709 -0.5189749 1.8403113e-40
1.1515683 -4.077148 -0.51138711 9.2198432e-41
1.1649945 -4.1254983 -0.53318143 9.219563e-41
1.195601 -4.1161585 -0.52549827 9.219563e-41
1.2254381 -4.1047983 -0.52549827 9.2197031e-41
1.2485855 -4.098299 -0.51781517 1.8403113e-40
1.2703787 -4.1432137 -0.54782742 1.8403113e-40
1.3005999 -4.1317072 -0.54782748 9.219563e-41
1.3300416 -4.1181531 -0.55560952 1.8403113e-40
1.3493316 -4.1767535 -0.54703194 9.219563e-41
1.353487 -4.1115708 -0.54782748 2.7586662e-40
1.3868074 -4.1601105 -0.55491465 1.1945817e-39
1.3874327 -4.2149591 -0.58608162 1.8403113e-40
1.4021134 -4.154283 -0.55491465 3.0341601e-39
1.4184426 -4.2031522 -0.58608162 1.9306992e-39
1.4401822 -4.1980815 -0.57543468 2.5728358e-39
1.4692065 -4.248178 -0.59385979 1.4704455e-39
0.98441452 -4.1476455 -0.48862386 9.219563e-41
1.0065145 -4.1392312 -0.48862386 2.7586662e-40
1.0359812 -4.1280117 -0.48862386 3.6806085e-40
1.0654479 -4.1167927 -0.48862392 1.8403113e-40
1.0744003 -4.0585418 -0.47510159 3.6770212e-40
1.0971168 -4.1039734 -0.49115312 2.7586662e-40
1.1243813 -4.0943542 -0.48862386 1.8403113e-40
1.1565568 -4.0828657 -0.48609462 1.8403113e-40
1.1606131 -4.1364222 -0.50244898 1.8403673e-40
1.1811124 -4.0735164 -0.48609462 1.8403113e-40
1.2053686 -4.1193814 -0.50244898 1.8403113e-40
1.2061747 -4.0654974 -0.48103613 2.7587923e-40
1.2277465 -4.1108613 -0.50244898 1.8403113e-40
1.220908 -4.0598874 -0.48103613 9.219563e-41
1.2583531 -4.101522 -0.49476585 9.219563e-41
1.280272 -4.1464777 -0.52448136 1.8403113e-40
1.2815005 -4.0950232 -0.48708272 1.8403113e-40
1.3037174 -4.139895 -0.51669931 9.219563e-41
1.296419 -4.0893431 -0.48708272 1.8403113e-40
1.3414938 -4.1255116 -0.51669931 1.8403113e-40
1.3337154 -4.0751424 -0.48708272 7.3540284e-40
1.3566045 -4.1197586 -0.51669931 6.4320861e-40
1.3560933 -4.0666223 -0.48708272 3.2217785e-39
1.3792703 -4.1111283 -0.51669931 3.4022195e-39
1.419788 -4.154676 -0.53126651 3.4929845e-39
1.4456987 -4.2047992 -0.54615587 2.7572257e-39
0.98745424 -4.1556292 -0.45827287 1.8403113e-40
0.99886972 -4.1008415 -0.4301368 4.5953761e-40
1.0095543 -4.1472149 -0.45827287 1.8403113e-40
1.0390209 -4.1359954 -0.45827287 1.8439126e-40
1.0684876 -4.1247764 -0.45827287 1.8403113e-40
1.0979543 -4.1135569 -0.45827287 1.8438986e-40
1.127421 -4.1023378 -0.45827287 9.219563e-41
1.1568877 -4.0911188 -0.45827287 9.219563e-41
1.1789877 -4.0827041 -0.45827287 9.219563e-41
1.2084466 -4.1274652 -0.47171646 1.8474999e-40
1.2308245 -4.1189451 -0.47171646 1.8439686e-40
1.2313144 -4.0650663 -0.45068517 1.8403393e-40
1.2606616 -4.107585 -0.47171646 2.7658409e-40
1.2830393 -4.0990648 -0.47171646 1.8403113e-40
1.2979579 -4.0933847 -0.47171646 1.8403113e-40
1.3295008 -4.1394529 -0.48557121 1.8403113e-40
1.3352543 -4.0791841 -0.47171646 1.1949447e-39
1.3576322 -4.0706639 -0.47171646 3.7742419e-39
1.3899432 -4.1164403 -0.48557121 4.137621e-39
1.4221562 -4.1608958 -0.50761837 2.849057e-39
1.4574497 -4.2123494 -0.50623012 1.1045385e-39
0.98532945 -4.1648173 -0.43045121 1.8403393e-40
1.0076466 -4.1020136 -0.41514859 1.8438986e-40
1.005987 -4.1599989 -0.42033422 1.8403253e-40
1.0420605 -4.1439786 -0.42792192 2.7586942e-40
1.067354 -4.0837946 -0.40016031 2.7658409e-40
1.0715272 -4.1327596 -0.42792198 2.7586662e-40
1.0819056 -4.0782542 -0.40016031 2.7622535e-40
1.1009939 -4.1215401 -0.42792192 2.7586662e-40
1.1304606 -4.110321 -0.42792192 1.8403113e-40
1.1599272 -4.099102 -0.42792198 9.219563e-41
1.1871917 -4.0894833 -0.42539272 1.8403113e-40
1.210755 -4.1335282 -0.44866714 1.8403113e-40
1.212254 -4.0814643 -0.42033422 5.5137311e-40
1.2256736 -4.1278481 -0.44866714 1.8403113e-40
1.2335941 -4.0710535 -0.42792192 2.7586802e-40
1.2696599 -4.1087871 -0.45635027 1.8403113e-40
1.2630608 -4.0598345 -0.42792192 9.219563e-41
1.2845783 -4.103107 -0.45635027 9.219563e-41
1.3167282 -4.1513472 -0.46222508 9.219563e-41
1.2859207 -4.0534163 -0.42033422 9.219563e-41
1.308495 -4.0986285 -0.44098401 1.8403113e-40
1.3318388 -4.1455936 -0.46222508 1.8403113e-40
1.3375627 -4.085247 -0.44866714 1.6544795e-39
1.3599405 -4.0767269 -0.44866714 3.953964e-39
1.3930606 -4.1246276 -0.4544431 3.8603208e-39
1.3743209 -4.0197582 -0.42033422 2.1136527e-39
1.4253141 -4.1691899 -0.47608754 3.3085904e-39
1.4789305 -4.2737174 -0.49676627 1.745952e-39
0.98616701 -4.1744013 -0.39757097 9.219563e-41
1.004874 -4.1166115 -0.3701838 1.8438986e-40
1.0156337 -4.1631823 -0.39757097 2.7587503e-40
1.0339772 -4.1055307 -0.3701838 4.5954042e-40
1.0451003 -4.1519628 -0.39757103 1.8438986e-40
1.0623299 -4.0924783 -0.37767792 1.8403113e-40
1.0664403 -4.1415524 -0.40515873 1.8403113e-40
1.091433 -4.0813975 -0.37767792 1.8403113e-40
1.1106405 -4.1247234 -0.40515873 1.8438986e-40
1.1132605 -4.0730872 -0.37767792 1.8403113e-40
1.1327405 -4.1163092 -0.40515873 9.219563e-41
1.1350878 -4.0647764 -0.37767792 9.219563e-41
1.1629671 -4.1070862 -0.39757097 1.8403113e-40
1.1576656 -4.0584369 -0.3701838 1.8403113e-40
1.1924338 -4.0958667 -0.39757097 1.8403113e-40
1.2145339 -4.0874524 -0.39757097 1.8403113e-40
1.2366339 -4.0790377 -0.39757097 9.219563e-41
1.2661006 -4.0678186 -0.39757103 9.219563e-41
1.2928585 -4.0568686 -0.40010023 1.8403113e-40
1.3174932 -4.0998306 -0.42561775 9.219563e-41
1.3184272 -4.0501804 -0.38998324 2.7597312e-39
1.3406405 -4.0933309 -0.41793463 2.9430435e-39
1.3626273 -4.0333514 -0.38998324 3.3093079e-39
1.3704777 -4.0819707 -0.41793463 4.3216535e-39
1.3598868 -3.9769287 -0.38517207 2.0207425e-39
1.3758408 -4.0237503 -0.40515873 2.0214599e-39
0.98454779 -4.1288643 -0.35519552 2.7586662e-40
0.98920661 -4.1823845 -0.36721998 1.8403253e-40
1.0063751 -4.120554 -0.35519552 2.7586802e-40
1.0354782 -4.1094732 -0.35519552 9.2555764e-41
1.0645814 -4.098392 -0.35519552 9.219563e-41
1.0936846 -4.0873113 -0.35519552 1.8403113e-40
1.115512 -4.0790009 -0.35519552 9.219563e-41
1.1439067 -4.1234837 -0.36721998 9.219563e-41
1.1446152 -4.0679197 -0.35519552 9.219563e-41
1.1741334 -4.1142602 -0.35963228 9.219563e-41
1.1954734 -4.1038499 -0.36722004 9.219563e-41
1.2175735 -4.0954356 -0.36721998 1.8403113e-40
1.2396735 -4.0870209 -0.36721998 1.8403113e-40
1.2691402 -4.0758018 -0.36721998 9.219563e-41
1.2986069 -4.0645823 -0.36721998 9.187151e-40
1.3205712 -4.1079144 -0.3948853 6.4321001e-40
1.3280736 -4.0533633 -0.36721998 4.8755349e-39
1.3504083 -4.0965538 -0.3948853 4.8784034e-39
1.3575404 -4.0421438 -0.36722004 4.0439918e-39
1.3653269 -4.0908737 -0.3948853 4.6918654e-39
0.91204369 -4.0109286 -0.284805 4.7001134e-39
0.90922409 -4.0654445 -0.28821447 5.9894089e-39
0.97952372 -4.1375484 -0.33271313 2.7586662e-40
0.98388249 -4.087091 -0.30650184 2.7622676e-40
1.0086268 -4.1264677 -0.33271313 4.5990475e-40
1.0126358 -4.0761433 -0.30650184 1.8546606e-40
1.03773 -4.115387 -0.33271313 2.7622535e-40
1.0432907 -4.0629849 -0.31143788 9.2554362e-41
1.0660826 -4.102335 -0.34020725 1.8438986e-40
1.0694009 -4.0523005 -0.31390586 1.8403113e-40
1.0951858 -4.0912542 -0.34020725 1.8438986e-40
1.0981543 -4.0413527 -0.31390586 2.7586662e-40
1.1170132 -4.0829439 -0.34020725 1.8403253e-40
1.1269076 -4.030405 -0.31390586 9.219563e-41
1.1388406 -4.0746331 -0.34020725 2.7586662e-40
1.1477312 -4.020247 -0.32130992 9.219563e-41
1.1686943 -4.0655231 -0.33271313 1.8403113e-40
1.2007154 -4.1102328 -0.33939832 9.219563e-41
1.2206132 -4.1034193 -0.33686903 9.219563e-41
1.2427132 -4.0950046 -0.33686903 9.219563e-41
1.27218 -4.0837855 -0.33686903 9.219563e-41
1.3016466 -4.072566 -0.33686903 1.1023861e-39
1.3284044 -4.0616164 -0.33939832 5.4294164e-39
1.3687067 -4.0493188 -0.32928133 2.9419659e-39
1.3774029 -4.1001596 -0.34878659 3.6780862e-39
0.89191693 -4.1265659 -0.29169372 4.9723955e-39
0.92215347 -4.1195135 -0.27688554 6.2663475e-39
0.98327643 -4.1474051 -0.29524246 2.7586802e-40
0.99329537 -4.0901966 -0.2842896 2.7622535e-40
1.0148604 -4.081986 -0.2842896 3.6806225e-40
1.0342896 -4.0237021 -0.26870573 2.7586662e-40
1.042872 -4.0690904 -0.29169372 1.8403113e-40
1.0723671 -4.060091 -0.2842896 1.8403113e-40
1.1011205 -4.0491433 -0.28428966 1.8403113e-40
1.1226854 -4.0409322 -0.2842896 1.8403113e-40
1.1506196 -4.0836902 -0.29524246 9.219563e-41
1.1695213 -4.0749888 -0.30023852 9.219563e-41
1.2007928 -4.1178207 -0.31410584 9.219563e-41
1.2015501 -4.0642991 -0.29524246 9.2554362e-41
1.2228929 -4.1094065 -0.31410584 1.8403253e-40
1.2457528 -4.1029878 -0.30651808 1.8403113e-40
1.2752196 -4.0917687 -0.30651808 9.2197031e-41
1.3046862 -4.0805492 -0.30651808 1.3778926e-39
1.3341529 -4.0693302 -0.30651808 5.5201883e-39
1.356564 -4.1127214 -0.33342034 6.4360195e-39
1.3717463 -4.057302 -0.29893035 1.8392225e-39
1.3774813 -4.1078424 -0.32317621 3.8624732e-39
0.88378739 -4.306612 -0.28732157 1.6573493e-39
0.90813869 -4.2957978 -0.29244369 2.4881974e-39
0.92389905 -4.232388 -0.28375483 4.5143124e-39
0.93534803 -4.1746817 -0.26526588 2.0218229e-39
0.95642477 -4.1643991 -0.27276 1.6577039e-39
0.98552793 -4.1533184 -0.27276 1.8403113e-40
1.0153817 -4.1442094 -0.26526588 2.7586662e-40
1.0250146 -4.087039 -0.25467339 2.7658409e-40
1.0421996 -4.0302382 -0.23700421 2.7586662e-40
1.0393913 -4.0815654 -0.25467339 2.7586662e-40
1.0613842 -4.0236683 -0.23456559 3.6770212e-40
1.0774821 -4.0663199 -0.25714138 1.8403113e-40
1.109967 -4.1081967 -0.26526588 1.8403113e-40
1.1048281 -4.0588808 -0.24726933 9.219563e-41
1.1245186 -4.1026564 -0.26526588 9.2554362e-41
1.1482708 -4.0921078 -0.27026194 9.219563e-41
1.1746985 -4.0812931 -0.27276 9.219563e-41
1.2038016 -4.0702124 -0.27276 1.8403113e-40
1.2263798 -4.0638733 -0.26526588 1.8403113e-40
1.2480327 -4.1089759 -0.28375483 1.8403113e-40
1.2774994 -4.0977569 -0.28375483 1.8403533e-40
1.3069661 -4.0865374 -0.28375483 1.1942216e-39
1.3364328 -4.0753183 -0.28375483 5.2421595e-39
1.3732662 -4.0612941 -0.28375483 3.2171136e-39
1.37533 -4.1171465 -0.2950047 3.5851759e-39
0.87385201 -4.2560129 -0.26857933 3.2153242e-39
0.88686526 -4.3146958 -0.25658906 5.6977524e-39
0.90847355 -4.3041549 -0.26427218 5.6134601e-39
0.93354535 -4.23557 -0.26099157 3.5837704e-39
0.93085146 -4.2956343 -0.26427218 4.8766097e-39
0.93759978 -4.1805954 -0.24278347 2.8512094e-39
0.94246227 -4.1296201 -0.21765313 2.7658969e-40
0.95675153 -4.1725512 -0.24528149 5.5137311e-40
0.95916653 -4.0684624 -0.215057 1.8403113e-40
0.96064258 -4.1197252 -0.22752517 1.8403113e-40
0.99070519 -4.1596236 -0.24528149 1.8403113e-40
0.97410446 -4.0649781 -0.20774126 1.8439686e-40
0.99996895 -4.1077247 -0.21765313 4.5954042e-40
1.0176334 -4.1501231 -0.24278347 1.8403113e-40
1.0234358 -4.0973039 -0.22258918 2.7587083e-40
1.0380278 -4.0406394 -0.20774126 1.8403393e-40
1.0416158 -4.0874081 -0.23246123 2.7586662e-40
1.0664382 -4.0298223 -0.20774126 1.8403113e-40
1.0948485 -4.0190053 -0.20774126 1.8403533e-40
1.106311 -4.0627756 -0.23246123 1.8403673e-40
1.1161563 -4.0108929 -0.20774126 1.8403113e-40
1.1358058 -4.0537758 -0.22505717 9.219563e-41
1.1507726 -4.0986786 -0.24528149 1.8403113e-40
1.1653007 -4.0447755 -0.21765313 1.8403813e-40
1.1777009 -4.0891786 -0.24278347 2.7586662e-40
1.1868657 -4.0365648 -0.21765313 1.8403533e-40
1.206804 -4.0780978 -0.24278347 1.8403113e-40
1.2359072 -4.0670166 -0.24278347 2.7586662e-40
1.2569191 -4.1101627 -0.26857933 1.8403113e-40
1.2657608 -4.0579071 -0.23528934 1.8403113e-40
1.2797791 -4.103744 -0.26099157 2.7586662e-40
1.2948639 -4.0468264 -0.23528934 1.8403113e-40
1.3092457 -4.0925245 -0.26099157 1.8403113e-40
1.3387125 -4.0813055 -0.26099157 6.4356734e-40
1.3703814 -4.0684862 -0.26352084 1.929623e-39
1.3791773 -4.1272511 -0.25658906 6.4320861e-40
1.3895193 -4.0596762 -0.26857933 4.6933409e-39
0.88917375 -4.3207588 -0.23353975 6.2613505e-39
0.90787828 -4.2567692 -0.22305284 7.7289149e-39
0.90880859 -4.3125114 -0.23610075 7.1786138e-39
0.9265095 -4.2466283 -0.23316982 7.1789711e-39
0.93332601 -4.1912503 -0.21280694 4.3266982e-39
0.94394535 -4.1335154 -0.20284501 6.4393308e-40
0.9536041 -4.0823312 -0.17603973 2.7658409e-40
0.9684009 -4.1256905 -0.19790895 3.6806085e-40
0.98413771 -4.0699711 -0.17847824 3.6770212e-40
1.001452 -4.1116199 -0.20284501 3.6806365e-40
1.01516 -4.0588942 -0.17603973 1.8438986e-40
1.0211154 -4.1056199 -0.19790895 2.7622535e-40
1.034477 -3.9947944 -0.18359616 1.8403113e-40
1.0388353 -4.04988 -0.17603973 1.8403113e-40
1.0615337 -4.0383 -0.185794 9.219563e-41
1.0891951 -4.0826721 -0.1880369 9.219563e-41
1.1107602 -4.0744615 -0.1880369 1.8403253e-40
1.1240665 -4.0174289 -0.17603973 1.8403113e-40
1.1459602 -4.0588293 -0.19544096 9.3271827e-41
1.1675253 -4.0506182 -0.19544096 2.7586942e-40
1.1970203 -4.0416188 -0.1880369 1.8403533e-40
1.2124815 -4.0857162 -0.21030888 1.8439266e-40
1.2185853 -4.0334077 -0.1880369 1.8403113e-40
1.2389092 -4.0749016 -0.21280694 1.8403113e-40
1.2680124 -4.0638208 -0.21280694 1.8403673e-40
1.2949405 -4.0543203 -0.21030888 9.2554362e-41
1.3204122 -4.0996995 -0.22305284 1.8403113e-40
1.3417522 -4.0892892 -0.23064055 9.219563e-41
1.3712189 -4.0780697 -0.23064055 2.7586662e-40
0.91015792 -4.2627563 -0.20028964 7.5430803e-39
0.92489135 -4.2571468 -0.20028964 8.0976694e-39
0.93557763 -4.1971641 -0.19032454 2.4831485e-39
0.95815557 -4.190825 -0.18283041 4.6026629e-40
0.95604634 -4.0887456 -0.1516538 4.5953902e-40
0.98706847 -4.0776682 -0.14921522 3.6806085e-40
1.0225813 -4.064147 -0.14921522 2.7586662e-40
1.0202777 -4.1178317 -0.15842068 2.7658409e-40
1.0438892 -4.0560341 -0.14921522 1.8403113e-40
1.0659297 -4.0498457 -0.14189953 2.7622535e-40
1.0820825 -4.0928135 -0.16335669 1.8438986e-40
1.1044221 -4.1373925 -0.17533627 1.8438986e-40
1.1129848 -4.0803041 -0.16582474 1.8403113e-40
1.1354903 -4.0189543 -0.15653104 1.8439126e-40
1.1352912 -4.0740409 -0.15842068 1.8403113e-40
1.1704915 -4.0584087 -0.16582474 9.219563e-41
1.1992449 -4.0474615 -0.16582474 1.8403113e-40
1.2200682 -4.0373025 -0.1732288 1.8403113e-40
1.2491872 -4.0800166 -0.18283041 1.8403113e-40
1.270264 -4.0697346 -0.19032454 1.8403113e-40
1.2920915 -4.0614238 -0.19032454 9.219563e-41
1.3234518 -4.1076827 -0.19270188 9.219563e-41
1.3447918 -4.0972724 -0.20028964 9.219563e-41
1.366132 -4.086863 -0.20787735 1.8403113e-40
0.94266438 -4.2595205 -0.16993868 3.4987242e-39
0.93931568 -4.3178649 -0.17975785 5.7928123e-39
0.95739776 -4.253911 -0.16993868 1.2874934e-39
0.96115774 -4.19871 -0.15285388 1.1945915e-39
0.97482735 -4.1425695 -0.13374047 1.1023889e-39
1.0016789 -4.1338329 -0.12880448 3.6770772e-40
1.0105742 -4.0753288 -0.12726803 2.7587643e-40
1.0296907 -4.1209373 -0.13620852 3.6770212e-40
1.0460873 -4.0618072 -0.12726803 3.6770212e-40
1.0773536 -4.0513721 -0.12239078 1.8438986e-40
1.0936443 -4.0943575 -0.14361258 2.7586662e-40
1.1010289 -4.0423579 -0.12239078 1.8403113e-40
1.1152093 -4.0861468 -0.14361258 1.8403113e-40
1.1242158 -4.0320606 -0.12726803 9.219563e-41
1.146853 -4.0755849 -0.13867658 2.7586802e-40
1.1734575 -4.0661988 -0.13620852 1.8403113e-40
1.2022109 -4.0552516 -0.13620852 1.8403113e-40
1.2230344 -4.0450931 -0.14361258 4.5953761e-40
1.2470888 -4.0890913 -0.15535189 2.7586802e-40
1.2659906 -4.08039 -0.16034801 3.6770212e-40
1.2911004 -4.1260948 -0.17246801 2.7586662e-40
1.3183647 -4.1164751 -0.16993868 1.8403113e-40
1.3644942 -4.1559811 -0.17975785 1.8403113e-40
1.3861026 -4.1454401 -0.18744098 4.5989635e-40
0.93679953 -4.3803763 -0.18207206 4.7822631e-39
0.94908345 -4.3210878 -0.15670858 5.2518607e-39
0.96043748 -4.2618947 -0.13958772 4.328845e-39
0.96926063 -4.2054052 -0.12037922 3.0352447e-39
1.0012895 -4.194715 -0.11538322 8.2724394e-40
1.0376685 -4.1808639 -0.11538322 1.8439967e-40
1.0391036 -4.124043 -0.11399625 1.8438986e-40
1.0635591 -4.1162186 -0.10906025 1.8403673e-40
1.0845309 -4.0559835 -0.098005131 2.7622816e-40
1.0829753 -4.1095695 -0.10659219 1.8403813e-40
1.0987362 -4.0505753 -0.098005131 2.7658409e-40
1.1261053 -4.0931478 -0.10659219 1.8440527e-40
1.1397403 -4.0857263 -0.11399625 2.7658409e-40
1.1686327 -4.131 -0.11538322 1.8403113e-40
1.1684937 -4.0747786 -0.11399625 9.2197031e-41
1.1977359 -4.1199193 -0.11538322 1.8438986e-40
1.197247 -4.0638309 -0.11399625 1.8439266e-40
1.2268391 -4.1088386 -0.11538322 1.8403113e-40
1.2452404 -4.0988231 -0.12537536 1.8403113e-40
1.2919378 -4.1356783 -0.13958772 1.8403393e-40
1.3186957 -4.1247287 -0.14211693 1.8403113e-40
1.3660332 -4.1600232 -0.16439171 1.8403113e-40
1.0445106 -4.2390256 -0.10923664 1.8403813e-40
1.0682727 -4.1737256 -0.10039495 2.7588344e-40
1.0673705 -4.2326074 -0.10164899 2.7586662e-40
1.098877 -4.1665874 -0.085406683 3.68435e-40
1.0995765 -4.1099381 -0.084380038 3.6770212e-40
1.1139531 -4.1044645 -0.084380038 3.6841958e-40
1.1425318 -4.1499662 -0.085406683 1.2860599e-39
1.1563327 -4.1424546 -0.092900813 1.9321341e-39
1.1852373 -4.1877303 -0.10164899 5.5244931e-40
1.1900362 -4.1288695 -0.095398821 1.3821974e-39
1.2218149 -4.1175232 -0.092900813 1.8403253e-40
1.2441708 -4.1652918 -0.10164899 9.219563e-41
1.2682197 -4.1546116 -0.10670742 1.8403113e-40
1.2868509 -4.1444707 -0.11682441 1.8403113e-40
1.0223724 -4.3116951 -0.095243566 3.3997098e-39
1.0420074 -4.3034482 -0.097804576 2.299123e-39
1.0475502 -4.2470088 -0.078885794 3.7710245e-39
1.0743079 -4.2360592 -0.081415012 1.3811324e-39
1.1064836 -4.2245703 -0.078885794 1.8403113e-40
1.125131 -4.1626101 -0.065422289 2.1129479e-39
1.1447834 -4.1558805 -0.062924281 6.258468e-39
1.1735436 -4.201323 -0.071298018 5.7949661e-39
1.1600853 -4.1523104 -0.055430152 6.9005794e-39
1.1926814 -4.192513 -0.076356575 5.0588458e-39
1.2243503 -4.1796932 -0.078885794 2.0243284e-39
1.056057 -4.3104401 -0.056827933 5.2389309e-39
1.0587164 -4.2541838 -0.040947057 5.5223309e-39
1.0709755 -4.30476 -0.056827933 6.3459777e-39
1.0800565 -4.243773 -0.048534714 5.6145517e-39
1.0992738 -4.2893572 -0.072194189 2.1186764e-39
1.1201911 -4.2844791 -0.061950054 2.1172415e-39
1.1389899 -4.2213345 -0.048534714 2.8533744e-39
1.1357452 -4.1184659 -0.010339612 3.0348818e-39
1.1477855 -4.1637654 -0.032947753 6.6283393e-39
1.1430413 -4.0601459 -0.010216204 3.6770352e-40
1.1486387 -4.109097 -0.025147606 5.2450307e-39
1.1696129 -4.1554546 -0.032947753 4.9695228e-39
1.1952145 -4.1991658 -0.051063932 5.152489e-39
1.1643491 -4.0520329 -0.010216204 1.8403113e-40
1.1932518 -4.096571 -0.010339612 9.219563e-41
1.1965408 -4.1459537 -0.030449631 1.7484646e-39
1.2200234 -4.1904817 -0.048534714 2.7572187e-39
1.2499981 -4.236598 -0.056827933 2.022176e-39
1.0602363 -4.2581758 -0.025771519 4.4095429e-39
1.0852984 -4.2501564 -0.020713082 7.0857119e-39
1.1254988 -4.2909417 -0.033778552 4.4138547e-39
1.1099577 -4.1372037 0.019276602 3.0309315e-39
1.1316358 -4.1796947 -0.00047309831 5.2407385e-39
1.1420295 -4.2293177 -0.018183865 4.9688054e-39
1.1478766 -4.2824216 -0.033778664 4.8759105e-39
1.1334245 -4.1267824 0.014340605 2.4809947e-39
1.1452392 -4.0659184 0.011730998 1.8403113e-40
1.1736497 -4.0551014 0.011730998 9.219563e-41
1.1093845 -4.1941853 0.01951118 2.9437609e-39
1.1148428 -4.2465253 0.0045794444 3.0330839e-39
1.1278071 -4.2970047 -0.010729283 2.2101518e-39
1.0991846 -4.0944705 0.048309706 3.9618841e-39
1.1114409 -4.141099 0.034084827 2.8476473e-39
1.1204923 -4.0863576 0.048309706 2.7587083e-40
1.133006 -4.1328883 0.034084827 6.4321281e-40
1.1489028 -4.0755405 0.048309706 9.219563e-41
1.1617593 -4.1219406 0.034084827 1.8403113e-40
1.1643721 -4.0193639 0.062196612 9.219563e-41
1.1744572 -4.0643415 0.043432575 9.219563e-41
1.1013825 -4.1002431 0.070257023 1.0105604e-39
1.1248137 -4.0905871 0.067818455 2.7586662e-40
1.1447643 -4.0311837 0.076654956 1.8403113e-40
1.148489 -4.081573 0.067818455 1.8403113e-40
1.1588014 -4.0258389 0.076654956 9.219563e-41
1.1873465 -4.069716 0.077572718 9.219563e-41
1.0950873 -4.1121874 0.1019586 1.8403393e-40
1.117373 -4.1566796 0.093317255 1.8403253e-40
1.1302665 -4.1473107 0.078509033 1.8403113e-40
1.1459931 -4.202817 0.094452508 9.219563e-41
