# .PCD v0.7 - Point Cloud Data file format
VERSION 0.7
FIELDS x y z rgb
SIZE 4 4 4 4
TYPE F F F F
COUNT 1 1 1 1
WIDTH 1016
HEIGHT 1
VIEWPOINT 0 0 0 1 0 0 0
POINTS 1016
DATA ascii
0.87396836 -1.1192242 -1.2800167 3.6878252e-40
0.87260318 -1.1448661 -1.255524 4.6097815e-40
0.85772204 -1.1481276 -1.2693009 5.5317378e-40
0.85532117 -1.1820964 -1.255524 4.6097815e-40
0.84008622 -1.1663253 -1.2745725 4.6097815e-40
1.1816946 -1.0103333 -1.1849512 8.2976067e-40
1.1575077 -0.99032688 -1.1869825 7.3756504e-40
1.1456174 -0.97379434 -1.1901686 7.3756504e-40
1.1883204 -1.0321681 -1.1785072 6.4536941e-40
1.1668595 -1.006797 -1.1740725 7.3756504e-40
1.1967028 -1.0595889 -1.1824045 6.4536941e-40
1.1774091 -1.0632644 -1.1767621 4.6097815e-40
1.1547031 -1.082975 -1.1789474 6.4536941e-40
1.1344845 -1.1018715 -1.1670804 5.5317378e-40
1.1263951 -1.1009815 -1.1864001 5.5317378e-40
0.89816451 -1.0779922 -1.2347672 5.5317378e-40
0.89741921 -1.0981604 -1.2346137 4.6097815e-40
0.88263917 -1.1235591 -1.2380433 4.6097815e-40
0.87460566 -1.1513296 -1.234398 4.6097815e-40
0.86204076 -1.1734369 -1.2356951 6.4536941e-40
1.1637089 -0.96767998 -1.1448947 7.3756504e-40
1.1739299 -1.006729 -1.1492097 6.4536941e-40
1.1535608 -0.98482049 -1.158675 7.3756504e-40
1.1839325 -1.0310259 -1.1461747 5.5317378e-40
1.1736301 -1.0594819 -1.1452832 5.5317378e-40
1.1540204 -1.0815711 -1.1476138 5.5317378e-40
1.1232499 -1.0843816 -1.145308 5.5317378e-40
1.1316915 -1.1021959 -1.1570728 5.5317378e-40
1.117895 -1.0941052 -1.1524251 5.5317378e-40
0.90567088 -1.0785288 -1.2040327 4.6097815e-40
0.91611767 -1.104792 -1.1910197 4.6097815e-40
0.90052509 -1.0941278 -1.211966 5.5317378e-40
0.89809299 -1.1342527 -1.1955365 4.6097815e-40
0.88635802 -1.1257755 -1.2139494 6.4536941e-40
0.88872242 -1.1571945 -1.1965631 5.5317378e-40
0.87047386 -1.1611229 -1.2159328 5.5317378e-40
0.85997629 -1.1760559 -1.209942 5.5317378e-40
1.1677182 -1.0038456 -1.1206166 5.5317378e-40
1.1548343 -0.98311287 -1.1281124 8.2976067e-40
1.135535 -0.96081626 -1.1291722 8.2976067e-40
1.184474 -1.041963 -1.1051081 5.5317378e-40
1.1769947 -1.0254304 -1.1168894 4.6097815e-40
1.1567049 -1.0020833 -1.1273303 1.1985432e-39
1.1799214 -1.0597653 -1.119162 5.5317378e-40
1.1668863 -1.0574273 -1.1129124 9.219563e-40
1.1480763 -1.0778744 -1.1179801 4.6097815e-40
1.1201254 -1.0829313 -1.1309258 5.5317378e-40
1.1132667 -1.0924735 -1.1281667 4.6097815e-40
0.93438601 -1.0952322 -1.1618257 6.4536941e-40
0.91771412 -1.0803941 -1.1684861 6.4536941e-40
0.89922905 -1.0650949 -1.1760573 6.4536941e-40
0.92785621 -1.1087461 -1.1608527 5.5317378e-40
0.9192152 -1.1015898 -1.1713607 5.5317378e-40
0.91440487 -1.1363797 -1.1584899 4.6097815e-40
0.90275192 -1.13226 -1.1749502 5.5317378e-40
0.90477848 -1.1583829 -1.1607137 5.5317378e-40
0.88898897 -1.1674478 -1.1726657 4.6097815e-40
0.8730557 -1.1823498 -1.1685748 5.5317378e-40
0.83269048 -1.1959108 -1.164053 5.5317378e-40
1.1421286 -0.95870745 -1.0989161 9.219563e-40
1.1630538 -0.99762845 -1.0920235 6.4536941e-40
1.1495931 -0.97697914 -1.0991986 7.3756504e-40
1.182184 -1.0409 -1.0945677 4.6097815e-40
1.1705836 -1.0240854 -1.0878621 6.4536941e-40
1.1612769 -1.0545152 -1.0865501 6.4536941e-40
1.1398114 -1.074805 -1.0915873 4.6097815e-40
1.1130953 -1.0796679 -1.0985658 4.6097815e-40
1.1197259 -1.0909688 -1.0920235 4.6097815e-40
1.1082679 -1.0888402 -1.0964085 8.2976067e-40
0.92846775 -1.0924851 -1.1345832 3.6878252e-40
0.91588354 -1.0739889 -1.140277 5.5317378e-40
0.90133762 -1.0585295 -1.1524655 5.5317378e-40
0.92577887 -1.109401 -1.1341015 3.6878252e-40
0.91521835 -1.1369045 -1.1351714 4.6097815e-40
0.90083265 -1.1638826 -1.1354029 5.5317378e-40
0.88774729 -1.1794701 -1.133286 4.6097815e-40
0.86903453 -1.1839973 -1.1412154 9.219563e-40
0.85156274 -1.191245 -1.1328691 6.4536941e-40
0.82880759 -1.1963568 -1.1501319 6.4536941e-40
1.1405238 -0.9551295 -1.0736685 8.2976067e-40
1.1243925 -0.94734609 -1.063296 9.219563e-40
1.1558086 -0.99561596 -1.0610476 5.5317378e-40
1.1433209 -0.97623622 -1.071687 5.5317378e-40
1.1768247 -1.0264629 -1.0488925 5.5317378e-40
1.1666925 -1.021291 -1.0601033 6.4536941e-40
1.1551365 -1.0516648 -1.0582854 6.4536941e-40
1.1343408 -1.070627 -1.0630969 5.5317378e-40
1.1064529 -1.0745466 -1.0644081 5.5317378e-40
1.1142961 -1.0925002 -1.0741527 6.4536941e-40
1.1037328 -1.0834742 -1.0698014 4.6097815e-40
0.93518329 -1.0603067 -1.1034491 5.5317378e-40
0.92898846 -1.0786792 -1.1022686 5.5317378e-40
0.92200184 -1.0673772 -1.1217712 4.6097815e-40
0.93681908 -1.1171067 -1.089283 4.6097815e-40
0.9281671 -1.1086451 -1.107211 5.5317378e-40
0.92642808 -1.1427704 -1.0950457 4.6097815e-40
0.91703892 -1.1386698 -1.1123856 6.4536941e-40
0.91769409 -1.1604929 -1.0931247 4.6097815e-40
0.90148759 -1.1677727 -1.104652 5.5317378e-40
0.87941265 -1.1808956 -1.1042275 4.6097815e-40
0.86351585 -1.1866913 -1.1100264 4.6097815e-40
0.84429622 -1.1945719 -1.1111995 5.5317378e-40
0.82712221 -1.2003589 -1.1207318 4.6097815e-40
0.82058978 -1.209918 -1.1127985 7.3756504e-40
1.1350846 -0.95460725 -1.0444245 8.2976067e-40
1.1519033 -0.99206871 -1.0341195 5.5317378e-40
1.1361117 -0.970976 -1.0418849 6.4536941e-40
1.1586578 -1.0177287 -1.0291394 6.4536941e-40
1.1494322 -1.0473006 -1.0290111 7.3756504e-40
1.1267984 -1.0600899 -1.0409113 6.4536941e-40
1.1034516 -1.0679448 -1.0414366 5.5317378e-40
1.086107 -1.0710726 -1.0327687 6.4536941e-40
0.92841959 -1.0571669 -1.0723151 6.4536941e-40
0.94096255 -1.0972533 -1.070074 4.6097815e-40
0.92857504 -1.0770329 -1.0754615 6.4536941e-40
0.91858768 -1.0569159 -1.0904516 8.2976067e-40
0.94249105 -1.1172609 -1.0671793 4.6097815e-40
0.93312454 -1.1453164 -1.069068 4.6097815e-40
0.91202259 -1.1669948 -1.0671302 4.6097815e-40
0.8915441 -1.1756817 -1.080899 7.3756504e-40
0.89937401 -1.1824762 -1.0623903 4.6097815e-40
0.87503934 -1.1884011 -1.0708069 4.6097815e-40
0.8575685 -1.1883688 -1.0904516 3.6878252e-40
0.84390879 -1.1982173 -1.0860883 4.6097815e-40
1.1369923 -0.9552784 -1.0219178 8.2976067e-40
1.1444184 -0.98897809 -1.0062441 9.219563e-40
1.1369376 -0.97022212 -1.0119172 6.4536941e-40
1.1474049 -1.0137147 -1.0000306 6.4536941e-40
1.1390748 -1.040931 -1.0012504 5.5317378e-40
1.1162322 -1.0550028 -1.007696 5.5317378e-40
1.0960836 -1.0615487 -1.0108767 7.3756504e-40
1.0832049 -1.0705694 -1.0105889 9.219563e-40
0.95091867 -1.0583216 -1.0393395 5.5317378e-40
0.93755555 -1.0567632 -1.046098 4.6097815e-40
0.94246268 -1.0875849 -1.038463 4.6097815e-40
0.9303062 -1.0687938 -1.0498104 4.6097815e-40
0.9471004 -1.1253728 -1.0311259 4.6097815e-40
0.93892121 -1.1112853 -1.0451514 3.6878252e-40
0.93860626 -1.1463856 -1.0358974 4.6097815e-40
0.9228313 -1.1535256 -1.0445198 4.6097815e-40
0.92479634 -1.1709547 -1.0267884 5.5317378e-40
0.91177249 -1.1720529 -1.0414088 5.5317378e-40
0.89289355 -1.1887537 -1.039582 4.6097815e-40
0.87561893 -1.1945913 -1.0538315 4.6097815e-40
0.86672187 -1.202879 -1.0497334 4.6097815e-40
1.1227838 -0.95023656 -0.98500633 7.3756504e-40
1.1053104 -0.93848836 -0.97546095 9.219563e-40
1.1374356 -0.98978865 -0.98122507 4.6097815e-40
1.1218611 -0.96858692 -0.98543501 6.4536941e-40
1.1422778 -1.0099764 -0.97322887 6.4536941e-40
1.1223353 -0.98612916 -0.96912587 4.6097815e-40
1.1231778 -1.0351845 -0.97329968 4.6097815e-40
1.1057802 -1.0553954 -0.97667617 5.5317378e-40
1.0880919 -1.0626266 -0.97391999 6.4536941e-40
1.0774634 -1.0670604 -0.99298215 5.5317378e-40
0.9666779 -1.0656167 -1.0002205 5.5317378e-40
0.95173287 -1.0688169 -1.0050609 5.5317378e-40
0.95435762 -1.0951802 -1.0055341 4.6097815e-40
0.94301629 -1.0756465 -1.0119631 5.5317378e-40
0.94762158 -1.1198227 -1.0059024 4.6097815e-40
0.9400506 -1.1484916 -1.003209 5.5317378e-40
0.9191041 -1.1718328 -1.0067762 4.6097815e-40
0.90943813 -1.1882077 -0.99895537 5.5317378e-40
0.89097691 -1.1989795 -1.0099907 4.6097815e-40
1.1116998 -0.94664502 -0.96247685 8.2976067e-40
1.0948029 -0.93377674 -0.95829612 9.219563e-40
1.1107395 -0.9645834 -0.95495492 7.3756504e-40
1.0965787 -0.94480765 -0.95350218 8.2976067e-40
1.1340412 -1.0071167 -0.94731331 6.4536941e-40
1.1127663 -0.98613828 -0.94762391 7.3756504e-40
1.11879 -1.0310794 -0.94482929 5.5317378e-40
1.1024296 -1.0494502 -0.94678992 8.2976067e-40
1.082105 -1.0612063 -0.94875109 4.6097815e-40
1.0641749 -1.0682489 -0.95505172 6.4536941e-40
0.96397424 -1.0686437 -0.97669858 4.6097815e-40
0.94510031 -1.068624 -0.97960353 6.4536941e-40
0.95473862 -1.0911857 -0.97390884 5.5317378e-40
0.94179368 -1.0757473 -0.97960353 6.4536941e-40
0.95323205 -1.1190032 -0.97139049 4.6097815e-40
0.94276381 -1.1488523 -0.97225916 4.6097815e-40
0.92441607 -1.1742083 -0.97525549 4.6097815e-40
0.90391946 -1.1954057 -0.97548854 5.5317378e-40
0.88393545 -1.2047348 -0.98724073 5.5317378e-40
0.89244056 -1.211871 -0.97618288 9.219563e-40
0.86948323 -1.2193041 -0.98044723 4.6097815e-40
1.0869868 -0.928868 -0.94067484 9.219563e-40
1.0716752 -0.92504764 -0.93178487 8.2976067e-40
1.0977931 -0.96753007 -0.9318065 1.0141519e-39
1.0805674 -0.95137262 -0.93250835 1.0141519e-39
1.0652598 -0.93886805 -0.93178487 9.219563e-40
1.1228245 -1.0048753 -0.91663694 5.5317378e-40
1.1042012 -0.98346269 -0.92152399 5.5317378e-40
1.1145635 -1.028486 -0.91540974 4.6097815e-40
1.098193 -1.0537511 -0.91671824 5.5317378e-40
1.0716954 -1.0604504 -0.90800148 5.5317378e-40
1.0650419 -1.0711015 -0.92084807 6.4536941e-40
0.95019865 -1.0665727 -0.93949401 4.6097815e-40
0.9409523 -1.0666987 -0.96051049 5.5317378e-40
0.95156717 -1.0912166 -0.94414502 4.6097815e-40
0.93262601 -1.072982 -0.95862919 6.4536941e-40
0.96558762 -1.1252275 -0.93344516 4.6097815e-40
0.9548502 -1.1236478 -0.94581765 4.6097815e-40
0.94125438 -1.1513377 -0.94300586 5.5317378e-40
0.94839287 -1.1707476 -0.9483484 5.5317378e-40
0.92820525 -1.1783007 -0.94098723 5.5317378e-40
0.90425038 -1.2004791 -0.94506848 5.5317378e-40
0.88688445 -1.2191811 -0.94407171 5.5317378e-40
0.87069154 -1.2202322 -0.96432912 5.5317378e-40
0.85106087 -1.2297348 -0.96250355 7.3756504e-40
1.0642189 -0.92184663 -0.91264212 8.2976067e-40
1.1156943 -0.97969657 -0.88114911 5.5317378e-40
1.0956042 -0.96667027 -0.89379263 5.5317378e-40
1.0748692 -0.94876111 -0.90399492 5.5317378e-40
1.0593581 -0.93243873 -0.90671962 7.3756504e-40
1.1174645 -0.99923521 -0.88756895 7.3756504e-40
1.1010598 -0.97792828 -0.89989704 5.5317378e-40
1.1083858 -1.0256184 -0.88697362 5.5317378e-40
1.094012 -1.046957 -0.88894069 7.3756504e-40
1.0693483 -1.0566436 -0.89242077 4.6097815e-40
1.0486487 -1.0669997 -0.89663309 5.5317378e-40
0.96333551 -1.0703069 -0.91208941 9.219563e-40
0.96583438 -1.1084466 -0.90488052 3.6878252e-40
0.95092368 -1.089295 -0.9183982 6.4536941e-40
0.97777629 -1.1369154 -0.89281917 4.6097815e-40
0.97112679 -1.1284387 -0.90854812 4.6097815e-40
0.95434976 -1.1526545 -0.90690231 5.5317378e-40
0.93231249 -1.1599375 -0.9242608 3.6878252e-40
0.9378345 -1.1777263 -0.90874213 4.6097815e-40
0.92496562 -1.1936636 -0.89991283 7.3756504e-40
0.90357828 -1.2020305 -0.91734493 6.4536941e-40
0.89024973 -1.2202889 -0.91446859 4.6097815e-40
1.0554949 -0.91653633 -0.8784461 9.219563e-40
1.1119649 -0.97634459 -0.86113393 6.4536941e-40
1.0970691 -0.96298218 -0.86709702 6.4536941e-40
1.0660068 -0.94727409 -0.87640607 5.5317378e-40
1.0531871 -0.93220389 -0.88007438 8.2976067e-40
1.1106802 -0.99630851 -0.85987955 4.6097815e-40
1.0981315 -0.98304629 -0.87204593 4.6097815e-40
1.1043612 -1.0230523 -0.85756105 5.5317378e-40
1.0860138 -1.044638 -0.86144298 6.4536941e-40
1.0623198 -1.0544678 -0.86197835 5.5317378e-40
1.0409029 -1.0639077 -0.86830366 4.6097815e-40
1.0024598 -1.0690815 -0.86705071 4.6097815e-40
0.98513556 -1.072449 -0.88034821 4.6097815e-40
0.96312308 -1.0722363 -0.88677067 4.6097815e-40
0.96003437 -1.1064584 -0.87942082 4.6097815e-40
0.94868684 -1.0881083 -0.89044517 5.5317378e-40
0.97138786 -1.1409056 -0.87564021 6.4536941e-40
0.96157002 -1.1225593 -0.88075471 5.5317378e-40
0.96665168 -1.1610957 -0.86978006 7.3756504e-40
0.95055532 -1.162794 -0.89103645 5.5317378e-40
0.95145679 -1.1856788 -0.86169553 4.6097815e-40
0.9395225 -1.18182 -0.88270152 4.6097815e-40
0.91876769 -1.1964184 -0.88128376 5.5317378e-40
0.89629078 -1.2045414 -0.88485831 5.5317378e-40
0.88461065 -1.217683 -0.88853377 4.6097815e-40
1.0517833 -0.91684401 -0.84939343 8.2976067e-40
1.1077496 -0.97060609 -0.83508241 6.4536941e-40
1.0900778 -0.95200866 -0.83335048 8.2976067e-40
1.0638584 -0.9323982 -0.84211951 7.3756504e-40
1.0507681 -0.92794156 -0.85769683 7.3756504e-40
1.1115155 -0.99664867 -0.82724917 5.5317378e-40
1.090309 -0.97126287 -0.82170814 6.4536941e-40
1.1021661 -1.0243132 -0.82677835 6.4536941e-40
1.0778961 -1.0447983 -0.8304109 7.3756504e-40
1.0576352 -1.0539238 -0.84328151 4.6097815e-40
1.034606 -1.0609847 -0.83931977 5.5317378e-40
0.99522138 -1.0749073 -0.83957589 4.6097815e-40
0.98207045 -1.0752338 -0.856462 5.5317378e-40
0.98178911 -1.1059393 -0.83884466 4.6097815e-40
0.97218108 -1.0972404 -0.85769683 4.6097815e-40
0.96902108 -1.1344926 -0.84252375 4.6097815e-40
0.96055484 -1.1233402 -0.85954905 4.6097815e-40
0.97455907 -1.171715 -0.83877194 4.6097815e-40
0.96850824 -1.1578714 -0.84304309 4.6097815e-40
0.96746731 -1.1849222 -0.83513355 5.5317378e-40
0.94988704 -1.1901995 -0.84407312 5.5317378e-40
0.93834424 -1.2037253 -0.83517575 4.6097815e-40
0.91549468 -1.2056043 -0.85069162 5.5317378e-40
0.89331102 -1.2098354 -0.86427659 1.4751301e-39
0.89669323 -1.2227782 -0.84402561 4.6097815e-40
0.88735747 -1.221239 -0.86177725 4.6097815e-40
1.0796789 -0.92559421 -0.80420738 8.2976067e-40
1.0681413 -0.91948837 -0.81847256 8.2976067e-40
1.0515499 -0.91150618 -0.83176601 8.2976067e-40
1.0978353 -0.97140658 -0.79894382 6.4536941e-40
1.0849482 -0.95098794 -0.80762339 6.4536941e-40
1.068748 -0.92981434 -0.82174969 6.4536941e-40
1.1087495 -0.99579209 -0.79750311 8.2976067e-40
1.0987732 -1.0237851 -0.79582644 7.3756504e-40
1.0736089 -1.0444694 -0.80190337 4.6097815e-40
1.035792 -1.0600688 -0.80570853 7.3756504e-40
1.0336089 -1.1036687 -0.78822142 4.6097815e-40
1.0188752 -1.0944712 -0.80212015 4.6097815e-40
0.99338841 -1.0741545 -0.81871814 6.4536941e-40
1.0243244 -1.1236702 -0.78822142 7.3756504e-40
1.00837 -1.1150863 -0.81106639 4.6097815e-40
1.011945 -1.1503389 -0.78822142 4.6097815e-40
0.99695802 -1.1435578 -0.80384815 5.5317378e-40
0.9787159 -1.167865 -0.81094843 4.6097815e-40
0.96930671 -1.1923524 -0.80732238 4.6097815e-40
0.95459867 -1.2093974 -0.8036654 4.6097815e-40
0.92889452 -1.2154689 -0.81488073 4.6097815e-40
0.91608763 -1.2237405 -0.81183273 4.6097815e-40
0.896451 -1.2304335 -0.82221985 4.6097815e-40
1.1159772 -0.92218161 -0.76537299 8.2976067e-40
1.0765909 -0.92451376 -0.7848891 7.3756504e-40
1.0937247 -0.96486771 -0.77188253 5.5317378e-40
1.0818919 -0.94501877 -0.77804267 4.6097815e-40
1.1036677 -0.99240512 -0.7695027 5.5317378e-40
1.0921966 -1.0224488 -0.76857114 5.5317378e-40
1.0711244 -1.0434655 -0.77177155 5.5317378e-40
1.0498376 -1.0544754 -0.76320249 4.6097815e-40
1.0329053 -1.0643934 -0.77595913 4.6097815e-40
1.0442501 -1.0990229 -0.76822114 4.6097815e-40
1.0232995 -1.0808225 -0.78629452 4.6097815e-40
1.0384327 -1.1262041 -0.76609343 4.6097815e-40
1.0234226 -1.154531 -0.76750201 4.6097815e-40
1.003423 -1.1806886 -0.76820719 4.6097815e-40
0.98442626 -1.1789111 -0.78575265 8.2976067e-40
0.98252201 -1.1974592 -0.7596283 3.6878252e-40
0.96996689 -1.1991369 -0.77799863 3.6878252e-40
0.95170307 -1.2161801 -0.778862 5.5317378e-40
0.91279316 -1.2325941 -0.78057623 5.5317378e-40
0.89354801 -1.2329216 -0.79842639 5.5317378e-40
1.069236 -0.92221981 -0.75872761 7.3756504e-40
1.0542738 -0.90723908 -0.75587142 7.3756504e-40
1.0397274 -0.89201981 -0.75273877 8.2976067e-40
1.094108 -0.95888913 -0.73921162 6.4536941e-40
1.0788283 -0.93978608 -0.75233644 5.5317378e-40
1.1050868 -1.0019257 -0.7340855 5.5317378e-40
1.0980389 -0.9851678 -0.74126011 6.4536941e-40
1.0968026 -1.0180843 -0.73111856 6.4536941e-40
1.0859517 -1.0235553 -0.74686784 5.5317378e-40
1.0684973 -1.0445344 -0.74168921 5.5317378e-40
1.0826989 -1.0944756 -0.71754527 5.5317378e-40
1.0722585 -1.0881977 -0.72993821 3.6878252e-40
1.0450091 -1.070102 -0.74276423 4.6097815e-40
1.0326613 -1.0586358 -0.75698817 5.5317378e-40
1.0766822 -1.1074371 -0.71754527 4.6097815e-40
1.0640556 -1.1088709 -0.73521495 3.6878252e-40
1.054706 -1.0931638 -0.75090569 4.6097815e-40
1.0502632 -1.1322825 -0.73358327 4.6097815e-40
1.0340967 -1.1527267 -0.73033774 3.6878252e-40
1.0220225 -1.1599201 -0.7444818 4.6097815e-40
1.0085957 -1.181895 -0.7401911 5.5317378e-40
0.98293567 -1.2046491 -0.74199289 5.5317378e-40
0.96625471 -1.2182713 -0.73460937 3.6878252e-40
0.94996834 -1.2230889 -0.75009418 4.6097815e-40
0.92250299 -1.2300454 -0.74417412 5.5317378e-40
0.90534139 -1.2344861 -0.7591148 5.5317378e-40
1.0704864 -0.92106509 -0.72279382 7.3756504e-40
1.0405965 -0.90316081 -0.71980256 6.4536941e-40
1.0294371 -0.89233267 -0.73492509 7.3756504e-40
1.0890981 -0.95612425 -0.70992953 6.4536941e-40
1.0758359 -0.9363308 -0.72021103 6.4536941e-40
1.1006913 -0.99510562 -0.70545065 5.5317378e-40
1.0917398 -0.98198092 -0.71287686 6.4536941e-40
1.0900646 -1.0207411 -0.70712328 6.4536941e-40
1.0845042 -1.0068619 -0.71204156 5.5317378e-40
1.1021174 -1.0598756 -0.6889376 6.4536941e-40
1.0814222 -1.045434 -0.70745748 5.5317378e-40
1.0693678 -1.0446957 -0.72122759 4.6097815e-40
1.091902 -1.0887341 -0.69508004 4.6097815e-40
1.0778781 -1.0763277 -0.71461153 3.6878252e-40
1.0608027 -1.063951 -0.72264087 6.4536941e-40
1.0811969 -1.1147779 -0.69694668 3.6878252e-40
1.0639552 -1.1387644 -0.69293422 4.6097815e-40
1.0479264 -1.1400571 -0.71321398 4.6097815e-40
1.0469551 -1.1649684 -0.69260871 4.6097815e-40
1.0320803 -1.1621833 -0.7123391 4.6097815e-40
1.0355489 -1.1815571 -0.69206774 4.6097815e-40
1.0164466 -1.1851213 -0.70994812 4.6097815e-40
1.0011463 -1.192468 -0.72264087 4.6097815e-40
1.0011148 -1.2064573 -0.69988769 6.4536941e-40
0.99305582 -1.2058783 -0.71557462 4.6097815e-40
0.96751833 -1.2262397 -0.71230978 7.3756504e-40
0.94546437 -1.2301201 -0.72822374 4.6097815e-40
0.95896745 -1.2423637 -0.7021389 4.6097815e-40
0.92928028 -1.2361004 -0.72896498 4.6097815e-40
1.0821564 -0.89556408 -0.68352145 7.3756504e-40
1.0863992 -0.93098164 -0.68457139 1.0141519e-39
1.0716331 -0.91244125 -0.68973041 6.4536941e-40
1.048683 -0.89293826 -0.70669764 8.2976067e-40
1.0885416 -0.953771 -0.67955887 6.4536941e-40
1.1168082 -1.01074 -0.66173744 5.5317378e-40
1.0992726 -0.98901761 -0.67993009 6.4536941e-40
1.0820704 -0.96907699 -0.68792087 5.5317378e-40
1.1275823 -1.038126 -0.65107816 1.1063476e-39
1.1143632 -1.0343336 -0.66634619 7.3756504e-40
1.0908827 -1.0146366 -0.6868968 5.5317378e-40
1.1142725 -1.0706865 -0.65791243 6.4536941e-40
1.1096729 -1.05632 -0.66761547 5.5317378e-40
1.0952995 -1.0913911 -0.66538912 4.6097815e-40
1.0828331 -1.1179025 -0.66478288 4.6097815e-40
1.0674819 -1.1432617 -0.665986 5.5317378e-40
1.0517693 -1.1679677 -0.66663897 5.5317378e-40
1.0322336 -1.1873881 -0.67087281 5.5317378e-40
1.0128071 -1.1966348 -0.67967308 4.6097815e-40
1.0164729 -1.2055237 -0.66195786 3.6878252e-40
1.0005333 -1.2099361 -0.68018866 4.6097815e-40
0.98486733 -1.2254695 -0.67177993 5.5317378e-40
0.97217083 -1.2326279 -0.68350488 4.6097815e-40
0.94557881 -1.2467003 -0.68267196 5.5317378e-40
1.1055771 -0.8993212 -0.65217096 7.3756504e-40
1.0810437 -0.89253342 -0.65852404 7.3756504e-40
1.1277592 -0.94997096 -0.63416415 6.4536941e-40
1.1179097 -0.93395007 -0.63953841 5.5317378e-40
1.0970159 -0.92454493 -0.65507406 6.4536941e-40
1.080071 -0.90536797 -0.66709936 7.3756504e-40
1.1513066 -0.98893631 -0.62368512 6.4536941e-40
1.1334635 -0.97470009 -0.63626999 5.5317378e-40
1.1107153 -0.96162975 -0.64914382 4.6097815e-40
1.0959356 -0.95208788 -0.6590451 4.6097815e-40
1.1461743 -1.0128608 -0.62786716 6.4536941e-40
1.1204524 -1.0023292 -0.65130883 9.219563e-40
1.108088 -0.97944689 -0.65871 4.6097815e-40
1.1356454 -1.0422697 -0.62924719 5.5317378e-40
1.1208813 -1.0688312 -0.63388431 4.6097815e-40
1.1055138 -1.0954171 -0.6342302 4.6097815e-40
1.0924863 -1.0873364 -0.64760816 4.6097815e-40
1.0980716 -1.1211518 -0.63141096 5.5317378e-40
1.0746403 -1.1257818 -0.64760816 8.2976067e-40
1.0831487 -1.1486379 -0.62831891 5.5317378e-40
1.0667088 -1.1428685 -0.64760816 4.6097815e-40
1.0686524 -1.1756903 -0.62312275 4.6097815e-40
1.0524338 -1.168408 -0.64519262 4.6097815e-40
1.0447127 -1.2010999 -0.62374127 4.6097815e-40
1.0359379 -1.1937981 -0.64084649 4.6097815e-40
1.015335 -1.2152147 -0.63926452 5.5317378e-40
0.99690509 -1.216979 -0.65521622 4.6097815e-40
0.98044229 -1.2294135 -0.65146005 4.6097815e-40
0.94283867 -1.2417151 -0.65880877 5.5317378e-40
0.92362618 -1.24444 -0.67069489 4.6097815e-40
1.1141202 -0.91371089 -0.61322206 6.4536941e-40
1.0958216 -0.90063703 -0.62684083 7.3756504e-40
1.0743974 -0.88465905 -0.62638271 6.4536941e-40
1.1489944 -0.9628402 -0.59982145 5.5317378e-40
1.1337438 -0.93901092 -0.61282355 6.4536941e-40
1.1066213 -0.91298914 -0.63078028 7.3756504e-40
1.165478 -0.99977946 -0.58979839 4.6097815e-40
1.158403 -0.98547548 -0.60118669 4.6097815e-40
1.1381338 -0.96520054 -0.6175794 4.6097815e-40
1.1583837 -1.0193411 -0.59731835 5.5317378e-40
1.1451174 -1.0474652 -0.59651834 4.6097815e-40
1.1342098 -1.0728751 -0.59987837 5.5317378e-40
1.1211174 -1.1010799 -0.59987837 5.5317378e-40
1.1084771 -1.1290983 -0.59900331 6.4536941e-40
1.0971771 -1.1502208 -0.59560198 5.5317378e-40
1.0811335 -1.1615758 -0.60203093 4.6097815e-40
1.0715169 -1.1783147 -0.60040587 4.6097815e-40
1.0517501 -1.2016912 -0.60205936 4.6097815e-40
1.0308886 -1.2192173 -0.60323858 3.6878252e-40
1.018194 -1.2237014 -0.61384916 5.5317378e-40
1.0009987 -1.2401479 -0.61227489 4.6097815e-40
0.96174216 -1.2560531 -0.60845071 4.6097815e-40
1.1130749 -0.91230589 -0.59105164 5.5317378e-40
1.0791113 -0.89788491 -0.59879196 7.3756504e-40
1.0532452 -0.88098097 -0.61537284 6.4536941e-40
1.0362988 -0.86845845 -0.61676502 7.3756504e-40
1.0139556 -0.86605823 -0.6095019 7.3756504e-40
1.1445403 -0.96077251 -0.57931882 4.6097815e-40
1.133004 -0.93904012 -0.58114499 5.5317378e-40
1.1140739 -0.91885185 -0.57485777 7.3756504e-40
1.0958755 -0.90800101 -0.58131689 6.4536941e-40
1.0271496 -0.87876928 -0.6002425 8.2976067e-40
1.1636771 -0.99201763 -0.56933278 5.5317378e-40
1.1514962 -0.97349483 -0.57603055 6.4536941e-40
1.1523703 -1.0165497 -0.56963819 6.4536941e-40
1.1436172 -1.0453478 -0.56833148 5.5317378e-40
1.1293939 -1.0702112 -0.56837195 7.3756504e-40
1.120333 -1.0663629 -0.58310491 4.6097815e-40
1.1155553 -1.09813 -0.5693357 5.5317378e-40
1.1065081 -1.1267018 -0.56812787 4.6097815e-40
1.0898175 -1.1513062 -0.56963819 4.6097815e-40
1.0794871 -1.172413 -0.5676223 4.6097815e-40
1.0647255 -1.1823117 -0.57634562 3.6878252e-40
1.049412 -1.2006065 -0.57466197 3.6878252e-40
1.023226 -1.2221169 -0.57931888 4.6097815e-40
1.0173087 -1.2348655 -0.57931876 3.6878252e-40
0.99328756 -1.2400926 -0.57911026 5.5317378e-40
0.97203302 -1.2518514 -0.57510251 4.6097815e-40
0.9574275 -1.2590013 -0.5881713 4.6097815e-40
0.94433475 -1.2717379 -0.58781052 3.6878252e-40
1.1293274 -0.92032486 -0.54076201 5.5317378e-40
1.0064483 -0.86537302 -0.57986671 7.3756504e-40
1.1437793 -0.95600075 -0.54443628 7.3756504e-40
1.1286408 -0.93313754 -0.55183047 5.5317378e-40
1.0766723 -0.90347683 -0.57577157 6.4536941e-40
1.0373656 -0.88739145 -0.57680869 7.3756504e-40
1.0239599 -0.8772887 -0.58556044 6.4536941e-40
1.0024357 -0.87190962 -0.57616228 6.4536941e-40
1.1577047 -0.98924541 -0.5418418 7.3756504e-40
1.1449338 -0.9702732 -0.54638231 7.3756504e-40
1.147024 -1.0139165 -0.54261672 1.1063476e-39
1.1415195 -1.0431502 -0.54042399 1.1063476e-39
1.1300284 -1.0706769 -0.53950626 8.2976067e-40
1.1143367 -1.0982795 -0.54149753 6.4536941e-40
1.0987834 -1.1238217 -0.5418607 6.4536941e-40
1.0881231 -1.1506399 -0.54058307 7.3756504e-40
1.0709717 -1.1783063 -0.54334766 5.5317378e-40
1.058514 -1.1989912 -0.53491813 6.4536941e-40
1.0443317 -1.2024962 -0.54747486 5.5317378e-40
1.0232586 -1.2193005 -0.54672736 5.5317378e-40
1.00581 -1.2353388 -0.53660488 4.6097815e-40
0.99200273 -1.2425038 -0.55165118 4.6097815e-40
0.96964312 -1.2603326 -0.55144376 4.6097815e-40
0.952214 -1.2635685 -0.56787008 4.6097815e-40
0.94281411 -1.2741436 -0.56660432 3.6878252e-40
1.1263254 -0.91893131 -0.52694368 7.3756504e-40
1.1072317 -0.90775406 -0.52943784 7.3756504e-40
1.1419032 -0.95166695 -0.51402611 1.1063476e-39
1.1235207 -0.92847228 -0.52450782 8.2976067e-40
0.98195648 -0.86954021 -0.54596043 7.3756504e-40
0.96761084 -0.86168301 -0.56463969 7.3756504e-40
1.1515987 -0.98571849 -0.51251799 1.4751301e-39
1.140074 -0.96756792 -0.51281446 1.1063476e-39
1.1625382 -1.0345359 -0.51096559 1.0141519e-39
1.1463063 -1.0117573 -0.51077324 1.3829344e-39
1.1400452 -1.0420687 -0.50771731 1.4751301e-39
1.1274816 -1.0694405 -0.50933117 1.0141519e-39
1.1158582 -1.0970244 -0.50843531 1.1985432e-39
1.0973715 -1.1244994 -0.50990796 1.1063476e-39
1.0981035 -1.1620606 -0.49112669 8.2976067e-40
1.0894619 -1.1524831 -0.50935191 1.1985432e-39
1.0695598 -1.1773258 -0.51075596 1.1063476e-39
1.0542707 -1.1999172 -0.50974202 8.2976067e-40
1.0417597 -1.2166083 -0.50243801 1.2907388e-39
1.0275041 -1.2231923 -0.51385653 8.2976067e-40
1.0045485 -1.2389812 -0.51799208 8.2976067e-40
0.9845686 -1.2475233 -0.52051473 9.219563e-40
0.9606204 -1.2549828 -0.52794135 8.2976067e-40
0.93538237 -1.259197 -0.52792692 8.2976067e-40
0.92847419 -1.2656773 -0.52889872 7.3756504e-40
0.91054177 -1.2654004 -0.53348655 8.2976067e-40
1.1187851 -0.91328019 -0.49632522 8.2976067e-40
1.1034366 -0.90599233 -0.51196861 8.2976067e-40
0.98651052 -0.84771907 -0.52484745 5.5317378e-40
0.97745872 -0.84088349 -0.53436357 6.4536941e-40
1.1405826 -0.94697881 -0.48675695 1.2907388e-39
1.1273149 -0.92437518 -0.49303505 9.219563e-40
0.98021722 -0.86500776 -0.52672291 8.2976067e-40
0.97096634 -0.85487026 -0.53436357 6.4536941e-40
1.1522399 -0.98723334 -0.48004356 1.4751301e-39
1.1390711 -0.96680784 -0.48764604 1.1063476e-39
1.1542747 -1.0288258 -0.46963456 1.2907388e-39
1.1482953 -1.0127615 -0.47885677 1.0141519e-39
1.1471894 -1.0446539 -0.4706265 1.1063476e-39
1.1377765 -1.0449995 -0.48465258 1.1063476e-39
1.1363804 -1.0673751 -0.46963456 1.0141519e-39
1.1251049 -1.0719578 -0.47792268 1.3829344e-39
1.1115302 -1.0975723 -0.47869948 1.0141519e-39
1.1016643 -1.141223 -0.46798131 1.1985432e-39
1.0973178 -1.1242988 -0.47732949 9.219563e-40
1.0961206 -1.1555175 -0.47211438 9.219563e-40
1.0894418 -1.1502413 -0.48047981 1.1063476e-39
1.0671841 -1.1752512 -0.48022512 7.3756504e-40
1.0529537 -1.2010247 -0.47927243 1.0141519e-39
1.0353929 -1.2216231 -0.48237267 1.0141519e-39
1.0178322 -1.2314248 -0.48509529 7.3756504e-40
0.99543428 -1.2376608 -0.49194887 6.4536941e-40
0.97859859 -1.2447522 -0.49303505 6.4536941e-40
0.96013594 -1.25464 -0.49362585 6.4536941e-40
0.94006968 -1.2579311 -0.51196861 6.4536941e-40
0.92563725 -1.2702892 -0.50002617 5.5317378e-40
0.90207791 -1.2735361 -0.51573539 6.4536941e-40
0.87865663 -1.282958 -0.51658672 6.4536941e-40
1.012526 -0.83170497 -0.48788664 8.2976067e-40
1.0039208 -0.85108078 -0.48935914 7.3756504e-40
0.99516177 -0.84573555 -0.50260347 6.4536941e-40
1.1343734 -0.94493139 -0.46016309 1.4751301e-39
1.1120795 -0.91621262 -0.46821573 8.2976067e-40
1.0168144 -0.87785172 -0.48221081 9.219563e-40
0.99951839 -0.87083256 -0.49452883 7.3756504e-40
0.98714495 -0.86481178 -0.50577867 7.3756504e-40
1.1610503 -0.99636066 -0.43822297 1.0141519e-39
1.1520706 -0.98485279 -0.45268044 1.2907388e-39
1.1341368 -0.96549153 -0.45805815 9.219563e-40
1.1533256 -1.0172647 -0.44571769 1.1985432e-39
1.1465234 -1.0098084 -0.45836881 9.219563e-40
1.141732 -1.0436201 -0.44814247 1.2907388e-39
1.1291426 -1.0706303 -0.44794795 1.2907388e-39
1.1201622 -1.070823 -0.45720953 1.1985432e-39
1.1192575 -1.0924131 -0.44880372 1.0141519e-39
1.1049123 -1.09869 -0.44844544 1.1063476e-39
1.1025705 -1.1337615 -0.44658923 1.4751301e-39
1.0965412 -1.1167606 -0.45280269 1.0141519e-39
1.0937805 -1.1542288 -0.44667855 2.2126951e-39
1.078021 -1.1752293 -0.43822297 9.219563e-40
1.0675362 -1.1756769 -0.45394525 8.2976067e-40
1.0525773 -1.2008111 -0.4523662 9.219563e-40
1.0305626 -1.2239281 -0.45338702 6.4536941e-40
1.0134294 -1.2312969 -0.46819708 6.4536941e-40
0.99014878 -1.2402216 -0.46059683 7.3756504e-40
0.9720881 -1.260361 -0.45288557 8.2976067e-40
0.96408725 -1.2573755 -0.46885663 7.3756504e-40
0.94677353 -1.2756912 -0.46737859 5.5317378e-40
0.9167912 -1.2775217 -0.48186398 6.4536941e-40
0.90409231 -1.2862242 -0.47268316 3.6878252e-40
1.0750201 -0.82997614 -0.44030753 6.4536941e-40
1.0316331 -0.83284378 -0.45277041 5.5317378e-40
1.0170729 -0.83203554 -0.47134128 5.5317378e-40
1.1254441 -0.92091733 -0.43693903 1.3829344e-39
1.110412 -0.91060984 -0.43630961 7.3756504e-40
1.0235912 -0.85977149 -0.45033222 4.6097815e-40
1.0069512 -0.84833306 -0.47258794 4.6097815e-40
1.1433252 -0.9538939 -0.41665637 8.2976067e-40
1.1338344 -0.94073892 -0.43057409 1.4751301e-39
1.104579 -0.91273087 -0.43368945 1.2907388e-39
1.0529139 -0.89198852 -0.4577316 7.3756504e-40
1.0239266 -0.88009775 -0.45421436 7.3756504e-40
1.0058911 -0.86744487 -0.47406939 6.4536941e-40
1.1589531 -0.98993486 -0.41898528 1.1063476e-39
1.1456785 -0.97281975 -0.42118907 1.2907388e-39
1.1304656 -0.96378744 -0.44115993 1.0141519e-39
1.1497587 -1.0131083 -0.41803429 1.1063476e-39
1.1365205 -1.0422977 -0.41827747 1.4751301e-39
1.1218227 -1.0694182 -0.4180966 1.1985432e-39
1.1088383 -1.0967042 -0.41436553 1.4751301e-39
1.1021534 -1.0963817 -0.43393925 1.1063476e-39
1.102517 -1.1249874 -0.41762549 1.1063476e-39
1.0889108 -1.1520525 -0.41725516 1.3829344e-39
1.0734519 -1.1767685 -0.41605118 1.1063476e-39
1.0604066 -1.1802648 -0.42330143 9.219563e-40
1.0651526 -1.2015589 -0.41699415 8.2976067e-40
1.0469749 -1.2102093 -0.42507437 7.3756504e-40
1.0283234 -1.2225376 -0.42211124 1.1063476e-39
1.0075557 -1.2285703 -0.44115993 6.4536941e-40
1.0081323 -1.2412667 -0.41843769 7.3756504e-40
0.99278283 -1.2432306 -0.43288127 7.3756504e-40
0.97484112 -1.2648323 -0.4302735 6.4536941e-40
0.95818186 -1.2848089 -0.42549118 3.6878252e-40
0.94695783 -1.2845823 -0.44322816 3.6878252e-40
1.0333122 -0.81126511 -0.4276351 8.2976067e-40
1.0305467 -0.82942152 -0.42654073 8.2976067e-40
1.12 -0.91839027 -0.4118802 8.2976067e-40
1.0260344 -0.85830683 -0.4248119 8.2976067e-40
1.1373646 -0.95532584 -0.39087629 1.2907388e-39
1.1273741 -0.93759239 -0.39855707 1.0141519e-39
1.094208 -0.91017902 -0.40567026 8.2976067e-40
1.0740263 -0.9011966 -0.40790269 8.2976067e-40
1.040019 -0.88692254 -0.41573524 9.219563e-40
1.0212938 -0.87741542 -0.4262819 9.219563e-40
1.1534657 -0.99133098 -0.38895065 1.2907388e-39
1.1372768 -0.96903133 -0.39316985 1.3829344e-39
1.150025 -1.0134284 -0.3860684 1.3829344e-39
1.1325966 -1.0381582 -0.38784599 1.4751301e-39
1.1164279 -1.0654383 -0.38852361 1.3829344e-39
1.1208313 -1.1166004 -0.37277943 9.219563e-40
1.1082946 -1.0969 -0.3872706 1.1985432e-39
1.1003009 -1.1257222 -0.38691375 1.1985432e-39
1.0826102 -1.1522352 -0.38727593 1.3829344e-39
1.0749074 -1.1819106 -0.38570493 9.219563e-40
1.0587027 -1.202161 -0.38855681 7.3756504e-40
1.03879 -1.2064099 -0.38739869 6.4536941e-40
1.0263547 -1.2220298 -0.3919127 8.2976067e-40
1.0041473 -1.2466398 -0.39400774 9.219563e-40
0.98806977 -1.2718453 -0.39352974 6.4536941e-40
0.97596598 -1.2927232 -0.38707754 4.6097815e-40
0.96382284 -1.2914151 -0.40441772 3.6878252e-40
0.94098282 -1.3001565 -0.40504596 3.6878252e-40
1.0565052 -0.82256109 -0.38076934 4.6097815e-40
1.0481927 -0.84402674 -0.3870241 6.4536941e-40
1.034296 -0.82807791 -0.40003082 6.4536941e-40
1.0185218 -0.8069241 -0.41551271 7.3756504e-40
1.0408328 -0.86715055 -0.39035615 9.219563e-40
1.0277188 -0.86883807 -0.4046239 8.2976067e-40
1.139097 -0.95044971 -0.36024308 1.1985432e-39
1.1236689 -0.92950076 -0.3723211 1.1985432e-39
1.0965027 -0.9114964 -0.37732145 1.4751301e-39
1.0696144 -0.89891505 -0.38324866 9.219563e-40
1.0507052 -0.88778591 -0.38759878 9.219563e-40
1.148115 -0.98391414 -0.3572574 1.8439126e-39
1.1395607 -0.96583319 -0.36450902 1.2907388e-39
1.1432053 -1.010788 -0.358224 1.9361082e-39
1.1306254 -1.0395732 -0.3560338 1.1985432e-39
1.1133766 -1.0653909 -0.35858691 1.3829344e-39
1.1194069 -1.1085597 -0.35325101 9.219563e-40
1.1122313 -1.0942336 -0.35633159 1.1063476e-39
1.1003193 -1.1244779 -0.35372001 1.1985432e-39
1.0898051 -1.1649247 -0.34023207 1.1985432e-39
1.0846441 -1.1505914 -0.35754684 1.1985432e-39
1.0824574 -1.1889825 -0.35469756 9.219563e-40
1.0778114 -1.1771799 -0.35499403 9.219563e-40
1.0570118 -1.2048886 -0.35641909 9.219563e-40
1.0429459 -1.2251705 -0.35311589 1.0141519e-39
1.0246737 -1.2284992 -0.37277168 8.2976067e-40
1.0201192 -1.2503096 -0.35093185 8.2976067e-40
1.0054259 -1.2507175 -0.36183459 7.3756504e-40
1.0075196 -1.275948 -0.34828666 6.4536941e-40
0.99460363 -1.2733488 -0.36840191 6.4536941e-40
0.97627401 -1.2956353 -0.36474216 5.5317378e-40
1.0654881 -0.81899929 -0.36130065 3.6878252e-40
1.0551754 -0.83983487 -0.36102042 5.5317378e-40
1.0492605 -0.86777425 -0.35982937 9.219563e-40
1.1357572 -0.94712746 -0.33165354 1.0141519e-39
1.1141407 -0.92340517 -0.34269476 1.0141519e-39
1.0876886 -0.90668404 -0.34965065 8.2976067e-40
1.0665081 -0.89677215 -0.35591024 1.0141519e-39
1.0475193 -0.88555449 -0.35873157 1.1063476e-39
1.1420329 -0.97843146 -0.32808104 1.8439126e-39
1.1366187 -0.96540165 -0.33420947 9.219563e-40
1.1354939 -1.0058013 -0.32737061 1.5673257e-39
1.1276892 -1.0372653 -0.32730076 1.1985432e-39
1.1137491 -1.0656954 -0.32611975 1.1063476e-39
1.1190473 -1.1034304 -0.31901938 1.4751301e-39
1.1103709 -1.0865324 -0.33121437 1.1063476e-39
1.1061748 -1.1241088 -0.31759378 1.2907388e-39
1.0916673 -1.1312054 -0.32664713 1.1063476e-39
1.0949289 -1.1579878 -0.31881806 1.0141519e-39
1.0802919 -1.1436628 -0.33122662 1.0141519e-39
1.0836014 -1.1811373 -0.32038215 1.2907388e-39
1.067355 -1.2200781 -0.30923474 8.2976067e-40
1.0550988 -1.2038201 -0.32501191 9.219563e-40
1.0545566 -1.2260481 -0.3141942 7.3756504e-40
1.0420208 -1.2262287 -0.32879549 1.3829344e-39
1.0152167 -1.2515204 -0.3266885 7.3756504e-40
1.0028641 -1.2506241 -0.33443815 1.0141519e-39
1.0074857 -1.2790475 -0.32677472 7.3756504e-40
0.99125814 -1.2823317 -0.34085813 9.219563e-40
0.99761343 -1.2991849 -0.32776886 5.5317378e-40
1.0574892 -0.81688631 -0.33266038 5.5317378e-40
1.0393357 -0.80085957 -0.32911727 4.6097815e-40
1.0575897 -0.83898163 -0.33109659 7.3756504e-40
1.0790437 -0.89698362 -0.30930468 8.2976067e-40
1.0604826 -0.88674331 -0.32726857 9.219563e-40
1.0430952 -0.86492753 -0.33147618 9.219563e-40
1.1332761 -0.94426137 -0.30585492 1.0141519e-39
1.1083472 -0.91951382 -0.30818966 1.0141519e-39
1.077262 -0.90174741 -0.32273805 9.219563e-40
1.1410255 -0.97742581 -0.29819185 1.2907388e-39
1.1411958 -1.0227394 -0.28490159 2.3048907e-39
1.1369355 -1.0086384 -0.29755199 1.2907388e-39
1.1342714 -1.0404339 -0.28978366 1.1985432e-39
1.1276411 -1.0370421 -0.30212191 1.6595213e-39
1.1199193 -1.0696858 -0.28685442 1.1985432e-39
1.1151632 -1.0633259 -0.30243507 1.1063476e-39
1.1156476 -1.0962183 -0.29194883 1.4751301e-39
1.1167645 -1.1454417 -0.28357485 1.9361082e-39
1.1080883 -1.1267328 -0.29122335 1.1985432e-39
1.1119094 -1.1546865 -0.28143954 9.219563e-40
1.0961587 -1.1583213 -0.29186448 1.0141519e-39
1.0796738 -1.1816014 -0.29063231 1.0141519e-39
1.0674753 -1.2093222 -0.29078221 1.1063476e-39
1.0551156 -1.1977918 -0.30527794 1.2907388e-39
1.0508386 -1.2257775 -0.2935051 9.219563e-40
1.0295191 -1.2334994 -0.29794711 1.0141519e-39
1.0201352 -1.253382 -0.29589799 9.219563e-40
1.0013072 -1.2417723 -0.30761486 9.219563e-40
1.0136665 -1.2956221 -0.28164685 9.219563e-40
1.0062031 -1.2803091 -0.29827794 8.2976067e-40
1.0005901 -1.2994494 -0.29589289 6.4536941e-40
1.0561459 -0.81224549 -0.30468157 6.4536941e-40
1.0529132 -0.83648014 -0.30254936 9.219563e-40
1.0699807 -0.88939434 -0.29312485 9.219563e-40
1.0538213 -0.88087857 -0.29881695 1.1985432e-39
1.0435425 -0.86196518 -0.30220187 1.2907388e-39
1.1337129 -0.95368326 -0.25967294 1.2907388e-39
1.1273065 -0.94049639 -0.27662876 1.1985432e-39
1.0971509 -0.91480267 -0.28212154 1.0141519e-39
1.0709438 -0.89808732 -0.28731689 9.219563e-40
1.1475192 -0.99615645 -0.26211846 1.3829344e-39
1.1359038 -0.9746604 -0.26835483 1.1063476e-39
1.1392307 -1.0161624 -0.26199424 1.6595213e-39
1.1356455 -1.0011742 -0.26938224 1.6595213e-39
1.1291019 -1.0371559 -0.26444316 1.1063476e-39
1.1192346 -1.0377061 -0.26668257 1.3829344e-39
1.1209397 -1.0704461 -0.26164442 1.3829344e-39
1.1149914 -1.0505685 -0.27322415 1.0141519e-39
1.1134896 -1.0990154 -0.2594212 1.1985432e-39
1.1115432 -1.1412023 -0.25634944 1.0141519e-39
1.1085896 -1.1242781 -0.26083234 1.1063476e-39
1.1063443 -1.1533135 -0.25795093 9.219563e-40
1.0922587 -1.1627461 -0.25982967 1.1063476e-39
1.0887729 -1.1867133 -0.25012141 1.1985432e-39
1.0824301 -1.1822134 -0.2634356 1.0141519e-39
1.0822887 -1.2089843 -0.25183639 1.0141519e-39
1.0735974 -1.2070911 -0.26711312 9.219563e-40
1.0453986 -1.2208827 -0.26184529 8.2976067e-40
1.0259799 -1.2297612 -0.26723933 9.219563e-40
1.0269414 -1.2635397 -0.25644067 8.2976067e-40
1.0207615 -1.249531 -0.26881441 9.219563e-40
1.0192099 -1.2875508 -0.26054403 7.3756504e-40
1.0094954 -1.2796974 -0.27649492 7.3756504e-40
1.0140147 -1.3132125 -0.26175556 4.6097815e-40
0.99624991 -1.3351387 -0.25295734 4.6097815e-40
0.98257947 -1.3302392 -0.26341176 3.6878252e-40
1.0666873 -0.81203073 -0.25484791 6.4536941e-40
1.0566875 -0.81402403 -0.27414733 6.4536941e-40
1.057333 -0.84305811 -0.2651116 1.1063476e-39
1.051937 -0.8303858 -0.27847967 9.219563e-40
1.0597819 -0.88296896 -0.25894889 1.0141519e-39
1.0448223 -0.869798 -0.26572359 1.1063476e-39
1.0387893 -0.85880518 -0.27864796 1.3829344e-39
1.1315528 -0.94893223 -0.24314052 1.1985432e-39
1.1190201 -0.93021035 -0.24472916 1.2907388e-39
1.0918708 -0.9128657 -0.2563906 1.1063476e-39
1.065673 -0.89502716 -0.26113319 1.0141519e-39
1.1397413 -0.99254608 -0.22631635 1.2907388e-39
1.1321551 -0.97271752 -0.23893498 1.5673257e-39
1.1384392 -1.0129894 -0.23390491 1.3829344e-39
1.133237 -0.9952606 -0.24509531 1.8439126e-39
1.125891 -1.0397887 -0.23544592 1.3829344e-39
1.1236436 -1.0674772 -0.23165567 1.1985432e-39
1.1160218 -1.1106012 -0.21951513 9.219563e-40
1.114072 -1.0979835 -0.23085125 1.4751301e-39
1.1133481 -1.1310098 -0.22594577 1.2907388e-39
1.1079539 -1.1176142 -0.23993006 1.1985432e-39
1.0996755 -1.1548864 -0.2240977 1.2907388e-39
1.0856518 -1.1632179 -0.23563801 9.219563e-40
1.1034691 -1.1981155 -0.20990363 8.2976067e-40
1.0930563 -1.1860873 -0.22476184 1.2907388e-39
1.0814691 -1.1710079 -0.23349197 1.0141519e-39
1.0809792 -1.2096584 -0.22487883 1.0141519e-39
1.0591701 -1.2190461 -0.23349197 1.0141519e-39
1.0363842 -1.2272266 -0.22904702 1.0141519e-39
1.0246943 -1.2292788 -0.24542239 1.1985432e-39
1.0299805 -1.2576824 -0.23193549 9.219563e-40
1.0176327 -1.2391196 -0.24211313 1.1063476e-39
1.0226839 -1.2866118 -0.23176946 9.219563e-40
1.0058749 -1.3107946 -0.23383553 6.4536941e-40
0.99322152 -1.3381845 -0.23415673 4.6097815e-40
0.99676275 -1.3675187 -0.21951513 9.219563e-40
0.99226952 -1.3604221 -0.2286634 6.4536941e-40
1.0711277 -0.76033115 -0.22800687 4.6097815e-40
1.049013 -0.77145189 -0.23893777 4.6097815e-40
1.0432072 -0.80481195 -0.24554282 7.3756504e-40
1.0233113 -0.78526896 -0.24102618 6.4536941e-40
1.0657735 -0.85161555 -0.22652289 1.3829344e-39
1.0561697 -0.83832365 -0.23762581 1.3829344e-39
1.0474317 -0.82142818 -0.24567236 8.2976067e-40
1.0832257 -0.89989591 -0.21649094 1.5673257e-39
1.0574826 -0.87376952 -0.22977671 1.1063476e-39
1.0492148 -0.8654173 -0.24317338 1.2907388e-39
1.1250877 -0.9459312 -0.21338218 1.3829344e-39
1.1158407 -0.92981923 -0.21639018 1.1063476e-39
1.0914872 -0.91179121 -0.22054358 1.1063476e-39
1.0617961 -0.89287144 -0.23675838 1.1985432e-39
1.1374108 -0.986193 -0.20632301 1.6595213e-39
1.1297259 -0.96771097 -0.20960629 1.2907388e-39
1.1331002 -1.0100644 -0.2033392 1.2907388e-39
1.1240299 -1.0372214 -0.2024173 1.1985432e-39
1.1189439 -1.0653038 -0.20161395 1.2907388e-39
1.1137693 -1.1075246 -0.1945378 1.1063476e-39
1.1096852 -1.0926803 -0.20265697 1.0141519e-39
1.1138279 -1.130082 -0.19754016 1.1985432e-39
1.1107709 -1.1751828 -0.1843625 1.0141519e-39
1.1050096 -1.1603935 -0.19531016 1.5673257e-39
1.1053026 -1.1909237 -0.1899693 9.219563e-40
1.0972053 -1.1759436 -0.20516467 9.219563e-40
1.0927222 -1.2099875 -0.19007339 9.219563e-40
1.0752356 -1.2172525 -0.19672915 1.1063476e-39
1.05588 -1.2323148 -0.19605848 9.219563e-40
1.0407867 -1.2341738 -0.20656635 9.219563e-40
1.0401435 -1.2624887 -0.19916676 8.2976067e-40
1.0333235 -1.2477432 -0.20752399 8.2976067e-40
1.0296297 -1.2831787 -0.19572151 9.219563e-40
1.0195304 -1.2903149 -0.20865931 9.219563e-40
1.017539 -1.3045403 -0.18748526 9.219563e-40
1.0046175 -1.3122662 -0.20248221 6.4536941e-40
1.0009079 -1.3476561 -0.20029719 6.4536941e-40
0.9906342 -1.3367002 -0.202237 6.4536941e-40
0.98779345 -1.3581619 -0.20773964 6.4536941e-40
1.0578569 -0.7563557 -0.22227971 4.6097815e-40
1.0432305 -0.7616986 -0.22350714 4.6097815e-40
1.0267973 -0.76548731 -0.21945287 4.6097815e-40
1.0350782 -0.79803717 -0.21760668 6.4536941e-40
1.0225219 -0.77878827 -0.22664396 5.5317378e-40
1.0629747 -0.84960032 -0.20379497 1.2907388e-39
1.0537206 -0.83035535 -0.20843999 1.2907388e-39
1.040012 -0.81798398 -0.21151909 9.219563e-40
1.1011587 -0.90897679 -0.18659669 8.2976067e-40
1.0805252 -0.89511836 -0.19449219 9.219563e-40
1.0575545 -0.8717525 -0.20482193 1.1985432e-39
1.1190202 -0.94186515 -0.18325651 1.751717e-39
1.1080347 -0.92295277 -0.18711768 1.0141519e-39
1.092968 -0.90806752 -0.20120533 1.0141519e-39
1.1351138 -0.97666168 -0.17442898 1.2907388e-39
1.1277732 -0.96301866 -0.18680686 1.1063476e-39
1.130262 -1.00653 -0.17411077 1.1985432e-39
1.1225199 -1.0374436 -0.17223722 1.3829344e-39
1.1145904 -1.0808878 -0.16186137 1.0141519e-39
1.1140925 -1.064855 -0.17295758 1.1985432e-39
1.1280206 -1.1200995 -0.16573632 2.489282e-39
1.1150807 -1.1045544 -0.16668329 1.1063476e-39
1.1051168 -1.0871024 -0.17554915 1.0141519e-39
1.1225475 -1.1247119 -0.15311709 1.1063476e-39
1.112731 -1.1318507 -0.16713153 1.2907388e-39
1.1096417 -1.1623325 -0.16224125 1.2907388e-39
1.1047404 -1.1545236 -0.17672677 1.1063476e-39
1.1052992 -1.190726 -0.15848514 1.1985432e-39
1.0867134 -1.2167314 -0.16573542 1.0141519e-39
1.0715812 -1.2409687 -0.16189857 1.0141519e-39
1.0579671 -1.2452549 -0.17454682 9.219563e-40
1.0432822 -1.2658098 -0.1672117 1.1063476e-39
1.0487903 -1.2836056 -0.15311709 1.0141519e-39
1.0257345 -1.288841 -0.1704679 1.0141519e-39
1.0116317 -1.3072448 -0.16986884 7.3756504e-40
0.99815035 -1.3166231 -0.1739396 7.3756504e-40
0.99772787 -1.3418077 -0.17024466 5.5317378e-40
0.99278474 -1.3283648 -0.17426154 5.5317378e-40
1.0372909 -0.7725895 -0.18867552 6.4536941e-40
1.0287142 -0.79363006 -0.1886858 8.2976067e-40
1.0594149 -0.84564114 -0.17740962 1.3829344e-39
1.0470521 -0.82693064 -0.17834605 1.0141519e-39
1.0276343 -0.8135491 -0.18260692 1.0141519e-39
1.0989386 -0.90663129 -0.15259922 1.2907388e-39
1.0805229 -0.88955313 -0.16545226 1.1985432e-39
1.0600762 -0.86646998 -0.17438926 1.4751301e-39
1.1407912 -0.96060205 -0.13120574 1.1985432e-39
1.1162879 -0.93797785 -0.15176567 1.3829344e-39
1.1049472 -0.91845071 -0.15856592 1.4751301e-39
1.08636 -0.90500015 -0.17078859 1.1063476e-39
1.1328772 -0.97315824 -0.14570615 1.8439126e-39
1.1195357 -0.95172679 -0.15961243 1.3829344e-39
1.1306337 -1.0051942 -0.14365192 1.4751301e-39
1.119585 -1.0357044 -0.14342368 1.5673257e-39
1.1128675 -1.0728258 -0.14116511 1.3829344e-39
1.1098548 -1.059499 -0.14496823 1.9361082e-39
1.1133111 -1.0975633 -0.13929263 1.6595213e-39
1.1166558 -1.1350424 -0.13240695 1.3829344e-39
1.1100295 -1.1206722 -0.1372495 1.1985432e-39
1.1260802 -1.1821517 -0.11291245 1.0141519e-39
1.1130025 -1.1631635 -0.13304532 1.2907388e-39
1.1247468 -1.18854 -0.1190936 1.1063476e-39
1.1082621 -1.1930673 -0.13086233 1.5673257e-39
1.0878682 -1.2198449 -0.13382244 1.3829344e-39
1.0718324 -1.2437142 -0.13354574 1.1985432e-39
1.0546149 -1.2646195 -0.13149504 1.1985432e-39
1.0401912 -1.2741003 -0.14248142 1.1063476e-39
1.0428537 -1.2832341 -0.12998179 1.2907388e-39
1.0261158 -1.2893131 -0.13845937 1.2907388e-39
1.0037496 -1.306612 -0.13890661 1.0141519e-39
0.9915092 -1.3153648 -0.14657772 1.1985432e-39
0.99185228 -1.3361902 -0.14584641 7.3756504e-40
0.98372555 -1.3306067 -0.14389519 8.2976067e-40
1.0331901 -0.77714258 -0.16540749 5.5317378e-40
1.0234302 -0.79298407 -0.15578951 7.3756504e-40
1.059678 -0.84635794 -0.14697103 1.5673257e-39
1.037833 -0.82436013 -0.15150777 1.3829344e-39
1.0214775 -0.81069124 -0.15426716 9.219563e-40
1.0972948 -0.90173042 -0.13239336 1.3829344e-39
1.0798779 -0.87804019 -0.13839132 1.5673257e-39
1.1136922 -0.93894678 -0.12259366 1.4751301e-39
1.1023664 -0.91575861 -0.12676866 1.4751301e-39
1.1281328 -0.97108591 -0.11600757 1.5673257e-39
1.1223466 -1.0019596 -0.11473867 1.6595213e-39
1.1214843 -1.0368834 -0.11061353 1.4751301e-39
1.1140176 -1.0328449 -0.11387905 1.5673257e-39
1.1121105 -1.0656532 -0.10958694 1.4751301e-39
1.1064707 -1.0548871 -0.12404437 1.6595213e-39
1.1163692 -1.114691 -0.11210456 6.9146722e-39
1.1107925 -1.0952441 -0.10887855 1.5673257e-39
1.1108688 -1.1348463 -0.10433523 1.4751301e-39
1.1027607 -1.1162196 -0.1018943 1.3829344e-39
1.1228534 -1.1778508 -0.093132816 1.1985432e-39
1.1100577 -1.1610745 -0.10254187 1.2907388e-39
1.1193755 -1.1860467 -0.094369039 1.8439126e-39
1.1059145 -1.1960207 -0.10183616 1.3829344e-39
1.0979617 -1.2286618 -0.088187896 1.6595213e-39
1.0929235 -1.2188481 -0.10153461 1.2907388e-39
1.0939474 -1.2373095 -0.088187896 1.1985432e-39
1.0768223 -1.2459458 -0.10291404 1.2907388e-39
1.0558861 -1.2676136 -0.10116366 1.3829344e-39
1.0371438 -1.281776 -0.10579491 1.1063476e-39
1.0180092 -1.2922939 -0.10701954 1.1985432e-39
0.99509382 -1.3089917 -0.11030843 1.1063476e-39
0.98522019 -1.316095 -0.12404437 9.219563e-40
0.9867754 -1.3286463 -0.11335897 1.2907388e-39
0.98243284 -1.3220998 -0.12404437 9.219563e-40
1.0163902 -0.79622263 -0.12888665 9.219563e-40
1.0735595 -0.86063302 -0.11086462 2.0283039e-39
1.050411 -0.84189057 -0.11751647 1.3829344e-39
1.0315447 -0.82767171 -0.12092143 1.9361082e-39
1.0137912 -0.81112868 -0.12592736 1.1985432e-39
1.0843667 -0.89900541 -0.10547642 1.1063476e-39
1.0787545 -0.88000757 -0.10692593 2.0283039e-39
1.1337593 -0.95733786 -0.098836832 1.1985432e-39
1.1059291 -0.93312287 -0.096846707 1.4751301e-39
1.0907495 -0.91323233 -0.097413652 1.3829344e-39
1.1205702 -0.96964598 -0.087698855 1.751717e-39
1.1056031 -0.94616807 -0.088490255 1.1985432e-39
1.1159285 -0.99900746 -0.085672334 1.6595213e-39
1.1117524 -1.039628 -0.078583702 2.3048907e-39
1.1083407 -1.0288827 -0.085415877 1.4751301e-39
1.1070426 -1.0613813 -0.081598118 1.4751301e-39
1.1088244 -1.1068969 -0.069830105 1.751717e-39
1.105906 -1.0915588 -0.080115445 1.9361082e-39
1.105927 -1.1278367 -0.076348647 1.5673257e-39
1.1005504 -1.11088 -0.08413741 1.5673257e-39
1.119362 -1.1762302 -0.077061877 2.2126951e-39
1.1035048 -1.1578419 -0.070746198 1.5673257e-39
1.1090683 -1.1930871 -0.067712903 1.3829344e-39
1.1001371 -1.1912597 -0.069316 1.3829344e-39
1.0959791 -1.2221768 -0.069280893 1.0141519e-39
1.0923405 -1.2112764 -0.074976966 1.5673257e-39
1.088431 -1.2378633 -0.068270907 1.1063476e-39
1.0697089 -1.2507325 -0.069670498 1.0141519e-39
1.0492939 -1.26801 -0.073514976 1.4751301e-39
1.0285668 -1.2852041 -0.075475805 1.1985432e-39
1.0134169 -1.2927996 -0.081685945 1.0141519e-39
0.99695921 -1.3053776 -0.082041092 8.2976067e-40
1.0182537 -0.79987317 -0.097282164 1.5673257e-39
1.0724816 -0.86267149 -0.086753108 1.6595213e-39
1.0481935 -0.84783882 -0.090340577 1.4751301e-39
1.0196522 -0.83272099 -0.089483805 1.3829344e-39
1.0114875 -0.81398618 -0.096466765 1.5673257e-39
1.080202 -0.89523256 -0.070806488 1.1985432e-39
1.0701096 -0.87600905 -0.077843674 1.2907388e-39
1.0964322 -0.93235576 -0.068731867 2.3048907e-39
1.0848936 -0.91450602 -0.068889521 1.1985432e-39
1.1125401 -0.96667248 -0.05873923 1.3829344e-39
1.1025746 -0.94612527 -0.064067692 2.1204995e-39
1.107625 -0.99576306 -0.056679938 1.751717e-39
1.10154 -1.027053 -0.056444462 1.6595213e-39
1.0962732 -1.0607363 -0.054308977 1.751717e-39
