# .PCD v0.7 - Point Cloud Data file format
VERSION 0.7
FIELDS x y z rgb
SIZE 4 4 4 4
TYPE F F F F
COUNT 1 1 1 1
WIDTH 1017
HEIGHT 1
VIEWPOINT 0 0 0 1 0 0 0
POINTS 1017
DATA ascii
3.2296193 0.258789 -1.2535889 1.0141921e-38
3.2672398 0.26142201 -1.2478168 9.8667821e-39
3.2661815 0.28480121 -1.2519338 8.6635446e-39
3.2969413 0.2962569 -1.2728602 9.204848e-39
3.2969413 0.30913761 -1.2728602 1.2892251e-38
3.606514 -0.07011009 -1.3177371 1.4743343e-38
3.5703232 -0.048537616 -1.2898211 8.5767439e-39
3.606514 -0.049077064 -1.3177371 9.1281114e-39
3.6082592 -0.028044038 -1.3109467 7.1913152e-39
3.648865 -0.014179816 -1.3256997 7.0994587e-39
3.5685976 0.027735781 -1.2965369 7.1916711e-39
3.6100042 0.014022019 -1.3041564 7.375684e-39
3.6482768 0.0047266055 -1.3279885 6.9136311e-39
3.5691729 0.046226304 -1.2942983 7.4689755e-39
3.606514 0.056088075 -1.3177371 7.9285257e-39
3.6100042 0.07011009 -1.3041564 8.1038463e-39
3.6876864 0.071688071 -1.3473957 7.8323378e-39
3.2714717 0.17428131 -1.2313489 1.1895068e-38
3.3065596 0.16100916 -1.2354342 1.4742981e-38
3.2385218 0.19777371 -1.2189469 1.01452e-38
3.2735879 0.1912844 -1.223115 1.0329948e-38
3.2390459 0.22722936 -1.2169092 1.1067518e-38
3.272001 0.25504586 -1.2292904 1.0233414e-38
3.306025 0.27908257 -1.2375133 9.1245395e-39
3.3415527 0.29495779 -1.2439042 9.5772276e-39
3.5749257 -0.050848931 -1.2719126 9.771683e-39
3.6169844 -0.042066056 -1.2769949 7.8406545e-39
3.5737751 -0.027735781 -1.2763897 7.2849612e-39
3.6158211 -0.018696025 -1.2815218 7.4693426e-39
3.5350015 0.027434861 -1.2625417 7.9267194e-39
3.5772269 0.0069339452 -1.2629583 7.5619068e-39
3.6134942 0.0070110094 -1.2905756 7.4664643e-39
3.5737751 0.048537616 -1.2763897 7.7448407e-39
3.5772269 0.076273397 -1.2629583 9.398904e-39
3.6134942 0.07011009 -1.2905756 7.9101379e-39
3.246901 0.17042202 -1.1863427 1.2536107e-38
3.2767618 0.16577981 -1.2107638 1.3177509e-38
3.246901 0.1893578 -1.1863427 9.5008989e-39
3.2791426 0.20084862 -1.2015008 1.0053362e-38
3.2453301 0.22722936 -1.1924561 1.1066806e-38
3.2831101 0.22316512 -1.1860621 1.106752e-38
3.280571 0.25759631 -1.1959429 9.9596994e-39
3.3145747 0.28337616 -1.2042457 8.3934415e-39
3.3485703 0.29929543 -1.216597 1.0217177e-38
3.3469508 0.31230825 -1.2228986 1.4837703e-38
3.3851466 0.31556696 -1.2229239 1.4188036e-38
3.5452445 -0.068587154 -1.2226845 1.4923071e-38
3.5829797 -0.050848931 -1.2405726 1.0602849e-38
3.6204746 -0.042066056 -1.2634141 7.4704426e-39
3.5824044 -0.020801835 -1.2428111 7.2860303e-39
3.5418301 0.027434861 -1.2359703 7.838844e-39
3.5824044 0.0069339452 -1.2428111 7.6548283e-39
3.5418298 0.048011009 -1.2359701 7.8370363e-39
3.5435374 0.068587154 -1.2293273 6.3654936e-39
3.5824044 0.083207339 -1.2428111 1.0024522e-38
3.5824044 0.097075231 -1.2428111 1.5848969e-38
3.2179203 0.16248807 -1.1625115 1.493168e-38
3.253185 0.17673393 -1.1618896 1.1154295e-38
3.2500432 0.1893578 -1.1741163 9.3161433e-39
3.2878714 0.19766055 -1.1675357 9.132845e-39
3.2878714 0.22316512 -1.1675357 1.0699811e-38
3.253185 0.25247705 -1.1618896 1.0144811e-38
3.2878714 0.25504586 -1.1675357 1.0143743e-38
3.3209867 0.28337616 -1.1792951 8.7632932e-39
3.3550482 0.29929543 -1.1913904 9.9513687e-39
3.2563274 0.31559634 -1.1496631 1.4284499e-38
3.3566675 0.31230825 -1.1850886 1.3454765e-38
3.3884192 0.31556696 -1.2101891 1.3818901e-38
3.5123737 -0.067853205 -1.1898853 1.5383693e-38
3.5503659 -0.048011009 -1.2027559 1.1155318e-38
3.550935 -0.018289907 -1.2005416 7.4697097e-39
3.5875821 -0.027735781 -1.222664 7.9296215e-39
3.5123737 0.027141284 -1.1898853 7.8395657e-39
3.5503659 0.0068587153 -1.2027559 8.1147162e-39
3.5140626 0.040711928 -1.1833135 7.9295977e-39
3.5497968 0.050297245 -1.2049701 7.5601005e-39
3.5503659 0.068587154 -1.2027559 6.4551795e-39
3.589308 0.083207339 -1.2159482 8.4625774e-39
3.5875821 0.097075231 -1.222664 1.6402458e-38
3.2942195 0.17215595 -1.1428337 1.32697e-38
3.2942195 0.19766055 -1.1428337 9.1310542e-39
3.3322079 0.19321102 -1.1356313 8.6697005e-39
3.2610404 0.22722936 -1.1313232 1.0882788e-38
3.2942195 0.21678898 -1.1428337 1.0512912e-38
3.2610404 0.25247705 -1.1313232 1.032922e-38
3.2942195 0.25504586 -1.1428337 1.023631e-38
3.3283603 0.28852847 -1.1506016 9.2185232e-39
3.3663845 0.29929543 -1.1472788 9.6762546e-39
3.3273988 0.30913761 -1.1543443 1.253317e-38
3.5571945 -0.068587154 -1.1761844 1.5659188e-38
3.5571945 -0.048011009 -1.1761844 1.1339355e-38
3.5571945 -0.020576145 -1.1761844 7.7466568e-39
3.5196922 0.018094189 -1.1614076 8.0232437e-39
3.5566254 0.0091449535 -1.1783987 8.0225276e-39
3.5191293 0.04749725 -1.1635982 7.8370293e-39
3.5571945 0.075445876 -1.1761844 7.0043666e-39
3.2657537 0.16411009 -1.1129833 1.4744783e-38
3.2989807 0.17853209 -1.1243073 1.0881245e-38
3.3728623 0.16916697 -1.1220721 1.5018495e-38
3.3021545 0.2040367 -1.1119562 9.5909491e-39
3.3364825 0.18891744 -1.1189975 9.4990772e-39
3.3728623 0.18217981 -1.1220721 1.1711342e-38
3.2668009 0.23143731 -1.1089078 1.0698732e-38
3.3021545 0.21678896 -1.1119562 1.0328878e-38
3.301626 0.25504586 -1.1140149 1.0237381e-38
3.3386199 0.25761467 -1.1106806 1.0146267e-38
3.3364825 0.28337616 -1.1189975 9.2206952e-39
3.3728623 0.29278898 -1.1220721 8.2079712e-39
3.3728623 0.31230825 -1.1220721 3.8621593e-39
3.5657303 -0.068587154 -1.1429701 1.5936512e-38
3.6013892 -0.069339447 -1.1689382 1.6584031e-38
3.5657303 -0.054869723 -1.1429701 1.2997419e-38
3.6025398 -0.046226304 -1.164461 1.0599665e-38
3.5645921 -0.018289907 -1.1473987 8.5785782e-39
3.6013892 -0.027735781 -1.1689382 7.8377916e-39
3.5264478 0.018094189 -1.1351205 8.1168798e-39
3.5634542 0.0091449535 -1.1518273 7.9350151e-39
3.490371 0.04028257 -1.1188142 8.1150721e-39
3.525322 0.049759019 -1.1395017 7.4697041e-39
3.5258849 0.067853205 -1.1373111 6.9168709e-39
3.564023 0.082304589 -1.149613 5.8119428e-39
3.5623159 0.09602201 -1.1562558 1.0685641e-38
3.3777206 0.16916697 -1.1031672 1.5573116e-38
3.3100898 0.2040367 -1.0810789 9.6824091e-39
3.3439634 0.18891744 -1.0898883 9.8653416e-39
3.3761013 0.18217981 -1.1094688 1.2170881e-38
3.2736089 0.22091743 -1.082417 1.0513997e-38
3.3106186 0.22529049 -1.0790204 1.0789851e-38
3.3100898 0.24229357 -1.0810789 1.0882396e-38
3.3434291 0.25761467 -1.0919675 1.0329223e-38
3.3439634 0.27478901 -1.0898883 9.5019569e-39
3.3771811 0.29495779 -1.1052678 8.3937876e-39
3.3777206 0.31230825 -1.1031672 6.0776767e-39
3.5708518 -0.068587154 -1.1230415 1.6124485e-38
3.5708518 -0.048011009 -1.1230415 1.1064587e-38
3.5332034 -0.018094189 -1.1088334 9.0381159e-39
3.5691445 -0.027434861 -1.1296844 9.0341558e-39
3.5326405 0.013570641 -1.111024 8.3934639e-39
3.4937131 0.04028257 -1.1058093 8.2083384e-39
3.5332034 0.049759019 -1.1088334 7.9299634e-39
3.5326405 0.074638531 -1.111024 7.0094238e-39
3.5343292 0.094994493 -1.1044523 9.7540224e-39
3.5691445 0.09602201 -1.1296844 9.568178e-39
3.3169668 0.17428131 -1.0543184 8.0106194e-39
3.3546503 0.16744953 -1.0483037 4.7815639e-39
3.3164382 0.2040367 -1.0563769 9.2250309e-39
3.3522458 0.18999083 -1.0576603 7.9324984e-39
3.3159089 0.22103973 -1.0584354 1.0144852e-38
3.3514442 0.2318532 -1.0607791 1.032888e-38
3.3508027 0.25246239 -1.0632741 1.0422129e-38
3.3523602 0.28153604 -1.0572147 9.1313751e-39
3.3825791 0.29278898 -1.0842623 8.3041241e-39
3.3514442 0.30913761 -1.0607791 4.051563e-39
3.3825791 0.31230825 -1.0842623 3.6806548e-39
3.5776803 -0.068587154 -1.0964701 1.704572e-38
3.539396 -0.040711928 -1.0847368 9.4094235e-39
3.5793874 -0.054869723 -1.0898273 1.4011574e-38
3.5020685 -0.013427523 -1.073297 9.4122962e-39
3.539396 -0.027141284 -1.0847368 9.7774858e-39
3.5024028 0.013427523 -1.0719965 8.8533645e-39
3.5377071 0.013570642 -1.0913086 8.3912807e-39
3.5026255 0.044758409 -1.0711294 8.2069118e-39
3.5377071 0.054282568 -1.0913086 7.8356112e-39
3.539396 0.074638531 -1.0847368 7.5590089e-39
3.539396 0.094994493 -1.0847368 6.6391742e-39
3.3594594 0.16744953 -1.0295907 5.2443679e-39
3.3955348 0.15615413 -1.033849 4.6065137e-39
3.3211992 0.2040367 -1.0378505 9.4108542e-39
3.3594594 0.19321102 -1.0295907 8.5796614e-39
3.322257 0.22103973 -1.0337335 9.9622498e-39
3.3599937 0.22755963 -1.0275115 9.8700373e-39
3.3211992 0.24229357 -1.0378505 1.0237386e-38
3.3594594 0.2511743 -1.0295907 9.778562e-39
3.2940326 0.29034865 -1.0029444 9.8495167e-39
3.3591385 0.28080001 -1.0308381 9.3143202e-39
3.3578563 0.30913761 -1.0358284 1.4016952e-38
3.5104239 -0.046996333 -1.0407846 1.6769856e-38
3.5444627 -0.040711928 -1.0650215 1.2449678e-38
3.5110924 -0.018798534 -1.0381837 1.1156442e-38
3.5444627 -0.027141284 -1.0650215 1.0055157e-38
3.4342375 0.026297247 -1.0319016 9.4987325e-39
3.4739671 0.026576146 -1.0299758 9.1320939e-39
3.5104241 0.0067137615 -1.0407847 9.2232204e-39
3.4342375 0.03944587 -1.0319016 9.224298e-39
3.4739671 0.046508256 -1.0299758 8.6725773e-39
3.5070817 0.053710092 -1.0537896 8.7619017e-39
3.5137661 0.067137614 -1.0277797 8.6675229e-39
3.5471649 0.075995594 -1.0545067 8.1150623e-39
3.5478404 0.094994493 -1.051878 6.6377504e-39
3.5896304 0.10973945 -1.04997 5.5213107e-39
3.3664057 0.16315596 -1.0025607 4.5132923e-39
3.3987737 0.15615413 -1.0212456 3.7778432e-39
3.3653371 0.19750459 -1.0067192 9.1324835e-39
3.4009333 0.19085504 -1.0128435 9.1306814e-39
3.3642683 0.2318532 -1.0108777 1.0605806e-38
3.4009333 0.22555596 -1.0128435 9.8704073e-39
3.3642683 0.25761467 -1.0108777 1.0697276e-38
3.4009333 0.25158164 -1.0128435 1.005371e-38
3.2329564 0.29707155 -0.97142178 1.3006047e-38
3.2614751 0.29997799 -0.9930315 1.4110624e-38
3.2987459 0.29034865 -0.98460448 9.9496017e-39
3.3307214 0.28055045 -1.0007976 9.5941287e-39
3.3658714 0.27693579 -1.00464 9.6845474e-39
3.4020126 0.27326974 -1.0086423 9.4072613e-39
3.41011 -0.052051377 -0.97713405 5.8050611e-39
3.440783 -0.052594494 -1.0064319 1.732406e-38
3.480582 -0.03986422 -1.004236 8.5622994e-39
3.4822357 -0.01993211 -0.99780107 8.8486855e-39
3.4440556 0.026297247 -0.99369717 9.6834642e-39
3.4814088 0.01993211 -1.0010185 9.6823993e-39
3.5187793 0 -1.0082723 9.5923686e-39
3.4424193 0.03944587 -1.0000646 9.7764138e-39
3.4814088 0.049830273 -1.0010185 9.8682507e-39
3.4822357 0.066440366 -0.99780107 8.7589828e-39
3.5187793 0.08056514 -1.0082723 7.7451812e-39
3.5562849 0.10177982 -1.0190191 7.0007778e-39
3.3738866 0.16100916 -0.97345161 1.0515038e-38
3.4084902 0.19519265 -0.98343569 9.0399249e-39
3.4084902 0.22772478 -0.98343569 1.0606169e-38
3.4078426 0.25244915 -0.98595637 1.0790547e-38
3.4473283 0.26297247 -0.98096234 9.6845488e-39
3.4052517 0.28628257 -0.99603909 9.405434e-39
3.4456921 0.28269541 -0.98732978 8.3912891e-39
3.4440556 0.30241835 -0.99369717 9.2149051e-39
3.4506011 -0.052594494 -0.96822757 4.3317302e-39
3.4894018 -0.044293579 -0.96991634 5.3379746e-39
3.4888506 -0.01993211 -0.97206134 9.6834825e-39
3.4522374 0.026297247 -0.96186012 1.0051189e-38
3.4888506 0.0066440366 -0.97206134 9.6838342e-39
3.4522374 0.046020184 -0.96186012 9.8660731e-39
3.4527829 0.07012599 -0.95973766 8.3898444e-39
3.4871969 0.079728439 -0.97849625 7.5611571e-39
3.4888506 0.093016513 -0.97206134 5.9030973e-39
3.5271347 0.10742018 -0.97575992 9.5822372e-39
3.5613515 0.10856514 -0.99930376 1.0139709e-38
3.4165878 0.14314128 -0.95192742 1.3191543e-38
3.4538739 0.13148624 -0.95549273 1.2630832e-38
3.4165878 0.16266054 -0.95192742 9.3139965e-39
3.3835046 0.20609175 -0.93602556 1.1710728e-38
3.4162641 0.19259009 -0.95318776 9.3143524e-39
3.3835046 0.22541285 -0.93602556 1.208093e-38
3.4149685 0.22772476 -0.95822912 1.1525967e-38
3.4165878 0.25375044 -0.95192742 1.1621376e-38
3.4165876 0.28628257 -0.95192736 8.5760531e-39
3.4971192 -0.066440366 -0.93988663 1.4701793e-39
3.4954655 -0.046508253 -0.94632155 5.8047542e-39
3.4954655 -0.01993211 -0.94632155 9.4997919e-39
3.4246852 0.026025688 -0.92041916 9.9579099e-39
3.4571466 0.026297247 -0.9427579 9.5912868e-39
3.4954655 0.0066440366 -0.94632155 9.4068956e-39
3.4236057 0.043376148 -0.92462033 9.7745935e-39
3.4571466 0.052594494 -0.9427579 9.496922e-39
3.4593284 0.07012599 -0.93426806 8.390929e-39
3.4938116 0.079728439 -0.95275652 7.8391845e-39
3.4593284 0.10080611 -0.93426806 8.4845581e-39
3.4954655 0.10630459 -0.94632155 9.3960495e-39
3.4225261 0.13880366 -0.92882144 1.1435527e-38
3.4604194 0.13148624 -0.93002307 1.2630465e-38
3.5304768 0.1208477 -0.96275502 1.3370192e-38
3.4230657 0.16266054 -0.92672086 8.5771531e-39
3.3883138 0.20609175 -0.9173125 1.1434848e-38
3.4230657 0.18868625 -0.92672086 9.8703989e-39
3.3883138 0.22541283 -0.9173125 1.1895104e-38
3.4230657 0.25375044 -0.92672086 1.014193e-38
3.4230654 0.28628257 -0.9267208 1.0606117e-38
3.5004265 -0.066440366 -0.92701674 1.2999232e-38
3.4669647 -0.03944587 -0.90455347 1.005224e-38
3.501529 -0.048722934 -0.92272681 1.3647446e-38
3.4669647 -0.019722935 -0.90455347 8.9459174e-39
3.5004265 -0.01993211 -0.92701674 9.2217784e-39
3.4295435 0.026025688 -0.90151423 1.01423e-38
3.4669647 0.0065743118 -0.90455347 9.3146971e-39
3.5004265 0.0066440366 -0.92701674 8.8544435e-39
3.4295435 0.045544952 -0.90151423 9.7735061e-39
3.4300838 0.06940183 -0.8994137 8.4816855e-39
3.4636919 0.078891739 -0.9172883 8.1150539e-39
3.4661465 0.10190183 -0.90773714 8.2028943e-39
3.5004265 0.11294863 -0.92701674 1.031693e-38
3.4300838 0.13880366 -0.8994137 1.0421025e-38
3.4636919 0.13148624 -0.9172883 1.2169131e-38
3.3963289 0.16744953 -0.88612413 9.1328254e-39
3.429004 0.16049173 -0.90361482 8.48424e-39
3.3955274 0.1964312 -0.88924295 1.0788761e-38
3.4279242 0.18868624 -0.90781587 1.0422128e-38
3.3931229 0.22541285 -0.89859951 1.1713246e-38
3.4311631 0.22772476 -0.89521253 1.171216e-38
3.3931229 0.24473393 -0.89859951 1.1253671e-38
3.4300838 0.25591925 -0.8994137 1.0603267e-38
3.4295433 0.28628257 -0.90151417 9.8667611e-39
3.4311631 0.31230825 -0.89521253 7.2870897e-39
3.4636919 0.31556696 -0.9172883 7.8434991e-39
3.4741645 -0.04470532 -0.87653679 7.7437477e-39
3.5070415 -0.053152293 -0.90127701 4.9594881e-39
3.4735103 -0.019722935 -0.87908381 8.9448356e-39
3.4376411 0.026025688 -0.87000602 9.9593435e-39
3.4735103 0.0065743118 -0.87908381 9.7753194e-39
3.405947 0.051522937 -0.84869802 1.0878419e-38
3.4369931 0.044243671 -0.87252659 9.8649758e-39
3.4048784 0.068697251 -0.85285652 9.3125279e-39
3.4354818 0.073739447 -0.87840819 8.3909234e-39
3.4385662 0.10224377 -0.86640495 7.0061658e-39
3.4702375 0.1117633 -0.89181864 8.4765707e-39
3.4376407 0.13663486 -0.87000591 9.4065032e-39
3.4376407 0.16266055 -0.87000591 8.4845903e-39
3.403199 0.19321103 -0.85939121 1.0974228e-38
3.4360216 0.19519266 -0.87630761 1.1065701e-38
3.402741 0.21897249 -0.86117339 1.1711432e-38
3.4376411 0.23423119 -0.87000602 1.1618862e-38
3.4376407 0.25375044 -0.87000591 1.1433385e-38
3.4376407 0.28628257 -0.87000591 9.6816468e-39
3.4376411 0.31230825 -0.87000602 7.6522695e-39
3.4816921 -0.04602018 -0.84724677 8.018894e-39
3.4816921 -0.019722935 -0.84724677 8.9437622e-39
3.4107561 0.025761468 -0.82998502 1.0050801e-38
3.4457383 0.0065064221 -0.83849764 9.7745949e-39
3.3783326 0.03825688 -0.81553328 1.051215e-38
3.4102218 0.047229361 -0.83206421 1.0512517e-38
3.3783326 0.070137613 -0.81553328 9.8707422e-39
3.409153 0.070844039 -0.83622271 9.4990912e-39
3.4110765 0.10046973 -0.82873744 7.5593508e-39
3.4441187 0.11711559 -0.84479934 8.3797186e-39
3.4123592 0.13524771 -0.82374734 6.2696882e-39
3.4441187 0.13663486 -0.84479934 7.100518e-39
3.3783326 0.15302752 -0.81553328 8.0246758e-39
3.4102218 0.16315596 -0.83206421 9.1306814e-39
3.3783326 0.19766055 -0.81553328 1.2541153e-38
3.4099545 0.18999083 -0.83310384 1.0605084e-38
3.4112904 0.22326605 -0.82790577 1.2446474e-38
3.4441187 0.23423119 -0.84479934 1.1615633e-38
3.4457383 0.25375044 -0.83849764 1.1801793e-38
3.4454143 0.28368002 -0.83975798 1.0141899e-38
3.4441187 0.31230825 -0.84479934 5.3441642e-39
3.4833283 0.30899265 -0.84087938 7.0115734e-39
3.3878548 -0.063761465 -0.77848041 4.1340365e-39
3.4538355 -0.065064214 -0.80698937 4.2280594e-39
3.4866011 -0.065743119 -0.82814455 3.7753503e-39
3.4187713 -0.051522937 -0.79879659 7.3766873e-39
3.4516766 -0.043376148 -0.81539166 8.6696696e-39
3.4522161 -0.019519266 -0.81329107 9.1306604e-39
3.3537328 0.025247708 -0.77063966 8.4834959e-39
3.3830938 0.025504587 -0.79700685 1.0144797e-38
3.4171681 0.0064403671 -0.80503428 9.7738718e-39
3.3537328 0.044183489 -0.77063966 9.0352124e-39
3.3830938 0.044633027 -0.79700685 1.0418873e-38
3.3537328 0.069431193 -0.77063966 9.2185344e-39
3.3854744 0.079701826 -0.78774363 9.4025431e-39
3.4155653 0.070844039 -0.81127197 1.0326681e-38
3.3878548 0.10839449 -0.77848041 7.9295767e-39
3.4171681 0.10304587 -0.80503428 8.0210534e-39
3.4505966 0.11711559 -0.81959271 7.0029554e-39
3.3878548 0.14027523 -0.77848041 6.3615083e-39
3.4171681 0.13524771 -0.80503428 4.7023835e-39
3.384681 0.15940367 -0.79083145 8.1150792e-39
3.3846807 0.1912844 -0.79083139 1.0332415e-38
3.4168475 0.19321102 -0.80628181 1.0512869e-38
3.4177027 0.22755963 -0.80295509 1.1800004e-38
3.4505966 0.22121835 -0.81959271 1.1709253e-38
3.4171681 0.2511743 -0.80503428 1.0879484e-38
3.4171681 0.27049541 -0.80503428 9.4976198e-39
3.4516766 0.29062018 -0.81539166 8.8507763e-39
3.4898739 0.30241835 -0.81540972 8.8500602e-39
3.526886 0.31891376 -0.82405776 5.6329718e-39
3.3268073 -0.074994497 -0.73881143 8.198235e-39
3.3600171 -0.075743116 -0.74618655 8.6692352e-39
3.3910289 -0.063761465 -0.76612943 3.8575084e-39
3.3942032 -0.044633027 -0.75377852 1.1327463e-38
3.4235804 -0.045082569 -0.7800836 1.0327678e-38
3.3942032 -0.025504587 -0.75377852 8.9361251e-39
3.424542 -0.018033028 -0.7763409 8.5720608e-39
3.3584459 0.025247708 -0.75229985 8.944809e-39
3.3942032 0.012752294 -0.75377852 8.7618611e-39
3.424542 0.0051522935 -0.7763409 8.2990879e-39
3.3584459 0.044183489 -0.75229985 9.8642514e-39
3.3268073 0.081244037 -0.73881143 9.6809391e-39
3.3576605 0.072587155 -0.75535649 9.9575288e-39
3.3584459 0.10730276 -0.75229985 8.3901947e-39
3.3584459 0.13255045 -0.75229985 6.6384805e-39
3.4219773 0.12880734 -0.78632128 6.6427909e-39
3.3929334 0.16322935 -0.75871891 7.374961e-39
3.3931448 0.19978593 -0.75789541 1.0880913e-38
3.4232595 0.19063488 -0.78133106 9.4061585e-39
3.3600171 0.22722936 -0.74618655 1.0413489e-38
3.3920867 0.22103973 -0.76201242 1.1250063e-38
3.4219773 0.22541285 -0.78632128 1.106567e-38
3.3942032 0.24866971 -0.75377852 1.0602876e-38
3.4235804 0.2511743 -0.7800836 1.0972754e-38
3.4251833 0.27049541 -0.77384591 1.0142979e-38
3.4609613 0.29148769 -0.77926213 9.311044e-39
3.4964192 0.31556696 -0.78994006 5.2602208e-39
3.2724738 -0.1226055 -0.68908793 4.0536776e-39
3.2709482 -0.11034495 -0.69502527 6.4439901e-39
3.3038173 -0.099023849 -0.69568795 1.556843e-38
3.3314741 -0.099992655 -0.72065288 5.9912194e-39
3.334585 -0.087493576 -0.70854712 1.3633797e-38
3.3644159 -0.073218353 -0.72906941 1.169588e-38
3.3989642 -0.044633027 -0.73525208 1.1604416e-38
3.399493 -0.021253822 -0.73319352 7.8359223e-39
3.4315956 -0.012880734 -0.74889517 7.1019656e-39
3.3361406 0.024998164 -0.70249426 9.5894721e-39
3.3647301 0.025247708 -0.72784674 9.4054284e-39
3.3989642 0.0063761468 -0.73525208 8.4820358e-39
3.3351035 0.045829967 -0.7065295 1.0233048e-38
3.3642063 0.042079512 -0.72988445 1.0142998e-38
3.3330295 0.074994497 -0.71459997 1.0418506e-38
3.3336515 0.1074921 -0.71217883 9.3117922e-39
3.3631592 0.10099083 -0.73396003 9.4039963e-39
3.3361406 0.13124037 -0.70249426 8.7575367e-39
3.3647301 0.13255045 -0.72784674 7.6533527e-39
3.3655157 0.16095413 -0.7247901 7.0962245e-39
3.3973773 0.17215595 -0.74142754 7.0951539e-39
3.3652537 0.19356577 -0.72580892 8.1114554e-39
3.3973773 0.2040367 -0.74142754 1.0417428e-38
3.3647301 0.22091743 -0.72784674 1.0327385e-38
3.3992815 0.25249541 -0.73401695 1.0325934e-38
3.4326642 0.27908257 -0.74473673 1.0048971e-38
3.4684107 0.29929543 -0.75027448 9.4965072e-39
3.4684107 0.31881469 -0.75027448 9.8588073e-39
3.2770514 -0.1226055 -0.67127585 4.3223738e-39
3.2770514 -0.11034495 -0.67127585 9.6740237e-39
3.3084388 -0.099023849 -0.67770529 1.3726678e-38
3.3084388 -0.086645864 -0.67770529 1.2702055e-38
3.3423626 -0.074994497 -0.67828286 1.2229254e-38
3.3719571 -0.068168804 -0.69972563 1.3445048e-38
3.3736327 -0.042079512 -0.69320476 1.0870067e-38
3.4058411 -0.04675841 -0.70849156 1.0682098e-38
3.3733709 -0.022091744 -0.69422364 8.6642452e-39
3.4053123 -0.012752294 -0.71055013 8.0228429e-39
3.3408072 0.024998164 -0.68433571 9.3132552e-39
3.3732138 0.0050495416 -0.69483501 8.5756705e-39
3.4037254 0.012752294 -0.71672565 9.1292031e-39
3.3408072 0.049996328 -0.68433571 9.7738662e-39
3.3741565 0.037871562 -0.69116706 9.5909169e-39
3.3408072 0.074994497 -0.68433571 9.5898365e-39
3.3408072 0.10624219 -0.68433571 9.5862211e-39
3.3408072 0.13748991 -0.68433571 8.8504456e-39
3.3423626 0.16873762 -0.67828286 9.2206728e-39
3.3707001 0.16663487 -0.70461625 8.8504512e-39
3.3423626 0.19373578 -0.67828286 9.4961849e-39
3.3710144 0.19566974 -0.70339358 8.6700354e-39
3.3725858 0.22722936 -0.69728035 7.8370209e-39
3.3732138 0.25752661 -0.69483501 8.3898233e-39
3.4037254 0.26779816 -0.71672565 9.8649478e-39
3.3757277 0.27772477 -0.68505377 7.4699914e-39
3.4068992 0.28480121 -0.70437461 9.403957e-39
3.4396105 0.2962569 -0.7177068 9.4957939e-39
3.4380076 0.31557798 -0.72394449 1.0878358e-38
3.4765081 0.31881469 -0.71876621 9.5843994e-39
3.2547312 -0.12143119 -0.62956351 3.3179609e-39
3.2816288 -0.1226055 -0.65346384 3.592024e-39
3.2846806 -0.10421468 -0.64158911 2.2109085e-39
3.31306 -0.099023849 -0.65972269 6.4431143e-40
3.3146005 -0.080456875 -0.65372843 2.390248e-39
3.3470292 -0.062495407 -0.66012424 4.2287432e-39
3.3804407 -0.044183493 -0.66671389 7.2762591e-39
3.3809643 -0.021039756 -0.66467607 8.1143211e-39
3.4132476 -0.012752294 -0.67967272 7.6533569e-39
3.3470292 0.024998164 -0.66012424 1.2080537e-38
3.3804407 0.006311927 -0.66671389 9.3128783e-39
3.3470292 0.043746788 -0.66012424 1.1618493e-38
3.3161411 0.074267887 -0.64773422 1.263587e-38
3.3454738 0.074994497 -0.66617715 1.2353183e-38
3.3470292 0.10624219 -0.66012424 1.1985477e-38
3.3470292 0.1374899 -0.66012424 1.0050795e-38
3.3470292 0.16873762 -0.66012424 9.589098e-39
3.3470292 0.19373578 -0.66012424 1.0973474e-38
3.3470292 0.21248439 -0.66012424 1.0601091e-38
3.3804407 0.23354128 -0.66671389 9.9582365e-39
3.3804407 0.258789 -0.66671389 8.5724251e-39
3.3804407 0.27772477 -0.66671389 8.0203065e-39
3.4148345 0.29330274 -0.67349726 8.7571499e-39
3.4508317 0.30913761 -0.67404306 9.4896647e-39
3.4813666 0.31230825 -0.69986129 9.4929087e-39
3.5176921 0.32871559 -0.70716381 9.3978278e-39
3.5939777 0.34911558 -0.71566117 9.1212227e-39
3.5939777 0.36254311 -0.71566117 7.5568145e-39
3.2592649 -0.12143119 -0.61192209 3.4090523e-39
3.2938356 -0.1226055 -0.60596508 3.1346234e-39
3.2928188 -0.10217126 -0.60992336 2.1201281e-39
3.3207624 -0.11140183 -0.62975162 2.9473791e-39
3.3227427 -0.077804454 -0.62204468 1.2914549e-39
3.3532515 -0.062495407 -0.63591284 1.4733532e-39
3.3563623 -0.049996328 -0.62380713 3.3129148e-39
3.3875105 -0.041027524 -0.63920414 5.4406086e-39
3.3882964 -0.018935781 -0.63614756 5.1644224e-39
3.3253839 0.024755962 -0.61176896 2.944903e-39
3.3548069 0.018748622 -0.62985998 4.2413773e-39
3.3875105 0.0031559635 -0.63920414 5.7157703e-39
3.3223028 0.043322936 -0.62375736 6.081697e-39
3.3223026 0.074267887 -0.6237573 8.0192289e-39
3.3243568 0.10314984 -0.61576509 8.200372e-39
3.3527329 0.10832537 -0.63793045 1.1894336e-38
3.3253839 0.1361578 -0.61176896 8.296176e-39
3.354418 0.1374899 -0.63137323 9.591228e-39
3.3548069 0.16873761 -0.62985998 9.4036081e-39
3.3548069 0.19373578 -0.62985998 1.0786893e-38
3.3543625 0.2214123 -0.63158941 1.0971654e-38
3.3898671 0.2398532 -0.63003421 8.6649585e-39
3.3882964 0.258789 -0.63614756 8.0238981e-39
3.3882964 0.2840367 -0.63614756 5.5306826e-39
3.4211829 0.30605504 -0.64879537 7.4681865e-39
3.4927027 0.32532111 -0.65574968 5.699242e-39
3.5242376 0.32871559 -0.68169415 9.5768002e-39
3.5665753 0.34548992 -0.6696192 6.5296907e-39
3.5989909 0.34911558 -0.69615376 9.1115159e-39
3.5665753 0.38535416 -0.6696192 8.0170807e-39
3.5989909 0.37597063 -0.69615376 8.2936116e-39
3.6373513 0.36640733 -0.70357382 8.9310931e-39
3.3300052 -0.12377981 -0.5937863 3.6842042e-39
3.3014648 -0.10421468 -0.57627833 3.1335822e-39
3.3284647 -0.10521284 -0.5997805 2.397071e-39
3.3014646 -0.073563308 -0.57627827 2.5800315e-39
3.3284647 -0.074267887 -0.5997805 1.2014187e-39
3.3300052 -0.049511924 -0.5937863 1.8428322e-39
3.3625846 -0.037497249 -0.59959567 2.6708118e-39
3.3961513 -0.018935781 -0.6055811 2.213414e-39
3.3625846 0.024998164 -0.59959567 2.3045502e-39
3.3961513 0.006311927 -0.6055811 2.1190561e-39
3.3284647 0.049511924 -0.5997805 2.6711972e-39
3.3631029 0.041663606 -0.59757805 2.5800567e-39
3.3029907 0.085823856 -0.57034099 2.0282969e-39
3.3300052 0.074267887 -0.5937863 2.3023936e-39
3.3305187 0.10314984 -0.59178823 2.1208414e-39
3.3610289 0.11249173 -0.60564858 2.4846143e-39
3.3300052 0.1361578 -0.5937863 3.7789628e-39
3.3029907 0.15938716 -0.57034099 1.7513736e-39
3.3300052 0.16710274 -0.5937863 2.9509902e-39
3.3300052 0.18566972 -0.5937863 1.9368481e-39
3.3625846 0.19998531 -0.59959567 1.658113e-39
3.3625846 0.22498345 -0.59959567 1.8414085e-39
3.3961513 0.258789 -0.6055811 2.5796672e-39
3.3961513 0.2840367 -0.6055811 2.0290227e-39
3.4291179 0.30605504 -0.61791795 2.7608494e-39
3.4636559 0.30913761 -0.62414163 2.8544884e-39
3.4975612 0.32532111 -0.63684475 5.0603088e-39
3.5346012 0.34624708 -0.64136726 4.4135338e-39
3.5698829 0.35877797 -0.65674937 6.8998843e-39
3.5346012 0.37692723 -0.64136726 4.6036746e-39
3.5698829 0.37206605 -0.65674937 8.5626175e-39
3.6040041 0.36925685 -0.67664635 8.2864047e-39
3.535692 0.39445871 -0.63712233 6.0852283e-39
3.3090942 -0.1226055 -0.54659158 3.9618505e-39
3.3377075 -0.1279058 -0.56381524 3.7760285e-39
3.3075683 -0.10421468 -0.55252892 3.4101719e-39
3.3075681 -0.073563308 -0.55252886 2.9480853e-39
3.3383236 -0.044560734 -0.56141758 2.1201141e-39
3.3672512 -0.037497249 -0.58143711 2.5789441e-39
3.37114 -0.021873392 -0.56630492 1.6587885e-39
3.4024355 -0.012623854 -0.581128 1.5655152e-39
3.3407884 0.024755962 -0.55182683 1.2896444e-39
3.37114 0.015623853 -0.56630492 1.2903661e-39
3.4024355 0.006311927 -0.581128 1.656992e-39
3.3392479 0.043322936 -0.55782104 1.3814967e-39
3.3672512 0.043746788 -0.58143711 2.4842513e-39
3.337194 0.074267887 -0.5658133 1.9346593e-39
3.3734732 0.06874495 -0.55722564 1.3811338e-39
3.3377075 0.10521283 -0.56381524 1.7495744e-39
3.3083313 0.1379312 -0.54956025 1.5673131e-39
3.3358588 0.13368221 -0.57100827 2.3030943e-39
3.3075683 0.15938716 -0.55252892 1.4747896e-39
3.3377075 0.17329173 -0.56381524 1.3832834e-39
3.3384776 0.18876421 -0.56081814 1.5669712e-39
3.3688066 0.19998531 -0.57538426 2.1186862e-39
3.3703623 0.22498348 -0.56933135 1.6580794e-39
3.370362 0.24998163 -0.56933141 1.1063476e-39
3.4019115 0.26089296 -0.58316571 1.9357355e-39
3.4024355 0.27772477 -0.581128 1.383317e-39
3.4370532 0.29330274 -0.58704054 1.107058e-39
3.470068 0.30913761 -0.59919089 1.291815e-39
3.5056589 0.3209835 -0.60533649 1.6573605e-39
3.5050108 0.34614167 -0.60785705 1.3800576e-39
3.507278 0.37086606 -0.59903479 1.9321412e-39
3.5389647 0.37473577 -0.6243875 1.6552081e-39
3.507278 0.39038533 -0.59903479 1.5655405e-39
3.5389647 0.39445871 -0.6243875 3.4912048e-39
3.3131633 -0.12669235 -0.53075874 4.145167e-39
3.2864671 -0.10321651 -0.50607347 3.5027137e-39
3.3136716 -0.10421468 -0.52877957 3.5023479e-39
3.3136714 -0.073563308 -0.52877951 3.499457e-39
3.3136716 -0.049042203 -0.52877957 2.6714928e-39
3.3454096 -0.037133943 -0.53384417 2.1211931e-39
3.3469503 -0.018566972 -0.52784997 1.3821974e-39
3.3765843 -0.018748622 -0.54511994 9.2445902e-40
3.3136716 0.024521101 -0.52877957 1.3814799e-39
3.3781397 0.006249541 -0.53906709 1.1070538e-39
3.3454096 0.043322936 -0.53384417 1.4733252e-39
3.34618 0.077362381 -0.53084707 1.0130743e-39
3.3765843 0.06874495 -0.54511994 1.5655194e-39
3.3454096 0.10521284 -0.53384417 1.0134247e-39
3.3136714 0.13486606 -0.52877951 1.1963866e-39
3.3136716 0.15938716 -0.52877957 1.1049252e-39
3.3454096 0.17329173 -0.53384417 1.2892885e-39
3.3151975 0.20842937 -0.52284223 1.2900101e-39
3.3454096 0.19185871 -0.53384417 9.2196471e-40
3.3448963 0.21867765 -0.53584224 1.2900129e-39
3.3781397 0.23748255 -0.53906709 1.1988879e-39
3.3781397 0.24998163 -0.53906709 1.0152211e-39
3.4095054 0.26194495 -0.55361819 8.3262632e-40
3.4102905 0.27772477 -0.55056149 8.3118579e-40
3.4418142 0.29330274 -0.56851411 1.1974628e-39
3.4796863 0.2962569 -0.56176484 2.0236179e-39
3.5142958 0.31664586 -0.57172763 2.5886383e-39
3.5471466 0.32871559 -0.59255046 1.0137834e-39
3.5142958 0.34700918 -0.57172763 1.4729833e-39
3.5471466 0.3418642 -0.59255046 1.1049056e-39
3.5137558 0.37086606 -0.57382816 2.2087364e-39
3.5142958 0.39472294 -0.57172763 3.8704298e-39
3.3182492 -0.1226055 -0.51096755 3.7767474e-39
3.2910006 -0.10321651 -0.48843205 3.5023521e-39
3.2915044 -0.068811007 -0.48647186 2.8573288e-39
3.3202834 -0.075606734 -0.50305098 2.6743865e-39
3.2925119 -0.048572477 -0.48255154 2.4871268e-39
3.3206906 -0.041685872 -0.50146776 2.1208512e-39
3.3233356 -0.020434251 -0.49117643 2.3941927e-39
3.351058 -0.016503975 -0.51186544 1.3814813e-39
3.321301 0.024521103 -0.49909288 1.6584578e-39
3.353112 0.0061889905 -0.50387311 1.3818428e-39
3.2925119 0.048572477 -0.48255154 2.024369e-39
3.3206906 0.041685872 -0.50146776 1.6588123e-39
3.2925119 0.072858714 -0.48255154 1.2907416e-39
3.320538 0.070498168 -0.50206149 1.7510065e-39
3.3500311 0.080456875 -0.51586157 2.3916844e-39
3.2925119 0.10928807 -0.48255154 1.19746e-39
3.3223183 0.10217125 -0.49513465 1.6562885e-39
3.3500311 0.10521284 -0.51586157 1.6595227e-39
3.2925119 0.12750275 -0.48255154 1.290034e-39
3.3204286 0.13661757 -0.50248551 1.106e-39
3.3213005 0.16551743 -0.49909276 1.1049126e-39
3.3217366 0.19792032 -0.49739638 1.4729679e-39
3.3515716 0.19185871 -0.50986731 1.1052616e-39
3.3243525 0.22068991 -0.48721814 2.0264948e-39
3.353112 0.22899264 -0.50387311 1.3814855e-39
3.3828063 0.23748255 -0.52090853 8.3011099e-40
3.3848803 0.25414801 -0.51283807 1.1066965e-39
3.416575 0.26510093 -0.52610844 9.2338562e-40
3.4181461 0.2840367 -0.51999521 1.5644418e-39
3.4481626 0.29330274 -0.54381222 4.6839704e-39
3.4545107 0.30605504 -0.51911032 5.3268315e-39
3.4850297 0.31343117 -0.54097259 9.1316161e-39
3.5186143 0.32532111 -0.55492324 6.7395618e-39
3.4860983 0.34777981 -0.53681409 1.8424861e-39
3.5196941 0.34267154 -0.55072218 1.6566459e-39
3.4850297 0.36495414 -0.54097259 2.2101854e-39
3.5186143 0.3773725 -0.55492324 2.8505003e-39
3.5207739 0.39472294 -0.54652107 4.1408958e-39
3.5553284 0.40760735 -0.56071347 7.8415933e-39
3.5963423 0.42521834 -0.55379033 8.0342579e-39
3.2666578 -0.12025687 -0.45459056 1.2172707e-38
3.2985568 -0.12143119 -0.45902964 8.8543888e-39
3.2985568 -0.10321652 -0.45902964 3.9665897e-39
3.2985568 -0.072858721 -0.45902964 3.0402852e-39
3.2985568 -0.042500917 -0.45902964 2.6711341e-39
3.3294389 -0.020434251 -0.46742702 2.1183289e-39
3.3592739 -0.012377981 -0.47989625 2.1179954e-39
3.3289301 0.024521101 -0.4694061 2.0254508e-39
3.3608143 0.0061889905 -0.47390205 1.7513386e-39
3.3289301 0.042911928 -0.4694061 2.7608284e-39
3.2979524 0.080144584 -0.46138182 2.4878331e-39
3.3289301 0.061302751 -0.4694061 2.3045348e-39
3.2985568 0.10321652 -0.45902964 2.6707866e-39
3.2985568 0.13357431 -0.45902964 2.4871072e-39
3.2985568 0.1639321 -0.45902964 2.3934864e-39
3.3015792 0.19428991 -0.44726869 1.9353711e-39
3.3289299 0.19616883 -0.46940604 2.3012922e-39
3.3289301 0.22682019 -0.4694061 2.2108832e-39
3.3613279 0.25168562 -0.47190395 2.394906e-39
3.3900654 0.25831437 -0.49266183 1.6598605e-39
3.3921394 0.27497983 -0.48459139 2.0293534e-39
3.4244304 0.29034865 -0.49554205 2.3963591e-39
3.4244304 0.3029725 -0.49554205 5.429827e-39
3.4592717 0.31880733 -0.50058383 6.0009149e-39
3.4893043 0.32201836 -0.52433878 7.4757325e-39
3.4260013 0.35346788 -0.48942876 1.6605975e-39
3.4592717 0.34112382 -0.50058383 1.9328642e-39
3.4903731 0.34348622 -0.52018028 1.6580878e-39
3.4608588 0.37619266 -0.49440834 2.6704573e-39
3.4905865 0.37611744 -0.51934856 2.1190674e-39
3.4941134 0.39930275 -0.50562572 4.0501351e-39
3.5261719 0.4120734 -0.5255155 7.0003714e-39
3.3365593 -0.1226055 -0.43971938 2.7645026e-39
3.306113 -0.10321651 -0.42962724 4.3353652e-39
3.2756371 -0.072154127 -0.4196488 3.2268512e-39
3.3046017 -0.072858714 -0.43550771 3.2246862e-39
3.306113 -0.042500917 -0.42962727 1.9389543e-39
3.3365591 -0.018390825 -0.43971935 1.7502624e-39
3.306113 0.024286238 -0.42962727 1.4743958e-39
3.3335075 0.024521101 -0.45159405 1.6577179e-39
3.366976 0.0061889905 -0.44992518 1.2903675e-39
3.306113 0.042500917 -0.42962727 1.9342949e-39
3.3335075 0.042911928 -0.45159405 2.1176142e-39
3.306113 0.072858714 -0.42962724 1.7491974e-39
3.3335075 0.067433029 -0.45159405 2.6700677e-39
3.3056092 0.10524037 -0.43158743 2.4867541e-39
3.3396111 0.098084405 -0.42784467 2.0254382e-39
3.306113 0.13357431 -0.42962724 2.6711411e-39
3.306113 0.16393211 -0.42962724 2.0282997e-39
3.306113 0.18821836 -0.42962727 1.9364572e-39
3.3357964 0.20229909 -0.44268808 2.1190646e-39
3.3365591 0.22682019 -0.43971935 2.3027243e-39
3.3371696 0.25011522 -0.4373444 2.4881834e-39
3.3654356 0.25993761 -0.45591941 2.3970541e-39
3.366976 0.27231559 -0.44992518 1.7545644e-39
3.3999171 0.28747889 -0.45432711 4.9662928e-39
3.4291434 0.29034865 -0.47720221 3.9575401e-39
3.4322855 0.3029725 -0.46497563 7.2899344e-39
3.4656198 0.31243119 -0.4758819 4.8932011e-39
3.5021286 0.32201836 -0.47443733 4.0519148e-39
3.4330711 0.35031193 -0.46191901 1.933932e-39
3.4656198 0.33793578 -0.4758819 1.2903689e-39
3.4338567 0.37240368 -0.45886236 2.6682741e-39
3.4640329 0.37619266 -0.48205739 2.4846031e-39
3.4346421 0.40080735 -0.45580572 4.3295765e-39
3.4656198 0.40169725 -0.4758819 3.8685885e-39
3.4989226 0.41218349 -0.4869127 3.8696745e-39
3.53157 0.41641101 -0.50450993 5.2425602e-39
3.467207 0.42082569 -0.46970645 5.4384323e-39
3.4989226 0.42506421 -0.4869127 5.2450419e-39
3.3136692 -0.10321652 -0.40022486 6.5487582e-39
3.2801273 -0.066141278 -0.40217808 3.4098104e-39
3.314878 -0.077715956 -0.39552048 3.9640239e-39
3.2801273 -0.048102751 -0.40217808 2.9495273e-39
3.3144248 -0.039465137 -0.39728466 2.9495119e-39
3.3106465 -0.024286238 -0.41198584 2.2112336e-39
3.3446972 -0.016347401 -0.40805361 2.1190449e-39
3.3136692 0.024286238 -0.40022489 1.7509841e-39
3.3441885 0.0061302753 -0.41003266 1.2918038e-39
3.3715975 0.0061889905 -0.43194255 1.841749e-39
3.2831204 0.048102751 -0.39053082 2.3030943e-39
3.3129134 0.039465137 -0.4031651 2.6690097e-39
3.2831204 0.060128435 -0.39053082 2.1183709e-39
3.3132374 0.076328173 -0.40190497 1.6595143e-39
3.3156841 0.10524037 -0.39238426 1.7499121e-39
3.3436801 0.10217125 -0.41201183 2.1183247e-39
3.3146765 0.13762201 -0.39630455 2.1204883e-39
3.3436801 0.12669235 -0.41201183 2.3949298e-39
3.3136692 0.1639321 -0.40022486 2.3041733e-39
3.3136692 0.19277203 -0.40022483 2.4878499e-39
3.3457143 0.20842937 -0.40409529 2.5782617e-39
3.3136692 0.21857615 -0.40022489 2.5785882e-39
3.3441885 0.23295046 -0.41003266 2.3037893e-39
3.3441885 0.25134128 -0.41003266 2.3952647e-39
3.3746784 0.27850458 -0.41995412 3.4068845e-39
3.4092503 0.29997799 -0.41800994 9.0362395e-39
3.4398267 0.31812111 -0.4356319 4.7034219e-39
3.470381 0.31880733 -0.45735547 4.3249255e-39
3.4092503 0.34372476 -0.41800994 1.9346607e-39
3.4396169 0.345052 -0.43644693 1.4754762e-39
3.470381 0.33155963 -0.45735547 9.219591e-40
3.440141 0.37240368 -0.43440926 1.9357495e-39
3.4401412 0.4039633 -0.43440932 4.421426e-39
3.2906036 -0.10823119 -0.36141282 1.2360016e-38
3.3207214 -0.10119266 -0.37278268 6.9182596e-39
3.3212252 -0.072858714 -0.37082249 3.5023381e-39
3.2906036 -0.036077064 -0.36141282 2.9484399e-39
3.3207214 -0.04452477 -0.37278268 3.0399278e-39
3.3217289 -0.020238532 -0.36886236 2.2119538e-39
3.3497834 -0.016347401 -0.38826245 1.9368159e-39
3.2891068 0.024051376 -0.36723641 1.8435314e-39
3.3227365 0.012143119 -0.36494201 1.7513666e-39
3.3512073 0.0049042203 -0.38272086 1.4751189e-39
3.2891068 0.042089909 -0.36723644 2.0275766e-39
3.2891071 0.072154127 -0.3672365 1.8435539e-39
3.2906036 0.10221834 -0.36141282 1.6591416e-39
3.3197141 0.10321651 -0.37670299 2.1176058e-39
3.3212252 0.13357431 -0.37082249 2.2116161e-39
3.3212252 0.16393211 -0.37082249 2.0311877e-39
3.3212252 0.19428992 -0.37082249 2.6725873e-39
3.3212252 0.2246477 -0.37082249 2.4849604e-39
3.3487661 0.23295046 -0.39222062 2.303467e-39
3.3215275 0.25257689 -0.3696464 2.1190533e-39
3.349529 0.2605367 -0.38925195 2.1201211e-39
3.3548694 0.28199267 -0.36847124 2.6697048e-39
3.3823807 0.28469357 -0.38998309 3.0352671e-39
3.4154725 0.29997799 -0.39379853 6.5407932e-39
3.4154725 0.3187266 -0.39379853 3.4137284e-39
3.444854 0.32190827 -0.41606942 4.3342526e-39
3.4149539 0.34580794 -0.39581615 1.8424609e-39
3.4479961 0.34715596 -0.40384287 2.0261431e-39
3.417028 0.3624734 -0.38774568 2.1194219e-39
3.4473677 0.37366608 -0.40628818 2.5785994e-39
3.4484453 0.4003565 -0.40209627 3.9607883e-39
3.4799032 0.42082569 -0.42030263 5.2558403e-39
3.2965899 -0.10021406 -0.33811828 7.9227846e-39
3.3257589 -0.097144954 -0.35318106 4.6061802e-39
3.2683697 -0.071471564 -0.32338277 3.8704396e-39
3.2965901 -0.072154127 -0.3381184 2.6751348e-39
3.3257589 -0.078930274 -0.35318106 2.7665906e-39
3.2683697 -0.059559632 -0.32338277 3.4101775e-39
3.2971888 -0.040887341 -0.33578894 2.305604e-39
3.3257589 -0.048572477 -0.35318106 3.0413474e-39
3.3272703 -0.018214678 -0.34730059 1.8431811e-39
3.2965899 0.024051376 -0.33811828 1.9364712e-39
3.3277738 0.0080954125 -0.3453404 1.659157e-39
3.3579211 0 -0.35659656 2.1151087e-39
3.2671835 0.047647707 -0.32799754 2.670781e-39
3.2945943 0.04409419 -0.34588313 2.5778693e-39
3.2961626 0.075590037 -0.33978236 2.21017e-39
3.2973382 0.099211924 -0.33520654 2.0247095e-39
3.3272703 0.10928807 -0.34730059 1.4733168e-39
3.299583 0.13228256 -0.32647103 1.9342949e-39
3.3272703 0.13357431 -0.34730062 1.7499163e-39
3.3272703 0.16393211 -0.34730059 2.0283053e-39
3.3272703 0.19428992 -0.34730062 2.4871128e-39
3.3272703 0.2246477 -0.34730059 2.3019957e-39
3.326968 0.25257689 -0.34847668 2.0275654e-39
3.3609726 0.26973212 -0.34472185 2.4867358e-39
3.3921368 0.28881955 -0.35201976 2.3012782e-39
3.4216945 0.29997799 -0.36958709 3.5884059e-39
3.4216945 0.3187266 -0.36958709 2.5775036e-39
3.4216945 0.34372476 -0.36958709 1.5648188e-39
3.4222131 0.36663976 -0.36756948 2.5760784e-39
3.4542804 0.3787156 -0.37938976 2.3030831e-39
3.4553275 0.39554739 -0.37531418 2.8544422e-39
3.4894254 0.42082569 -0.38324973 2.8516031e-39
3.2742996 -0.095295414 -0.30030867 7.7466638e-39
3.3025765 -0.096205503 -0.31482387 7.7448477e-39
3.2757821 -0.071471564 -0.29454014 3.8693438e-39
3.3035741 -0.08017125 -0.31094143 3.1382359e-39
3.2754853 -0.052412473 -0.29569384 3.3168749e-39
3.3040731 -0.042089909 -0.30900028 3.3168693e-39
3.3040731 -0.018038532 -0.30900028 2.1219148e-39
3.3318038 -0.018214678 -0.32965913 1.7531463e-39
3.2757821 0.023823854 -0.29454014 2.210886e-39
3.3025765 0.024051376 -0.31482387 1.843914e-39
3.3348262 0.0060715596 -0.31789815 1.8439056e-39
3.2742996 0.047647711 -0.30030867 2.4860408e-39
3.2748923 0.07623633 -0.2980012 2.3027215e-39
3.3025765 0.084179811 -0.31482387 2.8537261e-39
3.3040731 0.10221834 -0.30900028 2.4845891e-39
3.3040733 0.13228257 -0.30900034 1.8410301e-39
3.3055696 0.15633394 -0.30317667 2.6700986e-39
3.3342218 0.16514643 -0.32025036 2.210893e-39
3.3348262 0.19428991 -0.31789815 2.5811063e-39
3.3348262 0.2246477 -0.31789815 2.6700649e-39
3.3348262 0.25500551 -0.31789815 2.027208e-39
3.3670759 0.28812295 -0.32097238 1.7499191e-39
3.3670762 0.30651376 -0.32097244 1.1978117e-39
3.3972719 0.31770149 -0.332039 1.2892871e-39
3.4263611 0.3187266 -0.35142854 1.4736769e-39
3.3977852 0.34039447 -0.3300409 2.3016411e-39
3.4263611 0.34372476 -0.35142854 1.6580864e-39
3.4286945 0.36559814 -0.34234926 2.302367e-39
3.4637067 0.3787156 -0.34271002 2.3952801e-39
3.4621356 0.39133945 -0.34882334 2.2123098e-39
3.4925995 0.4080734 -0.37089878 2.4860282e-39
3.2802293 -0.10720734 -0.27723458 1.7993142e-38
3.3123045 -0.099211924 -0.27697039 7.8351852e-39
3.3408711 -0.10928807 -0.29437625 1.7813516e-38
3.2817118 -0.071471564 -0.27146605 3.1342871e-39
3.3115559 -0.084179811 -0.27988216 2.5850706e-39
3.281415 -0.050030094 -0.27261975 3.1335598e-39
3.3145494 -0.036077064 -0.268235 2.6729404e-39
3.3115563 -0.018038532 -0.27988222 2.4881946e-39
3.2817118 0.023823854 -0.27146605 2.1194079e-39
3.3115563 0.0060128439 -0.27988222 2.2116021e-39
3.2817118 0.047647711 -0.27146605 2.120847e-39
3.2817118 0.083383486 -0.27146605 2.2112378e-39
3.3130527 0.072154127 -0.27405861 2.0301101e-39
3.3115563 0.10221835 -0.27988228 1.8435399e-39
3.3115563 0.13228256 -0.27988222 1.751347e-39
3.308563 0.15633394 -0.29152942 2.3920487e-39
3.3428862 0.16595596 -0.28653559 1.8442475e-39
3.3145494 0.20443669 -0.268235 3.1310501e-39
3.3423824 0.19428992 -0.28849578 2.0275822e-39
3.3145494 0.22247522 -0.268235 2.6722131e-39
3.3423824 0.2246477 -0.28849578 2.3952857e-39
3.3423824 0.25500551 -0.28849578 1.7531379e-39
3.3428862 0.28333947 -0.28653559 1.9343146e-39
3.3731794 0.29425323 -0.29722306 1.3818526e-39
3.3747053 0.30651376 -0.29128572 8.3226199e-40
3.4047172 0.31873301 -0.30306694 1.2900129e-39
3.4059274 0.34304687 -0.29835716 1.8424763e-39
3.4085684 0.37133944 -0.28808144 3.0381356e-39
3.4372499 0.36872292 -0.30905843 2.5786204e-39
3.4668489 0.3787156 -0.33048347 3.0363573e-39
3.4699907 0.39133945 -0.31825686 2.7633438e-39
3.3175426 -0.096205503 -0.2565878 4.9832373e-39
3.3519535 -0.10524037 -0.2512528 5.7157465e-39
3.2861593 -0.071471564 -0.25416049 3.6874805e-39
3.3175426 -0.07215412 -0.2565878 3.779302e-39
3.3529611 -0.072858714 -0.24733244 4.2402689e-39
3.2881358 -0.039706424 -0.24646913 2.7651472e-39
3.3205359 -0.042089909 -0.24494055 2.8559121e-39
3.289124 -0.023823854 -0.24262346 2.7622704e-39
3.3195379 -0.016034251 -0.24882293 2.2123168e-39
3.2879379 0.016676698 -0.24723825 2.6707936e-39
3.3205359 0.0060128439 -0.24494055 2.4863855e-39
3.2601943 0.047207341 -0.23466592 2.6722327e-39
3.2887006 0.047647711 -0.24427162 2.5796896e-39
3.289124 0.077427529 -0.24262352 2.3048823e-39
3.2906065 0.10720734 -0.23685497 2.4871296e-39
3.3175426 0.10221834 -0.2565878 1.9357495e-39
3.3187399 0.13468771 -0.25192893 1.8431867e-39
3.3190391 0.15633394 -0.25076416 1.7499037e-39
3.3491831 0.16696788 -0.26203358 1.9342865e-39
3.3195379 0.20042813 -0.24882293 2.3959934e-39
3.349334 0.18700404 -0.26144558 2.2119524e-39
3.3195379 0.2244795 -0.24882293 1.935032e-39
3.3499386 0.21857615 -0.2590934 2.3034418e-39
3.3175426 0.24051374 -0.2565878 2.0279171e-39
3.3499386 0.2565234 -0.2590934 1.9368005e-39
3.3499386 0.28536332 -0.25909334 1.9346551e-39
3.3514497 0.30357799 -0.25321293 1.4736769e-39
3.3808088 0.31264403 -0.26753631 1.9353641e-39
3.4116495 0.3218275 -0.27609301 2.3019915e-39
3.3823345 0.33103487 -0.26159897 1.8442573e-39
3.4128819 0.34905908 -0.27129763 2.394557e-39
3.4131899 0.37133944 -0.27009878 3.8653501e-39
3.446583 0.38747156 -0.27274132 7.0123161e-39
3.4762752 0.39133945 -0.29380375 2.8580449e-39
3.3559835 -0.12143119 -0.23557147 7.3821286e-39
3.3574948 -0.10321651 -0.22969104 7.2867128e-39
3.3265224 -0.066141278 -0.22164612 3.8714962e-39
3.3569911 -0.080954127 -0.23165116 4.5175859e-39
3.2694967 -0.043273393 -0.19846961 3.2225212e-39
3.2965364 -0.044669725 -0.21378095 2.9488266e-39
3.323529 -0.048102751 -0.23329337 3.4105489e-39
3.2690067 -0.02360367 -0.20037466 2.028643e-39
3.2965364 -0.017867889 -0.21378089 1.9357453e-39
3.3250256 -0.012025688 -0.22746974 2.3023544e-39
3.2970304 0.015882568 -0.21185806 2.4856835e-39
3.3259237 0.0072154128 -0.22397558 2.4860282e-39
3.268517 0.049174313 -0.20227966 2.6715153e-39
3.2960422 0.043677066 -0.21570379 3.1314088e-39
3.2965364 0.077427521 -0.21378089 2.5800259e-39
3.2965364 0.10720734 -0.21378095 2.7619046e-39
3.3265226 0.13829541 -0.22164617 2.3020125e-39
3.3265226 0.16234678 -0.22164623 2.1168869e-39
3.3260236 0.18840246 -0.22358742 2.119761e-39
3.3590059 0.20036146 -0.22381055 2.3020223e-39
3.323529 0.22848806 -0.23329337 3.1306955e-39
3.3579984 0.22262384 -0.22773086 2.6715293e-39
3.3574946 0.25500551 -0.2296911 2.3030747e-39
3.3574948 0.28536332 -0.22969104 1.7510051e-39
3.3574948 0.30357799 -0.22969104 1.3814953e-39
3.3884382 0.31877431 -0.23784968 1.6584283e-39
3.3884382 0.33103487 -0.23784968 2.3030733e-39
3.4193516 0.35277247 -0.24612194 2.4845947e-39
3.4522867 0.37913883 -0.25054753 1.1973901e-38
3.2734132 -0.094414681 -0.18322909 9.041287e-39
3.3009837 -0.095295414 -0.19647536 7.5564739e-39
3.3620284 -0.097144954 -0.21204959 1.0332687e-38
3.3033555 -0.07861872 -0.18724568 5.1629483e-39
3.3620284 -0.085001834 -0.21204959 4.7923399e-39
3.3047957 -0.049349416 -0.181642 3.0424572e-39
3.2734132 -0.02360367 -0.18322909 2.7626165e-39
3.3046899 -0.014889909 -0.18205407 2.6711383e-39
3.2748818 0.02360367 -0.17751388 2.0272094e-39
3.303525 0.0085085193 -0.18658647 2.4856751e-39
3.2756162 0.044256881 -0.17465626 2.3956514e-39
3.3039486 0.053603671 -0.18493831 2.303481e-39
3.2753716 0.078678899 -0.17560889 2.4867751e-39
3.3019719 0.075442202 -0.19262969 1.8446329e-39
3.2734132 0.1003156 -0.18322909 1.6580934e-39
3.3044429 0.10720734 -0.18301548 2.1190604e-39
3.3337061 0.13468769 -0.1936928 1.9361096e-39
3.3335063 0.1603425 -0.19446918 2.1168996e-39
3.3680732 0.17000367 -0.18852764 2.0254172e-39
3.3345039 0.19241101 -0.19058681 2.6686328e-39
3.3650508 0.19732568 -0.20028861 2.3938396e-39
3.3355019 0.22247522 -0.1867045 2.3020013e-39
3.3635397 0.2246477 -0.2061691 2.6704223e-39
3.3650508 0.25500551 -0.20028867 2.2119594e-39
3.3650508 0.28536332 -0.20028867 1.7499247e-39
3.3650508 0.30964956 -0.20028867 1.843537e-39
3.3965759 0.33512172 -0.20618382 2.5807588e-39
3.425 0.35070947 -0.22414321 2.8515737e-39
3.4590273 0.36872292 -0.22431846 6.9957149e-39
3.4951279 0.3787156 -0.22044443 1.2632217e-38
3.3098783 -0.083383486 -0.16186424 6.9139478e-39
3.3426857 -0.072154127 -0.15875117 5.5303015e-39
3.3110642 -0.045265324 -0.15724933 2.9513279e-39
3.2792881 -0.017702753 -0.16036826 2.5800217e-39
3.3128433 -0.011911927 -0.15032719 3.2218136e-39
3.3444817 -0.024051376 -0.15176281 1.7524386e-39
3.254518 0.023383487 -0.13622464 2.0272529e-39
3.2814913 0.017702753 -0.15179542 2.3041635e-39
3.3113608 0.0059559634 -0.15609574 2.3974395e-39
3.3444817 0 -0.15176281 3.4998228e-39
3.2559731 0.035075232 -0.13056278 2.3952899e-39
3.2822254 0.047207337 -0.14893779 2.669716e-39
3.3098783 0.059559632 -0.16186424 3.3122492e-39
3.3113608 0.077427521 -0.15609574 2.7615739e-39
3.3106196 0.10422936 -0.15897998 2.6697146e-39
3.3444817 0.10823119 -0.15176281 3.3136154e-39
3.3414886 0.13428684 -0.16341007 2.3030817e-39
3.372607 0.16393211 -0.17088623 1.8446259e-39
3.3414886 0.19241102 -0.16341013 2.5789609e-39
3.3710957 0.18214679 -0.17676672 1.8442545e-39
3.3414881 0.2244795 -0.16340995 2.2108944e-39
3.372607 0.2246477 -0.17088623 2.2141146e-39
3.3444817 0.24051374 -0.15176281 2.1187086e-39
3.372607 0.25500551 -0.17088623 1.752426e-39
3.372607 0.28536332 -0.17088623 2.1183359e-39
3.372607 0.30964953 -0.17088623 2.3034684e-39
3.4041321 0.33979243 -0.17677972 3.7757006e-39
3.4347563 0.35896146 -0.18617983 6.347882e-39
3.4036963 0.36781654 -0.17847614 1.2445701e-38
3.4332159 0.37133944 -0.19217403 1.2442091e-38
3.4636939 0.3624734 -0.20615992 4.9594979e-39
3.49827 0.3787156 -0.20821787 1.3639162e-38
3.3486722 -0.069748983 -0.13545668 5.0682597e-39
3.3831856 -0.085001834 -0.12972283 8.4856273e-39
3.2910383 -0.035405505 -0.11464654 3.6885286e-39
3.3187733 -0.035735782 -0.12725306 3.7796537e-39
3.3484724 -0.04409419 -0.13623308 3.5045129e-39
3.3187733 -0.017867891 -0.1272531 3.5030654e-39
3.2903037 0.020653211 -0.11750417 3.1328325e-39
3.3195145 0.0029779817 -0.1243688 2.8584092e-39
3.2914052 0.048682567 -0.11321769 2.2126895e-39
3.2910385 0.070811011 -0.1146466 2.4881988e-39
3.318032 0.080405504 -0.13013729 2.3041691e-39
3.3187733 0.095295407 -0.1272531 1.8446371e-39
3.3489716 0.10823119 -0.13429195 2.2119524e-39
3.3489718 0.13228256 -0.13429195 2.3941983e-39
3.3771408 0.14571743 -0.15324478 2.6672133e-39
3.3489716 0.16234678 -0.13429195 2.6697146e-39
3.3771408 0.16393211 -0.15324478 2.1183611e-39
