# .PCD v0.7 - Point Cloud Data file format
VERSION 0.7
FIELDS x y z rgb
SIZE 4 4 4 4
TYPE F F F F
COUNT 1 1 1 1
WIDTH 1026
HEIGHT 1
VIEWPOINT 0 0 0 1 0 0 0
POINTS 1026
DATA ascii
6.809854 -5.1824131 -1.0773484 2.7658689e-40
6.7981033 -5.1846695 -1.0715004 1.8439126e-40
7.1538353 -5.1647024 -1.0193712 4.6097815e-40
7.1487665 -5.1382203 -1.033327 4.6097815e-40
7.1263418 -5.1738777 -1.0250587 5.5317378e-40
7.1053414 -5.2078924 -1.0159672 2.7658689e-40
7.0888085 -5.2127218 -1.0159672 3.6878252e-40
7.0762992 -5.1884956 -1.0250587 2.7658689e-40
7.0688367 -5.160645 -1.028735 2.7658689e-40
7.0555453 -5.1334791 -1.0326278 2.7658689e-40
7.0432458 -5.199295 -1.0307463 2.7658689e-40
7.0526242 -5.1676903 -1.0402148 2.7658689e-40
7.0388665 -5.1395168 -1.0384218 2.7658689e-40
6.9527788 -5.1952062 -1.032015 6.4536941e-40
6.9314241 -5.2296715 -1.0193712 4.6097815e-40
6.9214849 -5.2052274 -1.0363882 8.2976067e-40
6.9097986 -5.2382765 -1.0307463 3.6878252e-40
6.893404 -5.2116022 -1.0273001 4.6097815e-40
6.8668275 -5.2196541 -1.028735 2.7658689e-40
6.8465972 -5.1968465 -1.0442157 2.7658689e-40
6.8493719 -5.2224441 -1.0172553 2.7658689e-40
6.8292909 -5.2007365 -1.0384218 2.7658689e-40
6.8157039 -5.2322788 -1.0172553 2.7658689e-40
6.8069477 -5.2084284 -1.0442157 2.7658689e-40
7.1553841 -5.1596737 -0.99662066 4.6097815e-40
7.1476092 -5.1314774 -0.99812245 1.0141519e-39
7.1221762 -5.1699462 -0.99946445 2.7658689e-40
7.1290083 -5.1372957 -1.0000358 2.7658689e-40
7.1099367 -5.2031479 -0.99905574 2.7658689e-40
7.1025615 -5.1751041 -0.99662066 2.7658689e-40
7.0894179 -5.1477056 -0.9942959 2.7658689e-40
7.0861883 -5.1810308 -1.0023082 2.7658689e-40
7.0692573 -5.1551342 -1.001949 2.7658689e-40
7.0522981 -5.1293774 -1.007521 2.7658689e-40
6.9743667 -5.2114067 -0.99093306 5.5317378e-40
6.9567585 -5.217237 -0.99434561 7.3756504e-40
6.943387 -5.2472639 -0.97650707 4.6097815e-40
6.9288793 -5.2261248 -0.99804258 5.5317378e-40
6.9073353 -5.2298436 -0.98524541 5.5317378e-40
6.8971753 -5.2054014 -1.001949 4.6097815e-40
6.8798418 -5.2390184 -0.99093306 2.7658689e-40
6.8596625 -5.2159743 -1.0000358 2.7658689e-40
6.8484397 -5.2192526 -1.0000358 2.7658689e-40
6.8277225 -5.1953673 -1.0094522 2.7658689e-40
6.81073 -5.2003307 -1.0094522 2.7658689e-40
7.1736135 -5.1497726 -0.97387016 6.4536941e-40
7.1723452 -5.1188631 -0.97133642 6.4536941e-40
7.1585808 -5.1534014 -0.97007853 4.6097815e-40
7.1459517 -5.1258039 -0.96750981 3.6878252e-40
7.1232629 -5.1633368 -0.96818256 2.7658689e-40
7.1062741 -5.1671553 -0.96249497 5.5317378e-40
7.0923834 -5.142221 -0.97133648 2.7658689e-40
7.0663509 -5.1521349 -0.98281616 1.8439126e-40
7.0565891 -5.1220202 -0.97717178 2.7658689e-40
7.0354161 -5.1277051 -0.97468877 2.7658689e-40
6.973443 -5.2082448 -0.97387016 2.6736733e-39
6.9622498 -5.2381253 -0.95846814 1.6595213e-39
6.9424715 -5.2441292 -0.95959556 3.6878252e-40
6.9230924 -5.2218084 -0.96818256 4.6097815e-40
6.9061036 -5.2256269 -0.96249497 1.9361082e-39
6.8886595 -5.2020607 -0.97297639 7.3756504e-40
6.8649669 -5.2091141 -0.97363234 1.8439126e-40
6.8458219 -5.1836705 -0.97758573 1.8439126e-40
6.8261542 -5.1899986 -0.98048264 2.7658689e-40
6.8051052 -5.1661558 -0.98962897 2.7658689e-40
6.8051763 -5.1953492 -0.97662014 2.7658689e-40
6.7936711 -5.1694956 -0.98962897 2.7658689e-40
7.1557245 -5.1175613 -0.94072378 1.1063476e-39
7.1403346 -5.0912304 -0.94571918 2.7658689e-40
7.1190972 -5.1594052 -0.94258827 2.7658689e-40
7.1259007 -5.126658 -0.94263709 2.7658689e-40
7.097218 -5.1636987 -0.93216109 2.7658689e-40
7.0925431 -5.1375561 -0.94837695 2.7658689e-40
7.0821853 -5.1673279 -0.92836928 2.7658689e-40
7.069787 -5.1430492 -0.94263709 2.7658689e-40
7.0508404 -5.1173725 -0.94571918 2.7658689e-40
7.0315709 -5.0917692 -0.94869328 2.7658689e-40
7.0154691 -5.0321321 -0.96114451 4.6097815e-40
7.0344748 -5.1244841 -0.95730704 2.7658689e-40
6.9844232 -5.2239375 -0.92013538 4.6097815e-40
6.9719033 -5.2029743 -0.94543213 1.751717e-39
6.9591122 -5.2328434 -0.92765158 5.5317378e-40
6.9610906 -5.2072768 -0.95111972 4.6097815e-40
6.9354343 -5.2405157 -0.93140972 9.219563e-40
6.9166083 -5.2202706 -0.95111972 5.5317378e-40
6.909718 -5.2466669 -0.92464513 9.219563e-40
6.8996196 -5.2240887 -0.94543213 3.6878252e-40
6.8793116 -5.1998439 -0.94837695 4.6097815e-40
6.8820152 -5.2257996 -0.92836928 2.7658689e-40
6.8621664 -5.2036977 -0.94263709 2.7658689e-40
6.8412647 -5.1785917 -0.94571918 1.8439126e-40
6.8450217 -5.207551 -0.93689722 4.6097815e-40
6.8242722 -5.1835556 -0.94571912 1.8439126e-40
6.8016152 -5.1901741 -0.94571912 2.7658689e-40
7.1695485 -5.1092892 -0.91967762 1.4751301e-39
7.1550541 -5.1117916 -0.91106784 9.219563e-40
7.1381154 -5.0864396 -0.91868103 1.8439126e-40
7.1187358 -5.1229782 -0.91393775 1.8439126e-40
7.0982504 -5.160347 -0.91699398 2.7658689e-40
7.0925503 -5.1292419 -0.90704989 1.8439126e-40
7.0776572 -5.1655989 -0.91320229 2.7658689e-40
7.0679226 -5.1366663 -0.90819788 2.7658689e-40
7.0492721 -5.1120033 -0.91674966 1.8439126e-40
7.0303044 -5.0874338 -0.92530137 3.6878252e-40
7.0149531 -5.091526 -0.92335206 4.6097815e-40
7.0054965 -5.0647535 -0.94004202 5.5317378e-40
6.9899683 -5.0980396 -0.91945344 6.4536941e-40
6.9832025 -5.219759 -0.89758664 1.1063476e-39
6.9802527 -5.190239 -0.89424354 6.4536941e-40
6.9614635 -5.2272425 -0.90322387 5.5317378e-40
6.9339085 -5.2352915 -0.90322387 1.1985432e-39
6.9086194 -5.2429056 -0.90435129 1.0141519e-39
6.8919039 -5.2183347 -0.90561873 3.6878252e-40
6.8762121 -5.2224607 -0.90334374 2.7658689e-40
6.8579626 -5.1997299 -0.91680765 1.8439126e-40
6.8396964 -5.1732225 -0.91674966 1.8439126e-40
6.8246961 -5.1779928 -0.91868103 1.8439126e-40
6.8053284 -5.1527596 -0.92335206 3.6878252e-40
6.7988877 -5.2164092 -0.91393775 2.7658689e-40
6.7898722 -5.1564903 -0.91945344 2.7658689e-40
7.1513901 -5.1356716 -0.87149304 3.6878252e-40
7.1425886 -5.110815 -0.88810831 2.7658689e-40
7.1180282 -5.1454172 -0.87149304 2.7658689e-40
7.1174927 -5.1187229 -0.89097828 2.7658689e-40
7.0891252 -5.1258545 -0.88523847 2.7658689e-40
7.0669904 -5.1334753 -0.89097828 2.7658689e-40
7.0518732 -5.1051254 -0.88633156 2.7658689e-40
7.0307112 -5.111598 -0.88778013 4.6097815e-40
7.0115705 -5.0870247 -0.8960616 4.6097815e-40
6.9887023 -5.0937047 -0.8960616 6.4536941e-40
6.9743824 -5.1292181 -0.893574 6.4536941e-40
6.9599376 -5.2220192 -0.87503797 1.2907388e-39
6.9323826 -5.2300682 -0.87503797 1.2907388e-39
6.9048281 -5.2381172 -0.87503797 5.5317378e-40
6.8824787 -5.2435117 -0.8694008 2.7658689e-40
6.8681231 -5.2195611 -0.87718064 2.7658689e-40
6.8534479 -5.1946988 -0.88523841 2.7658689e-40
6.8387556 -5.1700015 -0.89936793 2.7658689e-40
6.8419142 -5.1969137 -0.8794986 3.6878252e-40
6.8221426 -5.1720572 -0.88546252 2.7658689e-40
6.8042731 -5.149147 -0.9038589 1.8439126e-40
6.8035154 -5.1756339 -0.87619227 2.7658689e-40
6.7889223 -5.1532388 -0.90190959 2.7658689e-40
7.1540689 -5.0709028 -0.86460447 6.4536941e-40
7.152597 -5.0387716 -0.86097383 3.6878252e-40
7.1510849 -5.0056 -0.85738868 4.6097815e-40
7.1452141 -5.1351876 -0.86011779 1.1063476e-39
7.136827 -5.1056862 -0.85424316 2.7658689e-40
7.1167965 -5.141201 -0.84874254 1.8439126e-40
7.0875711 -5.1205359 -0.85653919 2.7658689e-40
7.0592036 -5.1276679 -0.85079926 2.7658689e-40
7.0404711 -5.1029205 -0.85881054 2.7658689e-40
7.0252619 -5.1069746 -0.85687929 4.6097815e-40
7.0081873 -5.0825233 -0.86877114 6.4536941e-40
6.9894786 -5.0528073 -0.85738868 4.6097815e-40
6.9871192 -5.0882854 -0.86682183 6.4536941e-40
6.966053 -5.1829467 -0.83736736 7.3756504e-40
6.9753442 -5.1533189 -0.85653913 1.1985432e-39
6.9568052 -5.2164145 -0.84262425 6.4536941e-40
6.9391208 -5.2506151 -0.83927399 4.6097815e-40
6.9250407 -5.2254095 -0.84121495 8.2976067e-40
6.902997 -5.2318487 -0.84121495 5.5317378e-40
6.8815632 -5.2403774 -0.85248929 2.7658689e-40
6.8709087 -5.2125692 -0.84646755 1.8439126e-40
6.8518939 -5.1893802 -0.85653913 1.8439126e-40
6.836246 -5.1614113 -0.85301661 2.7658689e-40
6.840982 -5.1937218 -0.862279 1.8439126e-40
6.8252316 -5.1657944 -0.85881054 1.8439126e-40
6.8061852 -5.141531 -0.86877114 1.8439126e-40
7.1380796 -5.098855 -0.82209992 3.6878252e-40
7.1298437 -5.0721521 -0.83563489 2.7658689e-40
7.1222153 -5.1632771 -0.81866622 1.8439126e-40
7.1205096 -5.1332521 -0.81461686 2.7658689e-40
7.110888 -5.165452 -0.81302905 1.8439126e-40
7.0930161 -5.1424274 -0.82030451 2.7658689e-40
7.0727305 -5.1487341 -0.82220042 2.7658689e-40
7.0574946 -5.1218171 -0.81922996 2.7658689e-40
7.0417347 -5.0967245 -0.82984096 2.7658689e-40
7.0275745 -5.1008606 -0.82984102 6.4536941e-40
7.0084043 -5.0761862 -0.83758199 5.5317378e-40
6.9888396 -5.0506191 -0.84558105 4.6097815e-40
6.9816332 -5.1119499 -0.81825316 2.489282e-39
6.9836307 -5.0834231 -0.83758199 1.1985432e-39
6.9654374 -5.1808386 -0.82599211 5.5317378e-40
6.9737902 -5.1479998 -0.82783979 4.6097815e-40
6.9543152 -5.2109623 -0.81190163 6.4536941e-40
6.9331183 -5.2463002 -0.80910569 6.4536941e-40
6.9117174 -5.251503 -0.80389142 1.3829344e-39
6.8942246 -5.2291193 -0.81490809 5.5317378e-40
6.8756514 -5.2337894 -0.81114995 2.7658689e-40
6.8653522 -5.2100744 -0.82599211 2.7658689e-40
6.8503404 -5.1840611 -0.82783979 1.8439126e-40
6.8349915 -5.1571159 -0.82984102 2.7658689e-40
6.8236628 -5.1604252 -0.82984102 1.8439126e-40
6.8083076 -5.1346369 -0.83758199 1.8439126e-40
7.1290441 -5.0957212 -0.79340059 2.7658689e-40
7.1209941 -5.1590981 -0.79611754 1.8439126e-40
7.1189699 -5.1279812 -0.78617877 2.7658689e-40
7.1036987 -5.1613159 -0.78202456 2.7658689e-40
7.0927114 -5.1372533 -0.79414147 1.8439126e-40
7.0702243 -5.1429071 -0.78959137 1.8439126e-40
7.0504851 -5.1186695 -0.79340059 2.7658689e-40
7.0376482 -5.0932565 -0.8066653 4.6097815e-40
7.0389514 -5.1208839 -0.78766072 3.6878252e-40
7.0203419 -5.097146 -0.80087143 6.4536941e-40
7.0011044 -5.0724373 -0.80834222 6.4536941e-40
6.9828377 -5.1372752 -0.78766072 1.5673257e-39
6.9810061 -5.1098022 -0.8066653 5.5317378e-40
6.9896703 -5.0757775 -0.80834222 4.6097815e-40
6.9764881 -5.1967745 -0.77356881 5.5317378e-40
6.975018 -5.1723194 -0.79755402 2.5814776e-39
6.9573379 -5.2318087 -0.77223325 5.5317378e-40
6.9597077 -5.2048512 -0.78935295 6.4536941e-40
6.9343529 -5.2393656 -0.77642334 7.3756504e-40
6.904757 -5.2489338 -0.78101242 7.3756504e-40
6.8938236 -5.2209215 -0.77356881 3.6878252e-40
6.8814797 -5.2562151 -0.78340673 4.6097815e-40
6.869482 -5.2297335 -0.78202456 2.7658689e-40
6.8523841 -5.2069979 -0.79186642 1.8439126e-40
6.8372531 -5.1809568 -0.79340059 1.8439126e-40
6.8220949 -5.1550565 -0.80087143 2.7658689e-40
6.806725 -5.1292181 -0.80834222 2.7658689e-40
7.1367302 -5.0269384 -0.77910239 4.6097815e-40
7.1331019 -5.0887632 -0.76470131 5.5317378e-40
7.1260796 -5.0592666 -0.76610792 4.6097815e-40
7.1135182 -5.1230907 -0.75394899 4.6097815e-40
7.1162677 -5.0936809 -0.76470125 3.6878252e-40
7.0968142 -5.1582241 -0.7566573 3.6878252e-40
7.071198 -5.1660852 -0.7585364 2.7658689e-40
7.0550318 -5.140481 -0.75546563 1.8439126e-40
7.0392785 -5.1443958 -0.75205308 3.6878252e-40
7.0262785 -5.1191978 -0.76087469 4.6097815e-40
7.013423 -5.0945063 -0.77769572 6.4536941e-40
7.0003562 -5.1557655 -0.75205308 4.6097815e-40
6.9910798 -5.1021976 -0.7834897 6.4536941e-40
6.9776726 -5.2202501 -0.74429959 4.6097815e-40
6.9810839 -5.1920304 -0.7566573 5.5317378e-40
6.9845991 -5.1638002 -0.76911592 4.6097815e-40
6.9596686 -5.2262583 -0.74802411 1.4751301e-39
6.9648561 -5.1979046 -0.76229447 4.6097815e-40
6.9342813 -5.2340488 -0.74988633 9.219563e-40
6.9086928 -5.2411489 -0.74802411 3.6878252e-40
6.8911729 -5.2186723 -0.7585364 4.6097815e-40
6.8763752 -5.2226171 -0.7566573 3.6878252e-40
6.8579502 -5.1985078 -0.75774074 1.8439126e-40
6.8472328 -5.1734238 -0.77044111 1.8439126e-40
6.8318548 -5.1463785 -0.77190185 2.7658689e-40
6.8356996 -5.1756382 -0.76470131 2.7658689e-40
6.8205261 -5.1496878 -0.77190185 2.7658689e-40
6.8080006 -5.1229639 -0.77910239 1.8439126e-40
7.1433845 -5.1082654 -0.72361499 1.1063476e-39
7.1315479 -5.0834446 -0.73600197 1.0141519e-39
7.1251388 -5.0560451 -0.74872619 3.6878252e-40
7.1083741 -5.1192546 -0.7274068 3.6878252e-40
7.1150246 -5.089426 -0.74174184 4.6097815e-40
7.0871744 -5.1559377 -0.73129004 5.5317378e-40
7.0936499 -5.1239376 -0.72930259 4.6097815e-40
7.0703363 -5.1597223 -0.72565287 2.7658689e-40
7.0529766 -5.1361995 -0.73119855 2.7658689e-40
7.0340571 -5.1686192 -0.71719712 4.6097815e-40
7.0272341 -5.1444821 -0.7349903 5.5317378e-40
7.0086274 -5.2044649 -0.71077925 4.6097815e-40
7.0071125 -5.1787577 -0.72847146 8.2976067e-40
6.9873857 -5.2129178 -0.72195268 6.4536941e-40
6.9634838 -5.247407 -0.71100491 5.5317378e-40
6.9658418 -5.220335 -0.72753942 5.5317378e-40
6.9368577 -5.2557969 -0.71404988 4.6097815e-40
6.922451 -5.2341332 -0.73312616 4.6097815e-40
6.913331 -5.2607203 -0.70436138 4.6097815e-40
6.8987098 -5.2391024 -0.72334939 7.3756504e-40
6.8781528 -5.2448263 -0.72195268 2.7658689e-40
6.8609195 -5.2208958 -0.72565287 1.8439126e-40
6.8493047 -5.1964574 -0.73499024 1.8439126e-40
6.8301511 -5.2281823 -0.71719712 1.8439126e-40
6.8375683 -5.1975975 -0.72361499 2.7658689e-40
6.8344564 -5.1713829 -0.74174184 2.7658689e-40
6.8192716 -5.1453924 -0.74872619 2.7658689e-40
7.1421528 -5.1040492 -0.70086449 9.219563e-40
7.1250048 -5.0818925 -0.71878237 3.6878252e-40
7.1148906 -5.1382031 -0.68337405 4.6097815e-40
7.1127629 -5.1126347 -0.70086449 3.6878252e-40
7.0867219 -5.1482458 -0.69239354 5.5317378e-40
7.0927258 -5.1207752 -0.71223974 3.6878252e-40
7.0659022 -5.1547813 -0.69464839 2.7658689e-40
7.0325022 -5.1914978 -0.68098336 6.4536941e-40
7.0422249 -5.1624537 -0.69840652 4.6097815e-40
7.0143671 -5.2245255 -0.67114365 4.6097815e-40
7.0131822 -5.1997638 -0.69401908 5.5317378e-40
6.9917126 -5.2341127 -0.68590707 4.6097815e-40
6.9970994 -5.2055855 -0.69960576 6.4536941e-40
6.9649773 -5.2414579 -0.68360031 5.5317378e-40
6.9351344 -5.249897 -0.68221623 4.6097815e-40
6.9200311 -5.2258501 -0.68843234 3.6878252e-40
6.8981848 -5.2322321 -0.68843228 2.7658689e-40
6.8769431 -5.2406845 -0.69960576 2.7658689e-40
6.8662829 -5.2126389 -0.69239354 1.8439126e-40
6.8474574 -5.1901321 -0.70086455 1.8439126e-40
6.832592 -5.1650004 -0.70730263 1.8439126e-40
7.1406131 -5.0987787 -0.6724264 6.4536941e-40
7.113975 -5.1350689 -0.66646254 3.6878252e-40
7.1239324 -5.103651 -0.6724264 8.2976067e-40
7.0929899 -5.1685848 -0.65491194 5.5317378e-40
7.0948396 -5.1412258 -0.66928113 3.6878252e-40
7.0685635 -5.1762819 -0.65770531 3.6878252e-40
7.0701928 -5.1489925 -0.67209971 3.6878252e-40
7.0456424 -5.2109351 -0.6489985 4.6097815e-40
7.0389781 -5.1866093 -0.66608542 5.5317378e-40
7.0205607 -5.2457619 -0.6432963 7.3756504e-40
7.01898 -5.2202082 -0.65638024 6.4536941e-40
6.9979076 -5.2545872 -0.65427154 5.5317378e-40
6.9906383 -5.2820039 -0.63759404 3.6878252e-40
6.9688702 -5.2624388 -0.65113574 5.5317378e-40
6.938499 -5.2704692 -0.64695477 3.6878252e-40
6.9287744 -5.2465582 -0.65638024 3.6878252e-40
6.9106331 -5.2514858 -0.65453482 5.5317378e-40
6.8912106 -5.2286501 -0.66049868 1.8439126e-40
6.8626137 -5.2082677 -0.66533512 1.8439126e-40
6.8462257 -5.1859159 -0.67811406 2.7658689e-40
6.8270993 -5.2177348 -0.66082537 2.7658689e-40
6.829237 -5.1897349 -0.6724264 2.7658689e-40
6.8313489 -5.1607451 -0.68434316 1.8439126e-40
7.1543226 -5.0571647 -0.63842428 4.6097815e-40
7.1541052 -5.0289369 -0.65602362 4.6097815e-40
7.1376305 -5.0954552 -0.65157187 4.6097815e-40
7.1395659 -5.0622449 -0.64225084 4.6097815e-40
7.1124492 -5.1298456 -0.6382767 4.6097815e-40
7.1223927 -5.0983806 -0.64398837 6.4536941e-40
7.092555 -5.1905499 -0.61578083 3.6878252e-40
7.098455 -5.1629429 -0.63479972 3.6878252e-40
7.0724263 -5.2239885 -0.61037046 3.6878252e-40
7.0785217 -5.1961336 -0.62316251 4.6097815e-40
7.0759997 -5.1712999 -0.64373851 4.6097815e-40
7.0547419 -5.2298903 -0.61402887 4.6097815e-40
7.0574718 -5.2045097 -0.63423508 4.6097815e-40
7.0247121 -5.2669449 -0.61221206 6.4536941e-40
7.0337777 -5.237854 -0.62317491 4.6097815e-40
7.0067921 -5.27145 -0.60858607 6.4536941e-40
7.0018859 -5.2482738 -0.62866259 6.4536941e-40
6.9894605 -5.2779722 -0.61583805 4.6097815e-40
6.9657249 -5.2573652 -0.6213457 5.5317378e-40
6.9389009 -5.2652006 -0.6213457 4.6097815e-40
6.9174418 -5.2714691 -0.6213457 3.6878252e-40
6.8983102 -5.2495179 -0.62685341 2.7658689e-40
6.8848419 -5.2271395 -0.64373851 1.8439126e-40
6.8871856 -5.2516537 -0.62131709 1.8439126e-40
6.8733134 -5.22826 -0.63256502 1.8439126e-40
6.8534336 -5.2055068 -0.6382767 1.8439126e-40
6.8369007 -5.2103362 -0.6382767 1.8439126e-40
7.1539068 -5.0823107 -0.60986263 4.6097815e-40
7.1537008 -5.055037 -0.62694454 5.5317378e-40
7.1319737 -5.0898619 -0.61555022 8.2976067e-40
7.1421676 -5.0572519 -0.62120467 4.6097815e-40
7.1121144 -5.1528845 -0.60463136 4.6097815e-40
7.1208529 -5.0931101 -0.61555022 3.6878252e-40
7.0989723 -5.1857057 -0.60101736 3.6878252e-40
7.0800595 -5.2182274 -0.59281003 4.6097815e-40
7.0568175 -5.2517319 -0.58320409 5.5317378e-40
7.055738 -5.226656 -0.59939516 5.5317378e-40
7.0283403 -5.2609253 -0.58755529 5.5317378e-40
7.0396433 -5.2313576 -0.59939516 9.219563e-40
7.0039396 -5.2682724 -0.58864307 4.6097815e-40
6.9773536 -5.2760382 -0.58864307 4.6097815e-40
6.9535098 -5.255414 -0.59390754 5.5317378e-40
6.9374151 -5.2601156 -0.59390754 3.6878252e-40
6.915956 -5.2663841 -0.59390754 3.6878252e-40
6.8968115 -5.2443876 -0.59917194 2.7658689e-40
6.8827248 -5.2198915 -0.60463136 1.8439126e-40
6.8718014 -5.2230825 -0.60463136 1.8439126e-40
6.8538465 -5.2000947 -0.61196989 1.8439126e-40
6.8425307 -5.1732674 -0.60986263 2.7658689e-40
6.8387289 -5.2316198 -0.59904468 2.7658689e-40
6.83568 -5.2061572 -0.61572796 1.8439126e-40
7.1532912 -5.0802026 -0.59848738 5.5317378e-40
7.1502509 -5.1346273 -0.56924874 5.5317378e-40
7.1424632 -5.1097393 -0.58190495 4.6097815e-40
7.1366105 -5.0850754 -0.59848738 6.4536941e-40
7.1277437 -5.170248 -0.56595427 3.6878252e-40
7.1324487 -5.141326 -0.57669771 3.6878252e-40
7.1210299 -5.118268 -0.59317929 5.5317378e-40
7.1085176 -5.2311592 -0.55600905 4.6097815e-40
7.112968 -5.2033157 -0.56646931 3.6878252e-40
7.1124058 -5.1780691 -0.5825631 3.6878252e-40
7.0863624 -5.2382879 -0.55927247 4.6097815e-40
7.092103 -5.2116184 -0.57744461 4.6097815e-40
7.060957 -5.2461467 -0.56144804 4.6097815e-40
7.0304565 -5.2553296 -0.5628078 4.6097815e-40
7.0197783 -5.2826204 -0.54582846 5.5317378e-40
7.0024676 -5.2632322 -0.56144804 5.5317378e-40
6.9776068 -5.294939 -0.54582846 4.6097815e-40
6.9760494 -5.271575 -0.56455606 4.6097815e-40
6.9452338 -5.2796774 -0.56008834 3.6878252e-40
6.931159 -5.2586317 -0.57744461 4.6097815e-40
6.9221201 -5.2845144 -0.55057007 4.6097815e-40
6.9166551 -5.2621326 -0.5737862 3.6878252e-40
6.8995228 -5.2375822 -0.56927603 2.7658689e-40
6.8812122 -5.214715 -0.57669771 1.8439126e-40
6.8702893 -5.217906 -0.57669771 1.8439126e-40
6.8513618 -5.1943197 -0.57965004 1.8439126e-40
6.8419151 -5.1711588 -0.59848738 3.6878252e-40
6.8269987 -5.1458521 -0.60398507 2.7658689e-40
7.1740246 -5.121315 -0.53759062 5.5317378e-40
7.1687975 -5.0975108 -0.55935627 1.1063476e-39
7.1510396 -5.1288719 -0.54178065 5.5317378e-40
7.1316576 -5.163537 -0.5382728 4.6097815e-40
7.1079912 -5.2254057 -0.52663845 1.1063476e-39
7.1219149 -5.1940794 -0.53354347 4.6097815e-40
7.0927997 -5.2583981 -0.53144938 5.5317378e-40
7.0856295 -5.2318287 -0.52609456 5.5317378e-40
7.0659075 -5.2642651 -0.52156377 5.5317378e-40
7.0595832 -5.2414427 -0.53606606 1.2907388e-39
7.0394044 -5.2714643 -0.51886767 4.6097815e-40
7.0331931 -5.2498808 -0.53969204 5.5317378e-40
7.0094066 -5.2806916 -0.5211786 7.3756504e-40
7.0012898 -5.2592001 -0.53969204 6.4536941e-40
6.9842 -5.2881327 -0.52156377 6.4536941e-40
6.9678516 -5.2672172 -0.53098965 4.6097815e-40
6.9445181 -5.2991815 -0.51886767 5.5317378e-40
6.9422956 -5.2745581 -0.53036809 5.5317378e-40
6.9209423 -5.2804823 -0.52881408 5.5317378e-40
6.9073234 -5.2567635 -0.53354347 3.6878252e-40
6.8935146 -5.2331014 -0.5382728 1.8439126e-40
6.8793974 -5.2085028 -0.54317737 1.8439126e-40
6.8657436 -5.212491 -0.54317737 1.8439126e-40
6.8487034 -5.1893134 -0.55090046 1.8439126e-40
7.1765571 -5.1164551 -0.51710594 5.5317378e-40
7.182889 -5.0843239 -0.51425886 5.5317378e-40
7.1520243 -5.1775575 -0.49512997 5.5317378e-40
7.1572208 -5.1505017 -0.51059139 7.3756504e-40
7.1621943 -5.1213999 -0.52083045 6.4536941e-40
7.1387582 -5.2095623 -0.49255407 5.5317378e-40
7.1368213 -5.1853099 -0.51159292 6.4536941e-40
7.1220932 -5.2411637 -0.48831213 4.6097815e-40
7.1212306 -5.2154121 -0.49618009 5.5317378e-40
7.1207266 -5.190011 -0.51159292 4.6097815e-40
7.1145344 -5.3201065 -0.46890569 1.3829344e-39
7.1024528 -5.279706 -0.48128375 5.5317378e-40
7.0873394 -5.2527618 -0.4955017 6.4536941e-40
7.064302 -5.2587686 -0.49190691 4.6097815e-40
7.0342197 -5.2932081 -0.48228842 8.2976067e-40
7.0423956 -5.2660351 -0.49622065 7.3756504e-40
7.0188322 -5.2987785 -0.48763373 4.6097815e-40
7.0010448 -5.2772465 -0.49190691 5.5317378e-40
6.9746876 -5.284946 -0.49190691 5.5317378e-40
6.9471593 -5.2925529 -0.48975006 3.6878252e-40
6.9352746 -5.2702785 -0.49889958 4.6097815e-40
6.9197645 -5.2764502 -0.50705808 3.6878252e-40
6.9097137 -5.2490015 -0.49842256 1.8439126e-40
6.8920159 -5.2279711 -0.51059139 2.7658689e-40
6.8778853 -5.2033253 -0.51524371 2.7658689e-40
6.866962 -5.2065163 -0.51524371 1.8439126e-40
7.1922312 -5.0482349 -0.49611032 6.4536941e-40
7.1716595 -5.1396027 -0.47737369 9.219563e-40
7.1767645 -5.1104012 -0.48731008 6.4536941e-40
7.1819735 -5.0811892 -0.49734733 5.5317378e-40
7.1615653 -5.1703548 -0.47317943 5.5317378e-40
7.1617341 -5.1458426 -0.49398255 7.3756504e-40
7.1419139 -5.2306738 -0.46494612 4.6097815e-40
7.1516619 -5.2010527 -0.46898508 5.5317378e-40
7.1261821 -5.2712631 -0.45399043 4.6097815e-40
7.1310792 -5.2327547 -0.45955399 4.6097815e-40
7.1133962 -5.3162107 -0.44788477 6.4536941e-40
7.0967321 -5.2953253 -0.45172325 4.6097815e-40
7.0726652 -5.2836585 -0.45296356 7.3756504e-40
7.0575709 -5.2553115 -0.46494612 4.6097815e-40
7.0377092 -5.2857375 -0.45021653 5.5317378e-40
7.036777 -5.2624702 -0.47033828 4.6097815e-40
7.017096 -5.2928343 -0.45556185 3.6878252e-40
7.0028062 -5.2715263 -0.46602455 4.6097815e-40
6.973228 -5.2799492 -0.46494612 4.6097815e-40
6.9468708 -5.2876482 -0.46494612 4.6097815e-40
6.9283376 -5.2662878 -0.46898508 4.6097815e-40
6.9094205 -5.2440095 -0.47317943 2.7658689e-40
6.8908172 -5.2238669 -0.48844627 1.8439126e-40
6.878953 -5.1968336 -0.48451671 1.8439126e-40
6.8539214 -5.2024593 -0.47613662 2.7658689e-40
6.8620319 -5.1735144 -0.49171019 1.8439126e-40
7.1914697 -5.0727463 -0.46916145 7.3756504e-40
7.1743708 -5.1327972 -0.44747776 5.5317378e-40
7.1810164 -5.1046638 -0.46496314 5.5317378e-40
7.1573977 -5.1660538 -0.44574121 5.5317378e-40
7.1407752 -5.2502546 -0.42348996 3.6878252e-40
7.1407466 -5.2266769 -0.44337749 4.6097815e-40
7.1501894 -5.1960125 -0.4417901 9.219563e-40
7.1261487 -5.2749548 -0.42613649 5.5317378e-40
7.1091204 -5.3111176 -0.41635334 6.4536941e-40
7.0936656 -5.2912455 -0.42698869 8.2976067e-40
7.0712056 -5.2925072 -0.42701361 4.6097815e-40
7.0455012 -5.2892656 -0.42632088 4.6097815e-40
7.0241909 -5.2585545 -0.43259317 3.6878252e-40
7.0120687 -5.2885685 -0.42705348 6.4536941e-40
7.0016384 -5.2675285 -0.44445592 5.5317378e-40
6.9944568 -5.2929964 -0.42348996 8.2976067e-40
6.9717684 -5.2749529 -0.43798533 4.6097815e-40
6.9481926 -5.2823811 -0.4406814 4.6097815e-40
6.9310017 -5.2596016 -0.4396145 3.6878252e-40
6.9165254 -5.2653618 -0.44722909 2.7658689e-40
6.9079347 -5.238924 -0.44574121 2.7658689e-40
6.8955359 -5.2132082 -0.44231054 1.8439126e-40
6.8803225 -5.1913762 -0.45937642 1.8439126e-40
6.8603973 -5.1975713 -0.46123865 2.7658689e-40
7.1686621 -5.1293421 -0.42201084 4.6097815e-40
7.1788993 -5.0974159 -0.42585602 5.5317378e-40
7.1582975 -5.1591673 -0.41281536 5.5317378e-40
7.1396179 -5.2462921 -0.40210867 5.5317378e-40
7.1486621 -5.2146034 -0.39484808 4.6097815e-40
7.1487169 -5.1909723 -0.4145951 1.0141519e-39
7.1249523 -5.2764206 -0.39872047 5.5317378e-40
7.1102667 -5.3054972 -0.39007714 4.6097815e-40
7.0965967 -5.2852364 -0.40137067 6.4536941e-40
7.0861964 -5.3121767 -0.38832539 5.5317378e-40
7.0722146 -5.2922525 -0.40084064 5.5317378e-40
7.0431762 -5.295805 -0.40030843 5.5317378e-40
7.0113978 -5.2871342 -0.4001103 5.5317378e-40
6.9932995 -5.2890339 -0.4021087 4.6097815e-40
6.9714074 -5.2688217 -0.40698043 5.5317378e-40
6.9564133 -5.2438641 -0.39827809 5.5317378e-40
6.949223 -5.2761154 -0.41102454 3.6878252e-40
6.9339609 -5.2526112 -0.40915611 4.6097815e-40
6.9216528 -5.2260866 -0.40184006 2.7658689e-40
6.9115171 -5.2312546 -0.41281536 1.8439126e-40
6.892633 -5.2099733 -0.42201084 2.7658689e-40
6.8951955 -5.1814127 -0.43144277 2.7658689e-40
7.187705 -5.0869775 -0.38674894 4.6097815e-40
7.1878071 -5.0602093 -0.40151539 4.6097815e-40
7.1705723 -5.1224737 -0.39063859 4.6097815e-40
7.1739473 -5.0939932 -0.40164688 7.3756504e-40
7.1568122 -5.1540823 -0.38537717 5.5317378e-40
7.1477537 -5.2353144 -0.35934615 5.5317378e-40
7.1474943 -5.2106056 -0.37327945 4.6097815e-40
7.1472449 -5.1859322 -0.38740009 6.4536941e-40
7.1284122 -5.2690134 -0.36691883 6.4536941e-40
7.1046205 -5.3014388 -0.36169887 7.3756504e-40
7.0978966 -5.2800593 -0.37751943 4.6097815e-40
7.0793238 -5.3086472 -0.36079797 6.4536941e-40
7.0719881 -5.2876272 -0.37751943 4.6097815e-40
7.0455627 -5.3185091 -0.36079797 9.219563e-40
7.0512619 -5.2936821 -0.37751943 4.6097815e-40
7.0133042 -5.2882519 -0.36866111 5.5317378e-40
6.9893513 -5.2568011 -0.37327942 5.5317378e-40
6.981112 -5.2861423 -0.37003678 5.5317378e-40
6.9669476 -5.2633457 -0.37327942 5.5317378e-40
6.9465957 -5.2671213 -0.36249512 4.6097815e-40
6.9395781 -5.2454996 -0.38196111 6.4536941e-40
6.9207611 -5.2230358 -0.38537717 2.7658689e-40
6.9040017 -5.1709747 -0.39233568 1.8439126e-40
6.8939853 -5.1772714 -0.40909585 2.7658689e-40
6.8902149 -5.1471395 -0.40151539 2.7658689e-40
7.1741447 -5.1159363 -0.36332622 6.4536941e-40
7.1755724 -5.0860267 -0.36440203 4.6097815e-40
7.155818 -5.1757693 -0.34932712 5.5317378e-40
7.155921 -5.1510315 -0.36891425 4.6097815e-40
7.1468859 -5.2323422 -0.34331021 5.5317378e-40
7.1266909 -5.2631197 -0.33511713 5.5317378e-40
7.1019993 -5.2962847 -0.33226955 4.6097815e-40
7.0884461 -5.3272557 -0.33995971 6.4536941e-40
7.0749559 -5.3039203 -0.33095574 5.5317378e-40
7.0467706 -5.312418 -0.33226952 4.6097815e-40
7.0334215 -5.2903643 -0.33511722 5.5317378e-40
7.0115733 -5.2823267 -0.3366892 4.6097815e-40
6.984601 -5.2786722 -0.33796489 4.6097815e-40
6.961534 -5.2595034 -0.34631866 4.6097815e-40
6.9381061 -5.2404599 -0.35476613 4.6097815e-40
6.9246407 -5.216383 -0.35793895 1.8439126e-40
6.9106855 -5.1913366 -0.35557544 1.8439126e-40
6.9134126 -5.1626062 -0.36440203 2.7658689e-40
6.9000158 -5.1397409 -0.37896669 1.8439126e-40
7.1851387 -5.1314583 -0.3140378 4.6097815e-40
7.1769161 -5.1093359 -0.33453754 4.6097815e-40
7.1577172 -5.1412349 -0.32281804 4.6097815e-40
7.134409 -5.2284608 -0.305893 7.3756504e-40
7.1445751 -5.2006125 -0.31935787 7.3756504e-40
7.1234331 -5.2583852 -0.30684903 5.5317378e-40
7.1060057 -5.3116426 -0.28783971 6.4536941e-40
7.102005 -5.2899408 -0.3007381 7.3756504e-40
7.0746045 -5.297945 -0.30073813 4.6097815e-40
7.0437789 -5.3069491 -0.3007381 4.6097815e-40
7.0175223 -5.3125048 -0.29022762 5.5317378e-40
7.0090666 -5.2842636 -0.30709359 4.6097815e-40
6.9860182 -5.2783136 -0.30527118 5.5317378e-40
6.965229 -5.2525673 -0.31720096 5.5317378e-40
6.9525852 -5.2307601 -0.32757112 4.6097815e-40
6.9416566 -5.2328587 -0.32213211 3.6878252e-40
6.9282227 -5.2087135 -0.3250131 1.8439126e-40
6.9145994 -5.1846256 -0.327894 1.8439126e-40
6.9067411 -5.1600604 -0.34205508 1.8439126e-40
7.1842475 -5.1284075 -0.29757488 4.6097815e-40
7.1687431 -5.1054878 -0.30353436 5.5317378e-40
7.1531682 -5.1666975 -0.30037612 4.6097815e-40
7.1517615 -5.1367931 -0.29208726 5.5317378e-40
7.1402187 -5.2224627 -0.28451174 5.5317378e-40
7.1434073 -5.1966152 -0.29778925 6.4536941e-40
7.1239891 -5.2761197 -0.26395148 4.6097815e-40
7.1305385 -5.2506232 -0.27858096 7.3756504e-40
7.100914 -5.3093557 -0.2690765 4.6097815e-40
7.1139984 -5.2800951 -0.2692067 3.6878252e-40
7.0953655 -5.333497 -0.25443932 4.6097815e-40
7.0788364 -5.3132892 -0.25656772 6.4536941e-40
7.0715923 -5.2930861 -0.27220967 5.5317378e-40
7.0420718 -5.3011055 -0.26920667 4.6097815e-40
7.0163841 -5.308609 -0.2692067 5.5317378e-40
6.9991755 -5.2886405 -0.27681419 3.6878252e-40
6.9952645 -5.3126645 -0.25869626 4.6097815e-40
6.9787536 -5.277596 -0.28016415 4.6097815e-40
6.9573855 -5.2492189 -0.2891618 3.6878252e-40
6.9386053 -5.2528248 -0.27981538 1.8439126e-40
6.9294515 -5.2305889 -0.29312411 1.8439126e-40
6.9270344 -5.2046461 -0.30306253 1.8439126e-40
6.9134002 -5.180522 -0.30574888 1.8439126e-40
6.9109931 -5.1543236 -0.3197082 2.7658689e-40
6.9102964 -5.2603712 -0.27622062 2.7658689e-40
6.9073973 -5.2341137 -0.27862015 2.7658689e-40
6.8818412 -5.2957878 -0.27382112 3.6878252e-40
6.8892107 -5.2665305 -0.27622062 2.7658689e-40
6.8648596 -5.2465391 -0.27862015 2.7658689e-40
6.8478527 -5.1974411 -0.2946763 2.7658689e-40
6.8406038 -5.2276859 -0.29208726 1.8439126e-40
6.8165774 -5.2110314 -0.31682143 2.7658689e-40
6.8210802 -5.1779661 -0.30667254 1.8439126e-40
6.7884321 -5.1570282 -0.30286485 2.7658689e-40
6.7820373 -5.1314483 -0.31410646 2.7658689e-40
6.7677798 -5.1916628 -0.29736128 2.7658689e-40
7.1787891 -5.1230106 -0.2628198 5.5317378e-40
7.169589 -5.1003404 -0.27917472 7.3756504e-40
7.1508126 -5.1586332 -0.25686413 4.6097815e-40
7.1541495 -5.13168 -0.27013668 4.6097815e-40
7.1422558 -5.2164917 -0.25778514 5.5317378e-40
7.1404881 -5.1866217 -0.24386765 6.4536941e-40
7.1228509 -5.2722235 -0.24293049 8.2976067e-40
7.132463 -5.2443752 -0.25031281 5.5317378e-40
7.1040726 -5.3257551 -0.2285955 5.5317378e-40
7.1009188 -5.3036933 -0.24093169 5.5317378e-40
7.1128602 -5.2761993 -0.24818575 1.2907388e-39
7.0886335 -5.3292255 -0.22342673 5.5317378e-40
7.0779896 -5.3103914 -0.24093169 4.6097815e-40
7.0648794 -5.3612533 -0.22155771 5.5317378e-40
7.053822 -5.3414736 -0.23376426 4.6097815e-40
7.0527954 -5.318799 -0.2461437 3.6878252e-40
7.035779 -5.3822908 -0.22322489 3.6878252e-40
7.0181708 -5.3508482 -0.2285955 4.6097815e-40
7.0195346 -5.327991 -0.24353769 3.6878252e-40
7.0027318 -5.3543186 -0.22342673 3.6878252e-40
6.9907112 -5.3334398 -0.22877038 4.6097815e-40
6.9872756 -5.3120384 -0.24398156 4.6097815e-40
6.9724064 -5.2932615 -0.26091337 3.6878252e-40
6.9701419 -5.3387499 -0.22529571 3.6878252e-40
6.9584479 -5.3202477 -0.24293049 2.7658689e-40
6.9447837 -5.2839441 -0.26239148 2.7658689e-40
6.9376135 -5.3252769 -0.23767526 1.8439126e-40
6.9210873 -5.2840137 -0.25030354 1.8439126e-40
6.9013672 -5.2591829 -0.25734806 2.7658689e-40
6.8824797 -5.2630739 -0.2492598 1.8439126e-40
6.8720994 -5.2416897 -0.26502264 1.8439126e-40
6.850739 -5.2225175 -0.28111196 1.8439126e-40
6.849895 -5.2479935 -0.26411614 2.7658689e-40
6.8394156 -5.2236176 -0.27013668 1.8439126e-40
6.8247046 -5.1986351 -0.26699489 1.8439126e-40
6.8143077 -5.1750746 -0.28246334 2.7658689e-40
6.7858372 -5.1824551 -0.27780771 2.7658689e-40
6.7904243 -5.1536112 -0.2887719 2.7658689e-40
6.7611084 -5.1891165 -0.27501434 2.7658689e-40
6.7573586 -5.16327 -0.2887719 1.8439126e-40
6.7447238 -5.193903 -0.27501434 2.7658689e-40
7.1759119 -5.1198044 -0.24269848 6.4536941e-40
7.1502237 -5.1566172 -0.24598613 3.6878252e-40
7.1541553 -5.1250553 -0.23721081 6.4536941e-40
7.1402302 -5.2095575 -0.22036792 4.6097815e-40
7.1399045 -5.1846228 -0.23308335 4.6097815e-40
7.1214285 -5.267354 -0.21665433 7.3756504e-40
7.1307411 -5.238481 -0.21851115 5.5317378e-40
7.1060419 -5.3199816 -0.20275168 6.4536941e-40
7.1116819 -5.293211 -0.20444775 5.5317378e-40
7.1114378 -5.2713294 -0.22190957 4.6097815e-40
7.0901227 -5.3585649 -0.19632158 4.6097815e-40
7.0928473 -5.3248758 -0.20792048 4.6097815e-40
7.0684662 -5.4016995 -0.18519816 4.6097815e-40
7.0653052 -5.3813734 -0.20088279 4.6097815e-40
7.0352077 -5.3872004 -0.19962004 7.3756504e-40
7.0122781 -5.3494501 -0.21308921 9.219563e-40
7.0088401 -5.3784914 -0.19554445 5.5317378e-40
6.994875 -5.3524547 -0.20275174 5.5317378e-40
6.9829769 -5.3322048 -0.21139704 2.7658689e-40
6.9808407 -5.354475 -0.19241418 2.7658689e-40
6.969295 -5.3358517 -0.20965973 2.7658689e-40
6.9518881 -5.3168783 -0.2166543 2.7658689e-40
6.9367599 -5.3223548 -0.22190957 1.8439126e-40
6.9143486 -5.2888851 -0.22077583 2.7658689e-40
6.8813119 -5.2590761 -0.22769117 2.7658689e-40
6.862504 -5.2384753 -0.23510811 2.7658689e-40
6.8552465 -5.2677746 -0.23308335 2.7658689e-40
6.8412352 -5.244688 -0.23510811 2.7658689e-40
6.8382273 -5.2195497 -0.2481861 2.7658689e-40
6.819798 -5.1952429 -0.24300432 2.7658689e-40
6.8093562 -5.1716518 -0.25825414 2.7658689e-40
6.7889404 -5.1771336 -0.25585985 2.7658689e-40
6.7769608 -5.1484728 -0.24367453 2.7658689e-40
6.7619209 -5.1851335 -0.25639188 2.7658689e-40
6.7478123 -5.1592555 -0.25494888 2.7658689e-40
7.1722417 -5.1138849 -0.20794341 6.4536941e-40
7.168757 -5.0894475 -0.22381185 4.6097815e-40
7.1472793 -5.1465368 -0.19159614 5.5317378e-40
7.1507826 -5.1201534 -0.20794341 6.4536941e-40
7.138783 -5.2046041 -0.19364135 5.5317378e-40
7.1387367 -5.1806259 -0.21151473 4.6097815e-40
7.1258392 -5.2848821 -0.18359976 5.5317378e-40
7.130281 -5.2594824 -0.19037814 5.5317378e-40
7.1161537 -5.3107901 -0.1717391 4.6097815e-40
7.0944123 -5.360671 -0.17056167 6.4536941e-40
7.0726056 -5.3957233 -0.16149771 7.3756504e-40
7.0541849 -5.3802395 -0.1790939 9.219563e-40
7.054913 -5.401094 -0.16250625 6.4536941e-40
7.0335536 -5.3815379 -0.16906953 5.5317378e-40
7.00948 -5.3398714 -0.16140164 3.6878252e-40
7.0077314 -5.3746953 -0.1750631 6.4536941e-40
6.993196 -5.3467069 -0.1717391 3.6878252e-40
6.9777927 -5.3270798 -0.17838778 2.7658689e-40
6.9626336 -5.2790585 -0.17610893 2.7658689e-40
6.965878 -5.3075066 -0.19037814 1.8439126e-40
6.9438567 -5.2774763 -0.19372255 1.8439126e-40
6.9267116 -5.2382221 -0.1899461 1.8439126e-40
6.9133205 -5.214879 -0.19159614 2.7658689e-40
6.9091372 -5.2466097 -0.20612258 2.7658689e-40
6.8973689 -5.2195387 -0.19159614 1.8439126e-40
6.8863559 -5.1683769 -0.20609576 2.7658689e-40
6.8117819 -5.1946149 -0.22824089 2.7658689e-40
6.7969208 -5.1696653 -0.23032053 2.7658689e-40
7.1726441 -5.1086168 -0.18233436 4.6097815e-40
7.1463957 -5.1435132 -0.17527916 4.6097815e-40
7.1565495 -5.113318 -0.18233442 4.6097815e-40
7.1379371 -5.2169766 -0.16600718 1.2907388e-39
7.1241465 -5.2790861 -0.15232778 6.4536941e-40
7.1277204 -5.2507172 -0.14308102 5.5317378e-40
7.1097016 -5.307476 -0.14589535 3.6878252e-40
7.0924401 -5.3830318 -0.1272077 5.5317378e-40
7.0952425 -5.3607464 -0.14181061 7.3756504e-40
7.0719666 -5.3907876 -0.13603231 6.4536941e-40
7.0535483 -5.3964214 -0.13729301 4.6097815e-40
7.0314994 -5.3706264 -0.13879727 5.5317378e-40
7.0086408 -5.336997 -0.14589535 6.4536941e-40
6.9933662 -5.3172884 -0.15232778 3.6878252e-40
6.9810119 -5.2956867 -0.1535915 1.8439126e-40
6.9643316 -5.2662549 -0.15888014 1.8439126e-40
6.949213 -5.2546034 -0.16691476 1.8439126e-40
6.9308152 -5.2326851 -0.16837746 1.8439126e-40
6.9124374 -5.2118549 -0.17527916 2.7658689e-40
6.9015083 -5.213953 -0.16984016 2.7658689e-40
6.8990397 -5.1885395 -0.18233442 1.8439126e-40
7.1753049 -5.0445266 -0.15769306 5.5317378e-40
7.1649022 -5.1020479 -0.13843331 5.5317378e-40
7.1651006 -5.07693 -0.15626919 4.6097815e-40
7.1502409 -5.13692 -0.14808416 1.1985432e-39
7.1550641 -5.108233 -0.15489621 4.6097815e-40
7.1365132 -5.2197371 -0.13370675 7.3756504e-40
7.1454849 -5.1645546 -0.14141668 7.3756504e-40
7.1207547 -5.2737865 -0.12105579 4.6097815e-40
7.1268673 -5.2477951 -0.12731534 6.4536941e-40
7.1083279 -5.3238182 -0.098545142 3.6878252e-40
7.1106892 -5.3014698 -0.11746716 4.6097815e-40
7.0950642 -5.353981 -0.1079167 5.5317378e-40
7.071629 -5.3850536 -0.10703708 9.219563e-40
7.0506072 -5.3679905 -0.11300075 7.3756504e-40
7.0513644 -5.3889446 -0.096951768 4.6097815e-40
7.0300465 -5.3675919 -0.10812134 4.6097815e-40
7.0078011 -5.3341236 -0.13038906 5.5317378e-40
7.008667 -5.3549919 -0.10879622 3.6878252e-40
6.9968557 -5.3342018 -0.11488277 3.6878252e-40
6.9882765 -5.3124847 -0.12105573 1.8439126e-40
6.9751658 -5.2915802 -0.1246877 1.8439126e-40
6.9630728 -5.2709341 -0.13635688 1.8439126e-40
6.9459696 -5.2617159 -0.13162465 1.8439126e-40
6.9293556 -5.2276888 -0.14141668 1.8439126e-40
6.910965 -5.2068148 -0.14808416 2.7658689e-40
6.9003305 -5.2099214 -0.14808416 2.7658689e-40
7.1693759 -5.0974293 -0.12197036 5.5317378e-40
7.1750259 -5.0706902 -0.13966034 9.219563e-40
7.153791 -5.1293182 -0.11545016 4.6097815e-40
7.1384854 -5.2017937 -0.1001133 5.5317378e-40
7.1443172 -5.1605577 -0.11984804 5.5317378e-40
7.1258559 -5.2660065 -0.08978375 5.5317378e-40
7.1074953 -5.3209686 -0.083168596 6.4536941e-40
7.1167297 -5.2939868 -0.089038961 5.5317378e-40
7.0894375 -5.3727517 -0.071738549 5.5317378e-40
7.0960355 -5.348073 -0.079954177 4.6097815e-40
7.0699911 -5.3794465 -0.076781191 7.3756504e-40
7.0415769 -5.3874931 -0.07552053 4.6097815e-40
7.0214815 -5.3698511 -0.079954207 4.6097815e-40
7.0012364 -5.36832 -0.077604242 3.6878252e-40
6.9890919 -5.3326573 -0.095930636 2.7658689e-40
6.9729962 -5.3106585 -0.08978375 4.6097815e-40
6.9713168 -5.2879477 -0.10103909 2.7658689e-40
6.9589033 -5.2662883 -0.1072053 2.7658689e-40
6.9746847 -5.3334007 -0.078701437 3.6878252e-40
6.9604726 -5.2890015 -0.090528622 3.6878252e-40
6.9392819 -5.2555885 -0.10087263 4.6097815e-40
6.9226246 -5.2242317 -0.11445589 1.8439126e-40
6.9091983 -5.2007666 -0.11545016 3.6878252e-40
6.8985639 -5.2038732 -0.11545016 3.6878252e-40
6.8853393 -5.1815038 -0.12745802 4.6097815e-40
7.1622286 -5.0928946 -0.089044489 3.6878252e-40
7.1700721 -5.0637851 -0.098138206 4.6097815e-40
7.1520243 -5.1232705 -0.082816124 6.4536941e-40
7.1378255 -5.1933622 -0.07042376 9.219563e-40
7.1241627 -5.260211 -0.058511764 5.5317378e-40
7.1345816 -5.2360282 -0.080018163 3.6878252e-40
7.1061077 -5.3162193 -0.057540972 4.6097815e-40
7.1150508 -5.2882395 -0.058026411 3.6878252e-40
7.091907 -5.3665533 -0.044508219 4.6097815e-40
7.0972819 -5.3431067 -0.057075825 3.6878252e-40
7.0683532 -5.3738394 -0.04652527 3.6878252e-40
7.038775 -5.3824792 -0.04652527 4.6097815e-40
7.0190558 -5.3882394 -0.0465253 4.6097815e-40
6.9968138 -5.3629875 -0.050452061 4.6097815e-40
6.9735651 -5.3295689 -0.058026411 3.6878252e-40
6.9522948 -5.2864575 -0.066004202 3.6878252e-40
6.9333596 -5.2570076 -0.076720051 9.219563e-40
6.9252315 -5.2665296 -0.059502851 2.7658689e-40
6.9103303 -5.2213154 -0.082102939 3.6878252e-40
6.8967972 -5.1978254 -0.082816124 3.6878252e-40
6.8835564 -5.1754017 -0.094532117 3.6878252e-40
6.8797622 -5.1458035 -0.084297508 3.6878252e-40
7.1821098 -5.1332483 -0.038965669 7.3756504e-40
7.1768441 -5.1094561 -0.050182175 8.2976067e-40
7.1716709 -5.0853529 -0.065264694 1.0141519e-39
7.1714292 -5.0583773 -0.073224925 3.6878252e-40
7.1558695 -5.1166773 -0.055621143 4.6097815e-40
7.138062 -5.1838818 -0.045615859 5.5317378e-40
7.1411061 -5.1495647 -0.060534317 7.3756504e-40
7.1227517 -5.2553811 -0.032451794 6.4536941e-40
7.132021 -5.2272625 -0.032721046 4.6097815e-40
7.1094537 -5.3090553 -0.026787831 5.5317378e-40
7.0904875 -5.3616934 -0.018286485 4.6097815e-40
7.0945296 -5.3336844 -0.006234976 5.5317378e-40
7.0667152 -5.3682318 -0.016269404 4.6097815e-40
7.0371366 -5.3768721 -0.016269404 3.6878252e-40
7.0150895 -5.3838196 -0.018790727 3.6878252e-40
6.993782 -5.3565354 -0.019026382 2.7658689e-40
6.9698925 -5.3000331 -0.032451794 3.6878252e-40
6.9713268 -5.3219051 -0.01667631 1.8439126e-40
6.9597015 -5.30301 -0.032451794 4.6097815e-40
6.9444981 -5.2833991 -0.039477795 3.6878252e-40
6.9268022 -5.2882662 -0.03797625 2.7658689e-40
6.920629 -5.2636089 -0.038301788 1.8439126e-40
6.9088707 -5.2163186 -0.055142112 3.6878252e-40
6.8956194 -5.1937933 -0.061060168 4.6097815e-40
7.1730075 -5.1062012 -0.028426191 4.6097815e-40
7.1543975 -5.1116371 -0.028426191 8.2976067e-40
7.1399741 -5.1698503 -0.022591222 1.1063476e-39
7.1223588 -5.2757082 -0.0063387845 4.6097815e-40
7.1213412 -5.2505512 -0.0063917921 4.6097815e-40
7.1308832 -5.2233667 -0.011700121 3.6878252e-40
7.105422 -5.3045626 0.0014024951 4.6097815e-40
7.1116929 -5.2767439 0.0039986828 1.1985432e-39
7.0847964 -5.3568645 0.013986459 4.6097815e-40
7.0934286 -5.329916 0.014101399 3.6878252e-40
7.0650773 -5.3626246 0.013986459 3.6878252e-40
7.0431757 -5.3425498 0.024269557 1.6595213e-39
7.0407014 -5.370759 0.0089438148 3.6878252e-40
7.020926 -5.3508019 0.015553959 6.4536941e-40
6.9935021 -5.3516502 0.010722683 2.7658689e-40
6.9702072 -5.3180733 0.0039986828 2.7658689e-40
6.9582911 -5.2981796 -0.0063917921 1.8439126e-40
6.9405079 -5.2779202 -0.0064448602 1.8439126e-40
6.9271545 -5.3051786 0.0040321732 2.7658689e-40
6.9250951 -5.2824225 -0.0064448602 1.8439126e-40
6.9152813 -5.2527914 -0.020712608 1.8439126e-40
7.1628399 -5.0750551 -0.0012422394 3.6878252e-40
7.147562 -5.132494 0.014955873 7.3756504e-40
7.1508579 -5.1061068 0.004207788 3.6878252e-40
7.1321511 -5.1801095 0.016889108 5.5317378e-40
7.1378951 -5.1385722 -0.0012205719 4.6097815e-40
7.1097398 -5.2486987 0.019668151 3.6878252e-40
7.1186166 -5.2195506 0.02508653 4.6097815e-40
7.1013908 -5.3000703 0.029592879 3.6878252e-40
7.110014 -5.270997 0.035011258 6.4536941e-40
7.0831585 -5.3512568 0.044242382 4.6097815e-40
7.0920525 -5.3252044 0.039521791 5.5317378e-40
7.066041 -5.3567648 0.041721061 4.6097815e-40
7.0525656 -5.3377619 0.034437772 3.6878252e-40
7.0387907 -5.3642168 0.044242382 4.6097815e-40
7.0205359 -5.3462996 0.038504943 4.6097815e-40
6.9916887 -5.3426328 0.037967429 3.6878252e-40
6.9786348 -5.3093739 0.035011258 1.3829344e-39
6.9665065 -5.2884417 0.030092174 2.7658689e-40
6.9492373 -5.2955832 0.019668151 1.8439126e-40
6.9471741 -5.2689266 0.028589997 2.7658689e-40
7.1466866 -5.1294966 0.031132376 5.5317378e-40
7.1564755 -5.0989962 0.0314028 5.5317378e-40
7.1270442 -5.1873212 0.041202374 3.6878252e-40
7.1355596 -5.1305776 0.041916672 7.3756504e-40
7.1083288 -5.2438688 0.045728151 4.6097815e-40
7.1066341 -5.2167082 0.056617979 3.6878252e-40
7.116107 -5.1883841 0.051802903 5.5317378e-40
7.0990682 -5.2710752 0.050517548 6.4536941e-40
7.0801873 -5.314106 0.066432454 3.6878252e-40
7.0509143 -5.332108 0.0649423 3.6878252e-40
7.0210924 -5.3408194 0.0649423 3.6878252e-40
6.9900999 -5.336256 0.065236352 2.7658689e-40
6.9653778 -5.2845783 0.050940223 2.7658689e-40
6.9668498 -5.3065786 0.066023834 2.7658689e-40
6.954905 -5.2865887 0.056152176 1.8439126e-40
6.9428005 -5.2666802 0.046107516 2.7658689e-40
7.1548014 -5.0674686 0.048146516 4.6097815e-40
7.137279 -5.099133 0.058597811 5.5317378e-40
7.1434774 -5.0685692 0.059121832 6.4536941e-40
7.1249404 -5.1648502 0.068057358 5.5317378e-40
7.1085691 -5.1856813 0.076184206 4.6097815e-40
7.0870032 -5.2673216 0.08669889 3.6878252e-40
7.0800304 -5.2416515 0.097848214 3.6878252e-40
7.095221 -5.2158136 0.077638961 6.4536941e-40
7.0732846 -5.2969398 0.08597365 3.6878252e-40
7.0662317 -5.2713099 0.097036414 3.6878252e-40
7.0474925 -5.3180132 0.094488241 5.5317378e-40
7.0200653 -5.326025 0.094488181 5.5317378e-40
6.9954891 -5.291975 0.097036414 2.7658689e-40
6.9981227 -5.3188953 0.08597365 3.6878252e-40
6.9808893 -5.2983189 0.08669889 2.7658689e-40
6.96629 -5.3046627 0.076361358 2.7658689e-40
7.0918665 -5.1714468 0.10527356 8.2976067e-40
7.1007199 -5.1288242 0.10123042 3.6878252e-40
7.07758 -5.2395716 0.11174685 4.6097815e-40
7.0826697 -5.2110238 0.11968081 3.6878252e-40
7.0606189 -5.2708702 0.10737394 4.6097815e-40
7.0585208 -5.243741 0.11869614 3.6878252e-40
7.0398474 -5.2748585 0.11771146 3.6878252e-40
7.0228534 -5.2541599 0.11869614 7.3756504e-40
7.0107436 -5.2320347 0.11968081 4.6097815e-40
7.0030365 -5.2620449 0.10827218 3.6878252e-40
6.9956155 -5.2375107 0.11442555 3.6878252e-40
6.9759703 -5.1908779 0.11104165 3.6878252e-40
6.9810562 -5.2449346 0.098659888 3.6878252e-40
6.9620428 -5.2104449 0.09992829 2.7658689e-40
7.0732422 -5.2373438 0.12912017 4.6097815e-40
7.0821009 -5.2090759 0.13019128 6.4536941e-40
7.0555053 -5.2397299 0.14301881 3.6878252e-40
7.0490885 -5.2169571 0.13895012 5.5317378e-40
7.0255876 -5.225584 0.13019128 8.2976067e-40
7.0120411 -5.1883497 0.13716534 3.6878252e-40
6.9858427 -5.1858435 0.12173231 4.6097815e-40
6.9693289 -5.1621432 0.12639378 4.6097815e-40
6.9428802 -5.1940928 0.14311357 2.7658689e-40
6.9453926 -5.1689911 0.12711281 1.8439126e-40
6.9334631 -5.1455417 0.12386583 1.8439126e-40
6.9259152 -5.1210833 0.11399825 1.8439126e-40
6.9324288 -5.1971459 0.14311357 2.7658689e-40
6.9197392 -5.1751828 0.13358337 5.5317378e-40
6.9049854 -5.1547356 0.11951464 2.7658689e-40
6.880291 -5.1610737 0.12386583 4.6097815e-40
6.8643394 -5.1657333 0.12386583 1.8439126e-40
7.0387239 -5.2132902 0.17223319 4.6097815e-40
7.0253329 -5.1657071 0.16449483 3.6878252e-40
7.0278797 -5.2143435 0.18274365 4.6097815e-40
7.0133567 -5.1831446 0.16112913 3.6878252e-40
6.9982271 -5.1500864 0.14436767 5.5317378e-40
6.98423 -5.1866484 0.16403276 2.7658689e-40
6.9737449 -5.1563702 0.14868139 3.6878252e-40
6.9512105 -5.1918049 0.16122942 1.8439126e-40
6.9507842 -5.1639452 0.14436767 2.7658689e-40
6.9282603 -5.2052145 0.16180223 1.8439126e-40
6.9108105 -5.173995 0.15245588 2.7658689e-40
6.8978705 -5.1521096 0.14290233 2.7658689e-40
6.8800588 -5.1563282 0.14779738 3.6878252e-40
6.8651199 -5.1322193 0.14692414 2.7658689e-40
6.8631611 -5.1617012 0.14562181 2.7658689e-40
7.0358171 -5.1830521 0.19491044 4.6097815e-40
7.0164666 -5.2134495 0.20376459 4.6097815e-40
7.0066843 -5.1778913 0.19094627 5.5317378e-40
6.9771447 -5.1754827 0.18587609 2.7658689e-40
6.9528904 -5.1890116 0.1868096 1.8439126e-40
6.9198747 -5.1954317 0.18870682 2.7658689e-40
6.9068613 -5.1702676 0.17672066 1.8439126e-40
6.893887 -5.1483502 0.1673778 2.7658689e-40
6.8881202 -5.1732631 0.18904555 2.7658689e-40
6.874835 -5.1522741 0.1755363 2.7658689e-40
6.8585668 -5.1297183 0.16887467 3.6878252e-40
6.8548961 -5.157114 0.18043141 2.7658689e-40
7.0329165 -5.1629801 0.23297563 1.3829344e-39
7.0313673 -5.226512 0.24378407 3.6878252e-40
7.0198975 -5.2061052 0.23529603 2.7658689e-40
7.0074573 -5.1801496 0.22122096 3.6878252e-40
6.9798741 -5.1760149 0.223225 1.8439126e-40
6.9500432 -5.1870904 0.22247557 1.8439126e-40
6.923152 -5.184803 0.217948 2.7658689e-40
6.9048176 -5.1632724 0.21446577 2.7658689e-40
6.8890033 -5.167892 0.21446577 2.7658689e-40
6.8699679 -5.1454906 0.2163288 2.7658689e-40
6.8518114 -5.1776714 0.21985792 2.7658689e-40
6.8571167 -5.1508861 0.20817028 3.6878252e-40
7.0327864 -5.2219038 0.26463214 5.5317378e-40
7.0118146 -5.2038856 0.25806874 2.7658689e-40
7.0018578 -5.1823111 0.24791315 5.5317378e-40
6.9888473 -5.2105236 0.25841913 1.8439126e-40
6.9736414 -5.1822867 0.24505183 1.8439126e-40
6.9657626 -5.2653093 0.27277422 2.7658689e-40
6.9688129 -5.239543 0.26984414 1.8439126e-40
6.9607778 -5.2191458 0.2563169 2.7658689e-40
6.9391046 -5.1985092 0.25851375 2.7658689e-40
6.9416952 -5.22472 0.25631696 1.8439126e-40
6.9190931 -5.1792307 0.2515471 1.8439126e-40
6.903358 -5.1582756 0.2414265 2.7658689e-40
6.8842573 -5.1875634 0.26071045 2.7658689e-40
6.8822722 -5.1644354 0.2414265 2.7658689e-40
6.854744 -5.1720428 0.24358334 1.8439126e-40
6.8584499 -5.1455736 0.23264575 2.7658689e-40
7.0406852 -5.1894622 0.28784835 4.6097815e-40
7.0153399 -5.196866 0.28784835 2.7658689e-40
7.0066624 -5.173089 0.28678185 1.8439126e-40
6.9862266 -5.2053699 0.28784847 1.8439126e-40
6.9605389 -5.2128735 0.28784835 2.7658689e-40
6.9431386 -5.1930666 0.27971485 2.7658689e-40
6.9397039 -5.2179027 0.29310361 1.8439126e-40
6.9184828 -5.1781273 0.27989882 1.8439126e-40
6.8876681 -5.1950626 0.27498993 2.7658689e-40
6.8624864 -5.1906977 0.27674645 2.7658689e-40
6.8471351 -5.1681914 0.27377945 2.7658689e-40
7.0307579 -5.1860194 0.31937981 4.6097815e-40
7.0366044 -5.160078 0.30798295 2.7658689e-40
7.0064034 -5.1917243 0.32638684 2.7658689e-40
7.007 -5.1641521 0.31188172 2.7658689e-40
6.9860425 -5.1983767 0.32288328 1.8439126e-40
6.9828696 -5.1750641 0.31151646 2.7658689e-40
6.9560828 -5.2338266 0.31675214 2.7658689e-40
6.9622569 -5.2060294 0.31937981 2.7658689e-40
6.9331441 -5.2145338 0.31937981 1.8439126e-40
6.9128213 -5.1816006 0.30539304 1.8439126e-40
6.8998551 -5.1462836 0.30613241 1.8439126e-40
6.8834701 -5.1927204 0.30214936 2.7658689e-40
6.8893123 -5.1493635 0.30613241 2.7658689e-40
