# .PCD v0.7 - Point Cloud Data file format
VERSION 0.7
FIELDS x y z rgb
SIZE 4 4 4 4
TYPE F F F F
COUNT 1 1 1 1
WIDTH 953
HEIGHT 1
VIEWPOINT 0 0 0 1 0 0 0
POINTS 953
DATA ascii
2.4258647 1.287204 -1.2850591 4.6958338e-39
2.4327362 1.2486792 -1.2822516 6.0773263e-39
2.4189394 1.2729411 -1.2981963 5.892582e-39
2.4174562 1.2294883 -1.2841048 5.5237938e-39
2.4008837 1.2134627 -1.2816229 4.6962066e-39
2.3871093 1.2102076 -1.2995589 4.5121684e-39
2.3696699 1.1895922 -1.2958251 4.6050801e-39
2.3469849 1.1688254 -1.2959999 6.0798697e-39
2.2686117 1.2136613 -1.3024974 8.2014426e-39
2.3156133 1.159989 -1.3061912 7.1851411e-39
2.3018215 1.1707389 -1.3053014 7.6471926e-39
2.4404364 1.2765901 -1.2507011 4.5132432e-39
2.4343915 1.285826 -1.2622217 4.5121628e-39
2.4054883 1.3123771 -1.2666366 3.6820434e-39
2.3498354 1.3745947 -1.2802085 7.3694931e-39
2.4438739 1.2385801 -1.252224 5.3419235e-39
2.4342489 1.2634319 -1.2565501 5.1578952e-39
2.429503 1.2749567 -1.2734228 5.2497307e-39
2.4358454 1.2296447 -1.2491688 6.0762754e-39
2.4166312 1.2287601 -1.262845 4.9745913e-39
2.3943319 1.2144811 -1.2591343 3.9618883e-39
2.375555 1.2094876 -1.2659553 3.9611344e-39
2.3709898 1.1898589 -1.2469904 5.7117892e-39
2.36396 1.194084 -1.2675556 5.0660597e-39
2.3432655 1.1799862 -1.2708309 6.9092632e-39
2.3096452 1.1940905 -1.2755322 8.1088924e-39
2.2865784 1.2090051 -1.2789198 8.2925718e-39
2.2565188 1.2214754 -1.302961 7.8308804e-39
2.2309847 1.2380431 -1.3015223 7.0003939e-39
2.2102785 1.2429852 -1.3026432 5.9865881e-39
2.1808119 1.2537253 -1.3085554 6.1698877e-39
2.3451262 1.3885486 -1.2697315 9.1190254e-39
2.4336913 1.2818967 -1.2173054 3.2264743e-39
2.4266477 1.2908642 -1.2368639 3.5916429e-39
2.3555164 1.3652507 -1.2597983 7.2769345e-39
2.4451799 1.2387663 -1.2236303 4.6965597e-39
2.4326487 1.2647027 -1.2313795 4.1423139e-39
2.4322734 1.2226617 -1.2229054 5.0649877e-39
2.3924861 1.2162089 -1.230049 4.8823943e-39
2.3695219 1.2142339 -1.2360855 4.4224783e-39
2.351541 1.2031381 -1.2365179 6.0812836e-39
2.3332601 1.1919631 -1.2414467 7.9234096e-39
2.311172 1.2067181 -1.2324094 7.4663887e-39
2.2825098 1.2155784 -1.2506624 7.0036113e-39
2.2250962 1.2426754 -1.2723693 5.6177901e-39
2.2121458 1.251043 -1.2728969 6.5368738e-39
2.3469005 1.3872836 -1.2407031 1.0040996e-38
2.4351168 1.2841555 -1.2001593 3.9590031e-39
2.4288116 1.2983906 -1.2149278 5.1550141e-39
2.353405 1.3680083 -1.2354573 8.0184442e-39
2.4453287 1.2267395 -1.1887385 5.7114137e-39
2.4435573 1.2482231 -1.192992 4.1441076e-39
2.4367509 1.2701883 -1.20662 3.5920128e-39
2.4381843 1.2196661 -1.183907 5.8029101e-39
2.4263091 1.2186849 -1.1981645 5.8954602e-39
2.41061 1.2098194 -1.1955876 6.1698947e-39
2.382884 1.2120467 -1.1978415 5.8936469e-39
2.3649971 1.2177936 -1.2136832 5.7099788e-39
2.3354862 1.2140582 -1.212773 6.5411912e-39
2.3022852 1.2148339 -1.2170424 6.7259482e-39
2.2779267 1.2193204 -1.2229548 5.2508125e-39
2.4501128 1.2732016 -1.1638992 3.4991165e-39
2.4324334 1.2926357 -1.1876205 4.41784e-39
2.441992 1.2325381 -1.1645814 5.0642478e-39
2.4419036 1.2552129 -1.165386 3.8667962e-39
2.4313827 1.2141759 -1.1612487 5.9865867e-39
2.4148774 1.2030933 -1.152503 6.9982289e-39
2.401922 1.2041844 -1.1665053 5.80328e-39
2.3745358 1.2119749 -1.1805184 5.9865446e-39
2.3652077 1.2047316 -1.1694186 5.7125137e-39
2.3271956 1.2125268 -1.1825656 6.6315889e-39
2.295835 1.2155424 -1.1903893 5.4348436e-39
2.2700315 1.2253957 -1.1888804 4.6086731e-39
2.2449865 1.2322478 -1.1855276 5.4344933e-39
2.2379603 1.2318032 -1.1932338 5.8036345e-39
2.4495945 1.2781941 -1.1358402 4.0508288e-39
2.4408627 1.2413419 -1.1325285 3.8660774e-39
2.4419465 1.2632039 -1.1388745 3.9550542e-39
2.4366932 1.2109597 -1.1279769 5.6188719e-39
2.4095845 1.1964539 -1.130376 6.6305239e-39
2.380708 1.1940871 -1.1371711 6.3561007e-39
2.3551555 1.1986741 -1.1291449 7.5560353e-39
2.3226523 1.2141156 -1.155708 6.81922e-39
2.2879353 1.2238336 -1.16195 5.6196216e-39
2.257484 1.2341776 -1.1668754 5.2504313e-39
2.2418363 1.2347261 -1.1699317 5.4334073e-39
2.2257056 1.2259928 -1.1697354 6.8145663e-39
2.20874 1.2178252 -1.1656253 1.0315122e-38
2.4522848 1.2717264 -1.1017734 3.3143567e-39
2.446362 1.2795218 -1.1131175 3.0402824e-39
2.4451346 1.2431536 -1.1004413 3.5912897e-39
2.4402781 1.1999965 -1.0929996 5.7107046e-39
2.4405849 1.2177036 -1.0995476 4.5128845e-39
2.4290314 1.1901393 -1.0823208 6.7219965e-39
2.4108124 1.1928613 -1.1033295 7.0932817e-39
2.3891277 1.185661 -1.0996262 8.1085099e-39
2.3717351 1.1881986 -1.1046128 7.5564235e-39
2.3454127 1.2057223 -1.106498 7.834123e-39
2.3176827 1.2168328 -1.1235272 7.1901591e-39
2.286468 1.2448022 -1.1174597 8.2017873e-39
2.2876053 1.2320395 -1.1255298 6.2642624e-39
2.2564502 1.238125 -1.1331247 5.3444613e-39
2.2371113 1.2384434 -1.1465377 5.3408697e-39
2.2231483 1.2293953 -1.1424792 6.8141977e-39
2.2083926 1.218752 -1.1435839 1.0406572e-38
2.4537601 1.2727379 -1.0728583 3.405479e-39
2.4549947 1.2305733 -1.0595293 3.6816917e-39
2.4497862 1.2432936 -1.0757613 3.4976578e-39
2.4436402 1.2071339 -1.0612504 4.6039983e-39
2.4254889 1.1848154 -1.0621997 7.1844026e-39
2.4065266 1.1833423 -1.0780624 8.2932613e-39
2.3907592 1.1851617 -1.0736759 8.4791085e-39
2.3174915 1.2244015 -1.1047314 8.0227896e-39
2.2899461 1.2429563 -1.0977187 6.542947e-39
2.2762284 1.2387838 -1.1006248 5.8961875e-39
2.2493618 1.2383488 -1.1078945 6.0813004e-39
2.2350607 1.231451 -1.1048611 6.4471907e-39
2.218791 1.2285259 -1.1143709 6.8163459e-39
2.1971366 1.219371 -1.1139221 8.8413904e-39
2.4626217 1.252562 -1.0348599 3.1328283e-39
2.4549646 1.2758449 -1.0430825 3.4983823e-39
2.4588337 1.2339412 -1.0330662 3.5902135e-39
2.4495749 1.2034659 -1.0287136 4.2355731e-39
2.4450731 1.1802973 -1.01846 6.261024e-39
2.4273782 1.1805383 -1.0335263 7.3709588e-39
2.4023399 1.1784042 -1.0289274 8.4802001e-39
2.3961687 1.1820828 -1.0494152 8.6642354e-39
2.2878542 1.2450473 -1.0688791 3.9564779e-39
2.2704778 1.2355075 -1.0708306 4.9745689e-39
2.2484303 1.2328163 -1.086216 7.0915077e-39
2.2501097 1.2197906 -1.0664446 6.6297869e-39
2.2304633 1.2204007 -1.077211 7.1826103e-39
2.2114773 1.2143619 -1.0738541 7.5513914e-39
2.189218 1.2159015 -1.0894585 7.9198236e-39
2.1693301 1.2041545 -1.0779923 1.0132506e-38
2.1584895 1.2085483 -1.0945334 1.1145205e-38
2.4543967 1.2959946 -1.0016316 4.0544231e-39
2.4607911 1.260283 -1.0057751 3.3147015e-39
2.4546657 1.2824062 -1.0144857 3.498741e-39
2.4563568 1.2345425 -1.0032809 3.5898534e-39
2.458555 1.1968149 -0.99343365 3.9586303e-39
2.4549441 1.2132356 -1.0135937 3.1328521e-39
2.4455562 1.1768984 -0.99195689 6.817069e-39
2.4224863 1.1763662 -1.0030377 8.479456e-39
2.4042952 1.1775851 -1.0074146 6.7281118e-39
2.2832453 1.2486731 -1.0460609 2.213023e-39
2.2682238 1.234967 -1.0400628 3.9593506e-39
2.2455916 1.2150985 -1.0398091 6.1702591e-39
2.2225394 1.2127118 -1.0554079 7.0925783e-39
2.2262723 1.2016833 -1.037111 7.0925937e-39
2.2052457 1.2050185 -1.0491523 7.0929426e-39
2.1876478 1.2090617 -1.0659585 7.5521201e-39
2.1829453 1.1909823 -1.0428469 9.4860661e-39
2.1655264 1.1942357 -1.0580837 1.1054804e-38
2.1478498 1.1801338 -1.0475959 1.1239214e-38
2.461657 1.2928592 -0.98316878 3.8671578e-39
2.4604392 1.2664726 -0.97577769 3.6820575e-39
2.4570267 1.2847412 -0.98854011 3.6817197e-39
2.4595914 1.2225057 -0.96130741 2.6718502e-39
2.4564753 1.2368358 -0.97595906 3.1310403e-39
2.4511452 1.2033453 -0.96776611 3.4987438e-39
2.4374518 1.1778761 -0.96507031 6.3586076e-39
2.4355555 1.1577638 -0.95517993 1.6591668e-39
2.4271951 1.1632626 -0.96057642 2.4874911e-39
2.4133172 1.1720235 -0.98544419 4.9735305e-39
2.2757082 1.2284455 -1.0090028 3.1299627e-39
2.2576773 1.2288191 -1.0156367 3.682433e-39
2.2595308 1.2156971 -1.0006472 4.325636e-39
2.243223 1.2113243 -1.0135239 4.9728103e-39
2.2182193 1.1925174 -1.014446 6.8170718e-39
2.2005491 1.1817088 -1.0065019 7.369161e-39
2.1809049 1.18373 -1.0219139 9.211989e-39
2.1603003 1.1861845 -1.0373659 1.1788428e-38
2.1585791 1.174509 -1.0079639 8.8396051e-39
2.1476521 1.1801312 -1.0273113 1.0131782e-38
2.4575548 1.2708256 -0.94730008 3.4061978e-39
2.4599252 1.2284704 -0.94061208 3.2221527e-39
2.4594116 1.2467015 -0.9467386 3.3136239e-39
2.443531 1.2072756 -0.93936461 3.2243107e-39
2.4428625 1.2227407 -0.95377594 3.6831421e-39
2.4286194 1.185401 -0.94226503 4.882746e-39
2.4128242 1.1935428 -0.93216109 4.0522791e-39
2.410768 1.167055 -0.94049925 2.856247e-39
2.3959179 1.1718444 -0.9326638 3.1317535e-39
2.3661866 1.1694368 -0.93993825 3.4068971e-39
2.3508871 1.1706641 -0.93840766 3.9582856e-39
2.2506618 1.2096213 -0.98233986 4.1405357e-39
2.2344136 1.2071522 -0.99662155 5.1554107e-39
2.2319801 1.1935078 -0.96977776 4.3313729e-39
2.2197967 1.1923085 -0.98763245 6.1720555e-39
2.196115 1.1772053 -0.98419064 7.1858487e-39
2.1772313 1.1775291 -1.0014937 8.0156122e-39
2.17187 1.1570227 -0.97818857 1.0040299e-38
2.1663601 1.165845 -0.99635899 8.8403268e-39
2.1593974 1.1437134 -0.97206676 1.3541895e-38
2.4641938 1.2525953 -0.90298837 3.0356483e-39
2.4540591 1.2726043 -0.91873151 3.1303298e-39
2.4602551 1.2330691 -0.91030109 3.2214394e-39
2.4494829 1.2013531 -0.8928991 3.8668271e-39
2.4452677 1.2087201 -0.90942258 3.4980417e-39
2.423481 1.1903862 -0.90605688 3.6831379e-39
2.4072638 1.1906536 -0.92210776 4.3277856e-39
2.4015546 1.1694846 -0.91138631 3.1335528e-39
2.3925886 1.1739498 -0.91741616 3.5916527e-39
2.3730006 1.1598691 -0.91549754 3.7749621e-39
2.3448682 1.1659905 -0.93124592 3.5877206e-39
2.2452426 1.208626 -0.95220083 3.5895031e-39
2.226727 1.1951576 -0.94974422 4.2352242e-39
2.2099524 1.1897585 -0.96366191 5.4341247e-39
2.2098055 1.1786758 -0.93764836 5.1557274e-39
2.1949034 1.1744395 -0.95449561 6.4464914e-39
2.1760216 1.1357335 -0.93764836 1.1971729e-38
2.1729465 1.1547161 -0.95379424 9.4857018e-39
2.1591935 1.1401522 -0.95389682 1.344684e-38
2.4638197 1.2609855 -0.87613374 3.5887884e-39
2.4584701 1.2769034 -0.89047843 4.6961982e-39
2.4556365 1.2367507 -0.88179469 3.2221527e-39
2.4468784 1.2064323 -0.87271559 3.4068957e-39
2.4438872 1.2141274 -0.88924474 3.1314102e-39
2.4310482 1.1863102 -0.87271559 3.4983752e-39
2.4205627 1.1844798 -0.88924474 3.5945211e-39
2.4107304 1.1625215 -0.86781383 4.5146796e-39
2.4020886 1.1624441 -0.88576514 4.1466145e-39
2.3815427 1.1455976 -0.88114041 4.6962038e-39
2.2378407 1.2076429 -0.91451985 2.8537527e-39
2.2277608 1.1905802 -0.91749358 3.6820631e-39
2.2014966 1.1711638 -0.92081624 5.064273e-39
2.1881337 1.1736165 -0.93577307 5.9844469e-39
2.1837454 1.1453739 -0.92066455 7.73651e-39
2.1650877 1.1344039 -0.90740895 1.123524e-38
2.1464744 1.1350915 -0.92717391 1.326425e-38
2.1298103 1.1267786 -0.92232704 1.4834071e-38
2.4594378 1.2639338 -0.85312945 3.5001913e-39
2.4477868 1.2743372 -0.84469658 3.9565074e-39
2.4582283 1.2300665 -0.84654474 2.7611816e-39
2.4582548 1.2467077 -0.85479671 2.9462987e-39
2.4483399 1.2073274 -0.84464842 3.2221499e-39
2.4328523 1.1801596 -0.84185827 3.590938e-39
2.4126694 1.1556472 -0.84348905 4.8813083e-39
2.3885999 1.1404555 -0.84340268 4.6976555e-39
2.3750114 1.1403197 -0.8561886 3.499841e-39
2.2282224 1.2144512 -0.89048672 3.0349028e-39
2.2241883 1.1898978 -0.88608503 2.7618962e-39
2.217931 1.1518457 -0.87036258 4.6043669e-39
2.2118573 1.1639714 -0.89051324 4.1430454e-39
2.1908498 1.1417476 -0.88844138 5.8025527e-39
2.1656666 1.1272311 -0.88726568 1.0592395e-38
2.1431427 1.129074 -0.90534884 1.3266376e-38
2.1317911 1.1200188 -0.8924185 1.4280204e-38
2.449985 1.2638763 -0.82134467 3.1306815e-39
2.4397712 1.2804472 -0.82958817 3.6809897e-39
2.458003 1.2314165 -0.8171618 3.039202e-39
2.4523964 1.253145 -0.82139266 2.7640444e-39
2.4574502 1.195263 -0.80335397 3.7738747e-39
2.4551663 1.2054796 -0.82080293 2.9473483e-39
2.4393342 1.1722355 -0.80335391 4.0511861e-39
2.4344513 1.1757704 -0.82009244 3.8671634e-39
2.4209468 1.1491464 -0.80267334 4.8813069e-39
2.4165192 1.1539247 -0.81781179 4.9727879e-39
2.4092813 1.1368641 -0.79654753 6.9056535e-39
2.3902621 1.1351632 -0.81506157 5.2497545e-39
2.2360525 1.2061174 -0.85613948 2.3005804e-39
2.2302461 1.1754677 -0.85119104 2.670418e-39
2.2284842 1.1937461 -0.86058325 2.5771434e-39
2.2198021 1.1548945 -0.85121763 4.418912e-39
2.1960425 1.1325058 -0.84995419 5.8004003e-39
2.1923676 1.1426878 -0.86644715 5.6174426e-39
2.1626625 1.1229306 -0.85969943 9.9459723e-39
2.1366212 1.1170731 -0.86204982 1.3540856e-38
2.1265182 1.1221687 -0.87112159 1.3266782e-38
2.4566467 1.2593546 -0.77525753 3.2193137e-39
2.4505138 1.2637684 -0.79007626 3.590229e-39
2.4339647 1.2803926 -0.81196272 3.4983795e-39
2.453274 1.2371157 -0.78688234 3.0384971e-39
2.446774 1.2575682 -0.79355586 3.4958627e-39
2.4610739 1.1960013 -0.77730292 3.4069013e-39
2.4424272 1.1701165 -0.77631599 4.051549e-39
2.4237597 1.1487631 -0.77747333 4.6972716e-39
2.4016747 1.1296068 -0.77601409 5.7092991e-39
2.384748 1.1317352 -0.79613334 4.6040516e-39
2.2316232 1.2050004 -0.83657736 1.9335817e-39
2.2451067 1.1642609 -0.81110781 2.9448399e-39
2.234273 1.1818125 -0.82681316 2.1190505e-39
2.2213426 1.2080353 -0.82917339 2.2094567e-39
2.234493 1.1472852 -0.81547421 4.6958506e-39
2.2154644 1.1437848 -0.83400142 5.0646402e-39
2.2177258 1.1347405 -0.81044793 5.9883677e-39
2.1949859 1.1322323 -0.82671797 5.8025597e-39
2.1797013 1.1209881 -0.82769042 7.9216397e-39
2.1597948 1.1216476 -0.82790035 9.0283278e-39
2.1346622 1.1195655 -0.83265102 1.096767e-38
2.1179452 1.123917 -0.84069729 1.1701617e-38
2.4536166 1.2635566 -0.75588131 2.9452421e-39
2.4486315 1.2743918 -0.75875992 1.5719962e-39
2.4619761 1.2250614 -0.74549985 2.7619046e-39
2.4511929 1.2431979 -0.76209676 2.9455756e-39
2.469774 1.1811867 -0.74060547 3.3150812e-39
2.4626813 1.2014551 -0.75039667 3.1299711e-39
2.4566917 1.1608911 -0.7417748 4.2359431e-39
2.4376826 1.140887 -0.74150896 4.4221266e-39
2.4268589 1.1410609 -0.75583696 4.6979848e-39
2.4023032 1.1272436 -0.74907118 5.8032786e-39
2.3822773 1.1223421 -0.74890304 2.9481246e-39
2.2377696 1.2026256 -0.79278737 2.3942081e-39
2.2502358 1.1722138 -0.78435868 2.9470063e-39
2.2424767 1.1903872 -0.80448705 3.0356034e-39
2.2317333 1.1492237 -0.7852965 5.8025667e-39
2.2102017 1.1358435 -0.78478456 6.6333896e-39
2.1911173 1.1324079 -0.79655856 6.725588e-39
2.1713538 1.1233767 -0.79641521 8.1053023e-39
2.1525736 1.1200391 -0.79924017 9.950633e-39
2.1478062 1.1139795 -0.79924017 9.8660114e-39
2.4621944 1.2601132 -0.72410774 3.0370524e-39
2.4591775 1.2308398 -0.72303891 2.7619102e-39
2.4569006 1.2463402 -0.73368943 2.5782308e-39
2.4693165 1.1820004 -0.71352357 3.3154231e-39
2.4614172 1.208638 -0.71902269 2.9459329e-39
2.4581378 1.1604831 -0.71537083 4.0519092e-39
2.437866 1.1358622 -0.71398294 4.97422e-39
2.4161377 1.1231545 -0.71045882 7.0003911e-39
2.3945441 1.1217464 -0.71854722 5.7139598e-39
2.3795278 1.1245052 -0.73529029 2.8641742e-39
2.2494879 1.1964465 -0.75912124 4.6065529e-39
2.2475429 1.175772 -0.75470573 4.6972912e-39
2.2283092 1.1524603 -0.75498569 6.4468558e-39
2.2051661 1.1355535 -0.75802976 6.4475704e-39
2.1824644 1.1309731 -0.76390481 7.0929454e-39
2.16362 1.1258401 -0.76683623 8.4776904e-39
2.1488028 1.1230056 -0.78057158 1.0226509e-38
2.1432815 1.1175392 -0.77683783 6.1839652e-39
2.4703503 1.2499743 -0.6890741 2.7583327e-39
2.4628758 1.2597698 -0.70492047 3.4015133e-39
2.4649012 1.2322505 -0.69395876 2.6686272e-39
2.4653268 1.1853491 -0.68255293 2.7637011e-39
2.4569249 1.2122481 -0.69157588 2.1197834e-39
2.4610467 1.1512526 -0.67114538 3.8693186e-39
2.4604087 1.1613601 -0.68505442 3.6852846e-39
2.4465504 1.1345377 -0.66702914 5.1582385e-39
2.4389453 1.1360708 -0.68498659 5.3408417e-39
2.4117584 1.1198208 -0.68212712 7.092951e-39
2.3902512 1.1190106 -0.6969344 5.9898433e-39
2.3914566 1.1108109 -0.67615521 5.9005287e-39
2.2544913 1.1769428 -0.72492522 4.6079332e-39
2.2421782 1.1795573 -0.72919166 5.1593301e-39
2.2230382 1.1567436 -0.72554678 5.7096494e-39
2.2027781 1.1369628 -0.72601181 6.447569e-39
2.1772482 1.1350768 -0.73807979 7.4617265e-39
2.1594973 1.1277499 -0.73757958 9.1262898e-39
2.1482506 1.116483 -0.74234623 4.7837345e-39
2.134232 1.1246586 -0.73203313 2.393834e-39
2.4755695 1.2462605 -0.67178518 2.5771476e-39
2.4760022 1.2189116 -0.65676951 2.3016481e-39
2.4735923 1.2347375 -0.6733734 2.4845989e-39
2.4692774 1.1750597 -0.63903868 2.8548415e-39
2.4652185 1.1909195 -0.65542835 2.6707838e-39
2.4645238 1.149284 -0.64366215 3.6845686e-39
2.4584978 1.1705682 -0.65705478 3.6824078e-39
2.4455624 1.1313969 -0.64573705 5.157898e-39
2.4267721 1.1294163 -0.65904123 5.6192433e-39
2.4251299 1.118944 -0.63903868 7.2748186e-39
2.4105105 1.1185265 -0.65559846 7.7386792e-39
2.3916159 1.1087276 -0.65486997 6.6362847e-39
2.2448409 1.173692 -0.69952404 4.6036662e-39
2.2160659 1.1596507 -0.69722903 5.157912e-39
2.1985335 1.1377153 -0.69638789 6.7255964e-39
2.1767867 1.1284171 -0.70046222 8.9354385e-39
2.148612 1.1308227 -0.70895064 8.4845189e-39
2.1437538 1.1200206 -0.72008246 3.3997112e-39
2.4849792 1.2059674 -0.61269474 3.3122015e-39
2.4823785 1.2187638 -0.62681848 3.0377754e-39
2.470273 1.180221 -0.62073731 3.1303228e-39
2.4681804 1.1974039 -0.62784004 2.5789427e-39
2.4675493 1.1521602 -0.61653137 3.5920142e-39
2.4577003 1.1268528 -0.60310584 5.0628381e-39
2.4493279 1.1277074 -0.61696064 5.2508111e-39
2.4257245 1.1139073 -0.61898047 7.5539152e-39
2.4038451 1.1126583 -0.62924427 8.6635011e-39
2.3912458 1.10704 -0.62431866 7.2816569e-39
2.2386241 1.173673 -0.67049199 4.6994548e-39
2.2202735 1.1542251 -0.66690183 6.0791508e-39
2.2050371 1.1396847 -0.66332507 7.8330342e-39
2.1902938 1.1384519 -0.66941589 7.9230676e-39
2.1716032 1.1324952 -0.67479885 9.4907843e-39
2.1481786 1.1360536 -0.67750871 8.202921e-39
2.1221659 1.1341513 -0.6722936 2.0279395e-39
2.476583 1.2491163 -0.59033906 4.140893e-39
2.4966791 1.1898711 -0.57069129 3.6820715e-39
2.4914148 1.2042706 -0.58874971 3.2228758e-39
2.4804611 1.2319484 -0.59663296 3.4980207e-39
2.4881482 1.1781296 -0.57285225 3.4072628e-39
2.4800334 1.1796042 -0.59212506 2.5796714e-39
2.4664354 1.147964 -0.5790264 3.6852776e-39
2.468174 1.1596198 -0.59245962 2.7640584e-39
2.4521697 1.1286987 -0.58175027 5.1586281e-39
2.4418216 1.1240715 -0.59739512 5.8047149e-39
2.4377937 1.1141243 -0.57285225 6.6316071e-39
2.4221566 1.1116693 -0.58941633 7.6464807e-39
2.4002619 1.1064956 -0.59293675 8.6631508e-39
2.3838077 1.1023257 -0.59282589 7.2812954e-39
2.2580342 1.1584795 -0.62081635 5.8040241e-39
2.2445416 1.1636026 -0.6398133 5.528491e-39
2.2469425 1.1510186 -0.61957747 5.4356073e-39
2.2158942 1.1548331 -0.64079815 6.9092786e-39
2.2006457 1.1431395 -0.6415838 7.6490073e-39
2.1839664 1.1422595 -0.6409049 8.9379496e-39
2.1461158 1.1401368 -0.64822662 8.6656675e-39
2.1206577 1.1353378 -0.66482615 2.1190618e-39
2.4937198 1.233824 -0.55901122 3.4980459e-39
2.483263 1.250049 -0.56834853 3.8643047e-39
2.4682388 1.2699018 -0.57239765 4.5060532e-39
2.4984083 1.1963634 -0.55305362 3.1306899e-39
2.4979792 1.2160069 -0.55798876 3.0392048e-39
2.4819171 1.2339125 -0.57627201 3.038832e-39
2.4865766 1.1746233 -0.55192858 3.5909338e-39
2.4680912 1.151389 -0.55352914 3.6838525e-39
2.4508386 1.1286899 -0.55259061 5.0667926e-39
2.4318523 1.115554 -0.55124253 6.8145635e-39
2.4173181 1.1088946 -0.55897391 7.7383218e-39
2.39498 1.1005237 -0.56101978 8.6642312e-39
2.3721619 1.1023918 -0.56709522 7.8337615e-39
2.3342166 1.1171603 -0.57220507 7.8330174e-39
2.3015838 1.1286458 -0.5713287 7.8301672e-39
2.2771301 1.1386648 -0.58292377 8.1989315e-39
2.2656114 1.1490457 -0.60106492 7.4642503e-39
2.2424388 1.1460383 -0.59884614 8.0163451e-39
2.2070971 1.1539456 -0.61465257 8.2011021e-39
2.1943045 1.146224 -0.61476958 9.2163176e-39
2.1762118 1.1457001 -0.6089111 1.068715e-38
2.1567936 1.1441463 -0.60147506 1.0975234e-38
2.1430125 1.1474313 -0.62294024 1.0878728e-38
2.4847159 1.275018 -0.52610862 2.9492036e-39
2.4967005 1.2380373 -0.5275532 3.3161574e-39
2.4838963 1.2597618 -0.5402196 3.8653725e-39
2.4974203 1.203432 -0.52341384 2.8559009e-39
2.4973254 1.2213395 -0.53311467 3.1314046e-39
2.4971366 1.1661276 -0.51270556 3.3168693e-39
2.4910598 1.1701325 -0.52638429 3.7756936e-39
2.4817557 1.1467979 -0.51217389 3.5945337e-39
2.4692988 1.1469326 -0.52665204 3.9625862e-39
2.4526958 1.1282327 -0.52421677 4.9760333e-39
2.4226217 1.1152726 -0.5236901 6.5412038e-39
2.4085832 1.1079979 -0.53441769 7.7404644e-39
2.3914652 1.1004081 -0.52902675 8.8475393e-39
2.3649487 1.1026645 -0.53433561 8.8479022e-39
2.3542318 1.106017 -0.54706353 8.2036146e-39
2.3179498 1.1197627 -0.54733336 8.6624361e-39
2.3006296 1.1217819 -0.55177951 8.9390328e-39
2.278687 1.126628 -0.5503546 9.4878892e-39
2.261682 1.1319938 -0.56277955 9.4925499e-39
2.2442508 1.1375269 -0.57550675 9.4921982e-39
2.2062321 1.1510669 -0.57932979 9.9528078e-39
2.1896057 1.15038 -0.58075893 1.0229398e-38
2.1700373 1.1489614 -0.58218211 1.1059171e-38
2.4813545 1.2776626 -0.50946593 4.3270765e-39
2.4922333 1.2422202 -0.49944454 3.3165259e-39
2.4838202 1.2643112 -0.50895303 3.8682578e-39
2.492866 1.2084646 -0.4962146 2.8558953e-39
2.4892097 1.2294363 -0.48881331 2.4907253e-39
2.4911973 1.1680063 -0.49002165 2.7636927e-39
2.488832 1.1791153 -0.49795851 2.7654877e-39
2.4763238 1.1450039 -0.49083775 3.9615128e-39
2.4610057 1.1316925 -0.48505956 4.8838292e-39
2.4445353 1.128045 -0.4961665 5.0678716e-39
2.4165034 1.1148828 -0.49587163 6.3564608e-39
2.4003401 1.1110593 -0.50184315 8.3858436e-39
2.4016757 1.1027944 -0.48965475 6.8152795e-39
2.3849602 1.1032184 -0.50179809 8.1103358e-39
2.3579671 1.1052574 -0.50674587 8.1099784e-39
2.3447208 1.1105688 -0.50702631 8.1085393e-39
2.3183203 1.1166196 -0.51752651 8.7531856e-39
2.2911689 1.1230575 -0.52346069 9.6747804e-39
2.2732544 1.1278719 -0.53074765 9.9531666e-39
2.2614837 1.1290681 -0.53606594 1.0506709e-38
2.2277482 1.1401628 -0.54179722 1.0412361e-38
2.2115083 1.1414856 -0.53414792 1.0969811e-38
2.1880307 1.1492645 -0.55383116 1.1332519e-38
2.1628423 1.1514298 -0.55423802 1.0685337e-38
2.4759762 1.2818938 -0.48283762 3.6828015e-39
2.4620962 1.3012649 -0.47815362 4.8845453e-39
2.4970126 1.2301682 -0.46471265 1.4740539e-39
2.4915504 1.2474093 -0.47504994 1.936104e-39
2.4794338 1.2706616 -0.48025975 2.6711733e-39
2.5001895 1.1916634 -0.46060348 9.2231223e-40
2.4948039 1.214102 -0.4695718 1.382926e-39
2.4902759 1.1718446 -0.46169642 1.1074153e-39
2.4764211 1.1456228 -0.46026796 1.476558e-39
2.4536829 1.1253333 -0.46169159 2.1219372e-39
2.4368789 1.1129576 -0.45635024 1.8467881e-39
2.4174161 1.1115291 -0.4679904 3.7782258e-39
2.3977475 1.1058848 -0.47020599 4.0530022e-39
2.3783293 1.1027389 -0.47281107 4.3324729e-39
2.3546238 1.1078879 -0.49019206 6.0820389e-39
2.3548059 1.1007265 -0.46780285 4.1466622e-39
2.3350465 1.1041442 -0.47950402 5.4363262e-39
2.3094699 1.1139063 -0.49511388 7.0951259e-39
2.2894721 1.1066141 -0.48819497 8.0138381e-39
2.2776794 1.1168401 -0.50453168 8.7528381e-39
2.2528243 1.1267384 -0.5151884 9.3967726e-39
2.2093513 1.1431824 -0.52346927 9.5818743e-39
2.1791847 1.1516794 -0.53129882 1.0035657e-38
2.4657187 1.2963866 -0.45342696 2.117631e-39
2.4948394 1.234095 -0.43991387 1.0134331e-39
2.4883635 1.2598706 -0.44514334 1.1063476e-39
2.5003133 1.1979197 -0.43146613 1.1052742e-39
2.497262 1.2141186 -0.4418171 7.382811e-40
2.4901681 1.1724585 -0.43132484 1.4744112e-39
2.4760222 1.146569 -0.43010533 1.4754832e-39
2.4516599 1.1274649 -0.43193677 1.7510107e-39
2.4298873 1.1148663 -0.43037516 2.3960144e-39
2.4117124 1.1132021 -0.43967965 2.3034642e-39
2.3892548 1.1057181 -0.43793747 2.951342e-39
2.3747625 1.1012261 -0.44728079 2.9484707e-39
2.3532314 1.1002134 -0.44700348 4.3285591e-39
2.3245795 1.1027495 -0.45419767 4.6072998e-39
2.2897687 1.1052077 -0.46021029 7.0875729e-39
2.2465646 1.1246263 -0.45693335 8.3664006e-39
2.4610434 1.3022629 -0.42498925 2.579663e-39
2.5030413 1.2222468 -0.3957417 3.1339157e-39
2.4971457 1.2361302 -0.40725198 2.9491741e-39
2.4803305 1.2667217 -0.41786855 2.6733201e-39
2.496707 1.2044463 -0.40111825 2.5811245e-39
2.4896245 1.1641481 -0.38601869 3.8697081e-39
2.4891708 1.1760771 -0.40112919 2.765143e-39
2.4773707 1.147005 -0.38978902 3.5001857e-39
2.4683876 1.1468852 -0.40117526 2.5814748e-39
2.4451876 1.1295869 -0.4004249 2.8569911e-39
2.4228094 1.1119336 -0.40132141 3.593124e-39
2.4053867 1.0991794 -0.39318973 3.8707871e-39
2.3868327 1.1002486 -0.40753233 4.1477201e-39
2.3679132 1.1023353 -0.42366424 3.50239e-39
2.3675036 1.0917851 -0.40159306 4.8842314e-39
2.3534188 1.0986714 -0.42029428 4.8846027e-39
2.3236423 1.1052779 -0.42181268 5.8083611e-39
2.3972197 1.0193027 -0.3796007 5.0549432e-39
2.2805562 1.1160576 -0.42838722 6.9060501e-39
2.2577329 1.1174119 -0.43773502 8.3728943e-39
2.458612 1.3071584 -0.39349961 3.6860315e-39
2.4557352 1.3239565 -0.40410474 4.6883215e-39
2.5015039 1.2289419 -0.37131587 3.5030668e-39
2.4985979 1.2448088 -0.38124692 3.5016459e-39
2.4801166 1.2706847 -0.38586918 4.1480845e-39
2.5026493 1.1913251 -0.36046425 3.4105194e-39
2.4964869 1.2071378 -0.37310869 3.0428131e-39
2.4895668 1.170114 -0.36470819 3.2257624e-39
2.4894927 1.1834427 -0.37535203 2.5818322e-39
2.4806671 1.1410978 -0.36201373 3.0428103e-39
2.4788599 1.1045767 -0.34455815 4.2388256e-39
2.4603319 1.1184351 -0.36191496 3.594189e-39
2.4452481 1.1291864 -0.3796216 2.5832657e-39
2.4615579 1.0734504 -0.34664634 4.1491691e-39
2.4438527 1.0962085 -0.35978064 3.9622653e-39
2.4241383 1.1097431 -0.37690935 3.594189e-39
2.4470651 1.0573988 -0.34740093 4.4221616e-39
2.420764 1.0654035 -0.35876715 4.6058298e-39
2.4029503 1.0980903 -0.37932003 4.6097857e-39
2.3794904 1.095292 -0.38361058 4.3303135e-39
2.4262676 1.0405837 -0.34491658 5.5464094e-40
2.4100132 1.0424849 -0.3596631 3.2229024e-39
2.3827233 1.0759406 -0.37979206 4.5172622e-39
2.3777332 1.0825024 -0.38490227 3.9705806e-39
2.3501723 1.0906162 -0.39760461 4.6101809e-39
2.3945308 1.0186543 -0.3596158 2.483894e-39
2.2781353 1.1124102 -0.41078597 5.7982535e-39
2.383997 0.98242724 -0.35155031 6.2624463e-39
2.3736753 1.0020947 -0.35502514 4.8816684e-39
2.374697 0.97332686 -0.34902054 7.3680862e-39
2.3572273 0.97425276 -0.34760505 7.7361554e-39
2.4699841 1.2870749 -0.35160556 4.2417375e-39
2.4559493 1.3132498 -0.36336786 3.9626226e-39
2.4516482 1.3342468 -0.37488347 6.6367051e-39
2.4997048 1.2340938 -0.34297279 3.5019878e-39
2.4946067 1.2565928 -0.34757635 3.3183224e-39
2.4801865 1.2707697 -0.3617726 3.1353885e-39
2.5042548 1.1909573 -0.33566329 2.8566114e-39
2.4956763 1.2144322 -0.34380916 3.2264785e-39
2.519917 1.1309575 -0.30942124 4.6094256e-39
2.5156245 1.1464459 -0.31750908 3.8696955e-39
2.4990845 1.1697091 -0.33988705 3.2261156e-39
2.5102396 1.1186565 -0.30942124 5.1600686e-39
2.5004597 1.1267184 -0.32620552 4.2395374e-39
2.4962878 1.1464419 -0.34052095 2.5821839e-39
2.4826865 1.1026504 -0.32441419 5.1611616e-39
2.4647326 1.0762448 -0.32452187 4.331045e-39
2.4486036 1.0528628 -0.3230353 3.7778768e-39
2.4235029 1.0355858 -0.32859853 1.6580948e-39
2.4047017 1.0102563 -0.32842731 2.762269e-39
2.3857107 0.98582965 -0.32788181 7.4563161e-39
2.367589 0.96706325 -0.3272863 9.1140522e-39
2.3469539 0.96701115 -0.33963722 7.9187586e-39
2.3448787 0.9404918 -0.32133386 6.9046039e-39
2.3373351 0.95693022 -0.33447528 5.8936876e-39
2.3337536 0.9211598 -0.32349199 1.0223298e-38
2.3089142 0.92080647 -0.33446994 9.7601517e-39
2.3004398 0.91567516 -0.3329514 1.2714355e-38
2.4933829 1.2714658 -0.31407607 3.9633457e-39
2.479846 1.2838758 -0.32919806 4.3314192e-39
2.454803 1.3222958 -0.33809748 4.4218029e-39
2.5563109 1.1821511 -0.28148097 3.2253981e-39
2.5427327 1.1959734 -0.29107076 3.7760762e-39
2.5153234 1.2161291 -0.30338827 4.2363369e-39
2.4990051 1.2418499 -0.3158949 3.6853113e-39
2.4970646 1.2581686 -0.32719573 4.0555343e-39
2.542407 1.1654886 -0.28523088 3.8722038e-39
2.5323935 1.1760033 -0.30314556 3.4101467e-39
2.5104806 1.1995531 -0.31640589 3.4090691e-39
2.498131 1.2164735 -0.32229868 3.0413642e-39
2.5317264 1.1377389 -0.28904423 3.5938359e-39
2.5242696 1.1584855 -0.30873135 3.3229747e-39
2.516573 1.111173 -0.28878066 4.3324743e-39
2.4937046 1.0945938 -0.28675058 5.8054534e-39
2.4789221 1.0967466 -0.30251989 5.6224859e-39
2.4703255 1.0752368 -0.28646487 6.0820487e-39
2.4642758 1.0791972 -0.30287343 4.8845915e-39
2.4491131 1.0472598 -0.29426244 4.3303416e-39
2.44381 1.0549027 -0.29581484 3.6864085e-39
2.4236495 1.0331168 -0.29943159 2.4882184e-39
2.4047031 1.0115911 -0.29970694 3.1278215e-39
2.384912 0.98694569 -0.29976386 8.8396065e-39
2.3665452 0.96500689 -0.29991382 1.0128203e-38
2.3482203 0.94305348 -0.30006677 1.1328912e-38
2.3301287 0.92475164 -0.30146891 1.6315052e-38
2.2995486 0.9261815 -0.30494899 1.5390576e-38
2.2925072 0.92052919 -0.31509182 1.439579e-38
2.2608051 0.93576252 -0.30804542 1.4741598e-38
2.2261083 0.9443962 -0.31374457 1.3449083e-38
2.216167 0.93929762 -0.31569636 1.2441403e-38
2.4511292 1.3452158 -0.29467583 1.2541167e-38
2.5669591 1.2134346 -0.25484955 3.5952638e-39
2.5574322 1.2286572 -0.2573891 4.3332324e-39
2.5021021 1.2628808 -0.2770263 3.6860147e-39
2.4925017 1.2753761 -0.29192939 4.2413605e-39
2.4520693 1.3269603 -0.30665267 4.1459195e-39
2.5649827 1.1902016 -0.25970694 4.0548e-39
2.5557563 1.2060643 -0.27448055 4.794872e-39
2.4991744 1.2534587 -0.29435754 3.5949079e-39
2.5508447 1.163631 -0.25910345 3.6863875e-39
2.532445 1.1384457 -0.25820348 3.8704298e-39
2.5180793 1.110936 -0.25731745 5.901249e-39
2.4950349 1.089165 -0.25802559 6.5441059e-39
2.4698479 1.0727379 -0.26423296 6.3582713e-39
2.4484742 1.057301 -0.26614034 6.5469953e-39
2.433301 1.0523822 -0.2697396 6.822848e-39
2.4339247 1.0392945 -0.26697659 5.7143578e-39
2.4184175 1.0355395 -0.2685273 4.1470321e-39
2.3978314 1.0183707 -0.27085415 3.7767936e-39
2.3763614 0.99199617 -0.27397916 9.6668476e-39
2.3622208 1.0100625 -0.26380605 5.9833693e-39
2.358335 0.97515017 -0.2711978 1.1327084e-38
2.3315561 0.97710866 -0.26584142 1.1051601e-38
2.3408217 0.95360756 -0.2808145 1.289227e-38
2.3147473 0.96250361 -0.27488762 1.3632714e-38
2.3064933 0.94362527 -0.2842181 1.6128127e-38
2.2725372 0.96734661 -0.27998683 1.3913616e-38
2.2574773 0.97495019 -0.27590105 1.2341988e-38
2.2279832 0.98133516 -0.28685114 1.4745541e-38
2.2288933 0.94887143 -0.29810202 1.3828675e-38
2.2121599 0.97028559 -0.29316926 1.4104875e-38
2.2059891 0.94728589 -0.30150968 1.2078772e-38
2.5939257 1.2319734 -0.22843279 1.2454699e-38
2.4535928 1.3432428 -0.27682388 1.2268162e-38
2.5741825 1.2207708 -0.23116516 4.1480873e-39
2.5629823 1.2270721 -0.24603482 5.254425e-39
2.4458146 1.3336037 -0.27823707 4.3306877e-39
2.5697861 1.1779764 -0.21622457 3.6863819e-39
2.5710917 1.1885206 -0.22863235 4.3314023e-39
2.5557578 1.156548 -0.21952249 3.5959925e-39
2.5543447 1.1646559 -0.23319091 3.4105321e-39
2.5442467 1.1305867 -0.224189 5.2519209e-39
2.5366271 1.1396518 -0.23916559 4.6087137e-39
2.528173 1.1160457 -0.22189566 7.6504296e-39
2.5086801 1.1126338 -0.22933698 7.8362754e-39
2.4869494 1.0983149 -0.23290032 8.2032573e-39
2.4602966 1.1049937 -0.22571647 6.5476736e-39
2.4628606 1.0789086 -0.23873165 8.7553633e-39
2.4435024 1.0962006 -0.22926018 6.4497634e-39
2.4451466 1.0633247 -0.24348046 7.2791556e-39
2.4255052 1.0638229 -0.24069341 7.4657076e-39
2.403934 1.0727737 -0.23532632 6.0813383e-39
2.4122591 1.0442721 -0.24257918 8.0196073e-39
2.3921499 1.0723183 -0.23654282 6.9975534e-39
2.3991952 1.0313407 -0.24820316 4.2388606e-39
2.1931958 1.1279758 -0.28566107 4.7895204e-39
2.3565276 0.99031681 -0.2525776 7.4653125e-39
2.3351121 0.98939914 -0.25127792 6.720584e-39
2.2026894 1.0892662 -0.27926448 7.0925937e-39
2.1971564 1.1091733 -0.2840859 6.264984e-39
2.3071098 0.97623748 -0.26187617 8.9314939e-39
2.2836192 0.98454255 -0.26045242 8.1056652e-39
2.2571497 1.0053525 -0.25532106 6.5361801e-39
2.2414353 1.0280952 -0.25566384 6.1681221e-39
2.2685323 0.97719753 -0.26814473 9.3942489e-39
2.2478776 0.98952973 -0.26168546 7.0018358e-39
2.2220974 0.99109423 -0.26947728 8.2943809e-39
2.2076633 0.98436177 -0.27769086 9.8617164e-39
2.1935723 0.99537265 -0.2683706 6.912873e-39
2.5937223 1.2320914 -0.19136828 1.2821346e-38
2.4443705 1.350533 -0.26121271 1.1809342e-38
2.5766258 1.2219089 -0.20456198 4.5147244e-39
2.4400978 1.3451022 -0.26121271 4.1369498e-39
2.5710688 1.1840333 -0.1930766 3.7785747e-39
2.5703259 1.196676 -0.20502463 5.0682331e-39
2.5625634 1.1557598 -0.19487725 4.0548169e-39
2.5455787 1.1305434 -0.19460516 6.0834794e-39
2.5256171 1.1164898 -0.19693933 7.92955e-39
2.4992814 1.115955 -0.19964585 7.0987104e-39
2.4806659 1.1102965 -0.21154301 7.4674901e-39
2.4549448 1.1162032 -0.2145215 6.2660784e-39
2.4328785 1.1280029 -0.20904565 3.8700781e-39
2.4130235 1.1163639 -0.21700449 5.8069094e-39
2.392498 1.098084 -0.22784466 5.9938104e-39
2.3784933 1.1079047 -0.21763572 5.7139879e-39
2.373863 1.0736529 -0.22561841 9.0341264e-39
2.3595114 1.088243 -0.22496751 1.0415962e-38
2.1977799 1.1609007 -0.26465762 7.1920102e-39
2.1917076 1.132556 -0.27009094 4.5186775e-39
2.1863213 1.1470593 -0.26291785 6.4544242e-39
2.1940303 1.08319 -0.25856373 4.2349061e-39
2.1848435 1.1075337 -0.26510733 4.9764004e-39
2.1741605 1.1337706 -0.25769842 3.9636722e-39
2.2383766 1.0262456 -0.2507599 4.604762e-39
2.217247 1.0495801 -0.24550581 2.7637347e-39
2.1982927 1.0717494 -0.25573483 3.8678963e-39
2.5845771 1.2393187 -0.17413603 9.3208152e-39
2.5788226 1.2125293 -0.1607264 2.764434e-39
2.5750554 1.223536 -0.17445046 4.1477187e-39
2.5761852 1.1706676 -0.15695548 4.515788e-39
2.5746996 1.1874804 -0.1670596 3.8711389e-39
2.5643854 1.1531773 -0.16294958 4.6086997e-39
2.567205 1.1651556 -0.17489424 3.1307068e-39
2.5518985 1.1367522 -0.16428164 5.3455529e-39
2.5346987 1.1307075 -0.1652514 6.4526347e-39
2.5172915 1.1281389 -0.17559199 7.0090245e-39
2.4938896 1.1327188 -0.17657271 4.7937986e-39
2.4658835 1.1427336 -0.17342952 2.4878471e-39
2.4573078 1.1379753 -0.18744402 5.3455417e-39
2.4295325 1.1388739 -0.18580587 4.0555329e-39
2.4066195 1.1207627 -0.1883446 7.0043623e-39
2.385119 1.1096095 -0.19040419 5.8976659e-39
2.3719025 1.1066893 -0.20040241 5.7136193e-39
2.3534193 1.0966172 -0.19910139 1.0139381e-38
2.3306952 1.1026616 -0.19254717 9.1223773e-39
2.1636648 1.1812308 -0.24801324 1.3830055e-38
2.1721575 1.1508574 -0.24483663 4.7931176e-39
2.1635389 1.1678172 -0.23972371 1.0695796e-38
2.1978457 1.0822839 -0.23705681 2.2145364e-39
2.1714141 1.1116626 -0.24724844 3.1339311e-39
2.1634026 1.132383 -0.24139558 2.7654962e-39
2.1935253 1.0767925 -0.23705681 2.2116203e-39
2.5758753 1.2475017 -0.1465838 9.2207036e-39
2.5733213 1.2129514 -0.14288771 4.1477243e-39
2.5716677 1.2337303 -0.14408346 3.8732927e-39
2.5729766 1.1761669 -0.13391139 3.5959813e-39
2.5760059 1.1923112 -0.1364731 4.3313953e-39
2.5614345 1.1573846 -0.13480267 4.0558917e-39
2.5467587 1.1400142 -0.13535869 6.8206689e-39
2.5304985 1.1383673 -0.13780372 6.2732587e-39
2.49792 1.1493719 -0.14762589 3.2236311e-39
2.4780829 1.1630708 -0.14037934 3.4112691e-39
2.4591942 1.1559222 -0.1530991 2.7669535e-39
2.4417083 1.1368297 -0.14765911 3.962631e-39
2.4295373 1.1381468 -0.16291608 5.0689618e-39
2.4086423 1.1210055 -0.15853979 7.005091e-39
2.3799887 1.1084365 -0.16307451 5.8983749e-39
2.3489566 1.1037723 -0.16938818 1.0511049e-38
2.3227792 1.1100844 -0.17056832 1.0316931e-38
2.2984304 1.1142052 -0.1826126 1.4108787e-38
2.2876248 1.1208388 -0.17378318 1.3453024e-38
2.16009 1.1840434 -0.23031317 1.6407574e-38
2.1523185 1.1746554 -0.22913316 1.1619899e-38
2.5737429 1.247835 -0.11408203 7.002266e-39
2.5714025 1.2188526 -0.11032233 4.056249e-39
2.5704019 1.2391006 -0.1152389 3.9661833e-39
2.5686333 1.1823837 -0.10567234 3.6867588e-39
2.5714993 1.1991721 -0.10618494 3.8722193e-39
2.5586817 1.1597445 -0.10527923 4.8852978e-39
2.5436256 1.1481605 -0.11153328 4.6991171e-39
2.5289998 1.1520287 -0.1057087 4.7880589e-39
2.4971097 1.1598208 -0.11174826 5.166565e-39
2.4761527 1.1661909 -0.12696919 3.4108852e-39
2.4582317 1.157903 -0.1226366 2.9520552e-39
2.4419489 1.1347088 -0.12253805 4.4239539e-39
2.4219844 1.1187481 -0.12150535 8.112512e-39
2.403347 1.1198467 -0.13473874 9.4950891e-39
2.3783839 1.1105624 -0.13135539 7.4664251e-39
2.3601875 1.1025255 -0.13843368 1.4104844e-38
2.3395109 1.1100556 -0.13844028 9.7727508e-39
2.3074992 1.1179967 -0.14899531 8.4759009e-39
2.2911932 1.1198989 -0.14678062 1.0126083e-38
2.2853501 1.1192825 -0.15048289 1.2624351e-38
2.5788586 1.2463515 -0.079461277 8.2926391e-39
2.5745113 1.2511295 -0.086811654 1.0976351e-38
2.5708728 1.2263335 -0.080843359 3.9651394e-39
2.5706 1.2424332 -0.095773652 4.9789129e-39
2.5665948 1.1879654 -0.07429 4.2395711e-39
2.5686212 1.2053051 -0.082627527 3.5059815e-39
2.5554626 1.1683729 -0.077676028 5.8998071e-39
2.5350003 1.1655614 -0.07542938 2.9488336e-39
2.5219049 1.1555761 -0.076546922 5.9898489e-39
2.4931481 1.1586007 -0.089095682 6.7317383e-39
2.4729922 1.1601574 -0.084947444 4.3296059e-39
2.4544942 1.1591049 -0.092907093 2.7687542e-39
2.4481516 1.1329842 -0.085070953 5.3459116e-39
2.4411778 1.1356288 -0.093540184 5.4377611e-39
2.417938 1.1174792 -0.094258264 8.2021993e-39
2.3765769 1.1150634 -0.10189293 9.2184952e-39
2.348011 1.1188473 -0.098085254 9.679507e-39
2.3348436 1.1153179 -0.11279817 1.0511758e-38
2.3022356 1.1197742 -0.11790816 8.473038e-39
2.2830865 1.117718 -0.12723592 1.7245255e-38
2.5760884 1.2498329 -0.062613562 8.7564619e-39
2.5666676 1.2573005 -0.047976285 8.4813015e-39
2.567513 1.2293476 -0.052249402 4.1502467e-39
2.5648737 1.1921306 -0.04646882 4.241006e-39
2.5485992 1.1759765 -0.046963096 6.4551458e-39
2.5305531 1.1721683 -0.045932215 3.5027319e-39
2.5138531 1.1561488 -0.048831537 6.6359386e-39
2.4914923 1.1555377 -0.062912978 7.3753099e-39
2.4902687 1.1493982 -0.041801754 4.1585017e-39
2.4692845 1.1516364 -0.055718776 4.7019813e-39
2.4515953 1.1582843 -0.070890523 3.601026e-39
2.4485769 1.1358393 -0.061423238 4.6090682e-39
2.428968 1.1323099 -0.064185441 6.7313656e-39
2.4115424 1.1219872 -0.066452309 8.388373e-39
2.3886909 1.1254116 -0.062064566 9.9589441e-39
2.3736014 1.1193674 -0.071783975 1.0602507e-38
2.3382134 1.1254206 -0.079426236 1.2081617e-38
2.327477 1.1239836 -0.086206868 1.0141207e-38
2.2961113 1.1276764 -0.090210013 9.8570655e-39
2.5618968 1.2606177 -0.025405306 8.2983704e-39
2.5607827 1.2337155 -0.022443185 4.0569763e-39
2.5537057 1.2557244 -0.012128321 3.3222937e-39
2.5601106 1.1970481 -0.015891692 4.7927448e-39
2.5375133 1.179104 -0.014819911 5.8998e-39
2.5269878 1.1761636 -0.025416557 2.9474127e-39
2.5207229 1.1601901 -0.012548636 5.8987323e-39
2.506711 1.1550843 -0.02168557 6.1778429e-39
2.4868217 1.1489757 -0.023093058 3.3179595e-39
2.4658532 1.1463736 -0.027022805 4.7030603e-39
2.4439096 1.1371676 -0.029892035 6.2675036e-39
2.4230666 1.1365713 -0.035884876 7.1869599e-39
2.4073563 1.1257832 -0.036895055 1.0323408e-38
2.3672435 1.1242485 -0.043775167 1.2169117e-38
2.3304572 1.1311446 -0.050973088 1.2075499e-38
2.3188272 1.1303998 -0.053356517 9.7763591e-39
2.2933545 1.1339232 -0.061855752 1.2992776e-38
2.5511363 1.2728703 0.00082106813 1.5863069e-38
2.5525627 1.2333432 0.0086873351 3.9644205e-39
2.5451286 1.2585477 0.002815868 3.9615436e-39
2.5542507 1.2019689 0.012510682 4.6087109e-39
2.5332172 1.1796631 0.011520466 5.0707666e-39
2.5156767 1.1630411 0.0097429045 5.6239306e-39
2.4991183 1.1580555 0.013567756 4.1495222e-39
2.4796162 1.1477026 0.0074940966 3.7829075e-39
2.4624748 1.1447277 -0.00017892101 6.9164701e-39
2.440311 1.1396939 -0.0010426251 8.1143154e-39
2.4159751 1.1398624 -0.0062781158 9.0308795e-39
2.4040565 1.1330513 -0.0071656988 1.0232298e-38
2.3740923 1.1362242 -0.0094837463 1.0325922e-38
2.354763 1.1322167 -0.017031744 1.0787268e-38
2.3206782 1.1380814 -0.022456136 1.0784767e-38
2.3147659 1.1306814 -0.024762154 1.4474752e-38
2.2904744 1.1362511 -0.038948789 1.6489027e-38
2.5582283 1.2599593 0.03244127 1.9085574e-38
2.5455141 1.2747945 0.022645297 1.8716079e-38
2.5450578 1.2457143 0.037598986 9.5908805e-39
2.5405855 1.2593186 0.02631193 1.0333158e-38
2.5452452 1.2079599 0.04078263 4.5172383e-39
2.5436413 1.2249573 0.041049112 5.4431365e-39
2.5264926 1.1848786 0.040777344 4.9789298e-39
2.5097549 1.1694176 0.04319527 5.5284952e-39
2.4953055 1.1640801 0.037457574 5.3469976e-39
2.4803369 1.1487157 0.034196898 7.0083112e-39
2.4531693 1.1485405 0.032286804 9.4943884e-39
2.4326549 1.1464525 0.023295199 8.9397545e-39
2.4109111 1.1487206 0.026502907 9.1266569e-39
2.3935907 1.1415397 0.017554471 8.5724069e-39
2.3633652 1.1467135 0.01601702 9.9571238e-39
2.3523443 1.1406931 0.0045013935 9.2181435e-39
2.3249462 1.1476753 0.0096701281 1.013795e-38
2.3034763 1.1493454 0.0030138458 1.539886e-38
2.3053045 1.1326571 -0.0065709674 2.2127323e-38
2.3013253 1.1426141 -0.0066039157 1.9365049e-38
2.5604954 1.2426833 0.064294621 1.9268532e-38
2.5412331 1.2449554 0.06249496 1.2818458e-38
2.5375261 1.2125239 0.069282778 4.3324926e-39
2.5370989 1.2301043 0.073440596 3.3237524e-39
2.5184231 1.1911017 0.07014443 5.0693205e-39
2.5032218 1.1712582 0.069745921 6.2696644e-39
2.4874163 1.1642332 0.063326187 7.4678404e-39
2.4740043 1.1580483 0.063814186 9.130247e-39
2.4432392 1.1629115 0.059205692 7.5578668e-39
2.4270802 1.1641654 0.054390039 5.805815e-39
2.4065862 1.1635275 0.050961021 7.3742169e-39
2.3771925 1.1688995 0.05362381 6.642072e-39
2.3592985 1.1601408 0.041475024 7.1920004e-39
2.3320739 1.1639022 0.04097544 7.283096e-39
2.3202634 1.1594713 0.034794614 9.21421e-39
2.2987578 1.1609359 0.03193783 1.7245269e-38
2.5266504 1.2483667 0.085051149 1.7333881e-38
2.5289769 1.2135823 0.090668835 8.3974128e-39
2.5253026 1.2271894 0.097912349 1.6964385e-38
2.5122671 1.1947141 0.096375495 7.0090567e-39
2.5098777 1.2089666 0.10583211 1.586235e-38
2.4991622 1.1754413 0.090082802 7.4660566e-39
2.484961 1.1774225 0.093777239 6.0842025e-39
2.462121 1.1864938 0.10139033 4.4279392e-39
2.471983 1.1645314 0.082671888 4.057356e-39
2.4397271 1.1804794 0.087909408 5.8072303e-39
2.4118567 1.1854789 0.083123453 6.2671574e-39
2.4009247 1.1757712 0.072308853 6.0820375e-39
2.3770251 1.1804916 0.079013817 9.5811498e-39
2.3538253 1.1722091 0.0697717 1.3172819e-38
2.3303094 1.1715237 0.06470789 1.5109295e-38
2.3154986 1.1721314 0.057227518 1.7243123e-38
2.2937598 1.1764835 0.05784509 2.0930214e-38
2.5007997 1.2270416 0.11280023 1.8161114e-38
2.4902606 1.2425096 0.11394648 1.8805396e-38
2.4626269 1.2591625 0.12201153 1.9268175e-38
2.4972448 1.2050761 0.11501751 1.4757085e-38
2.4672837 1.2286782 0.12522408 1.843914e-38
2.471632 1.1874952 0.10685404 6.0824229e-39
2.4530268 1.2052613 0.11509564 4.887844e-39
2.4278548 1.2088583 0.11696468 5.7175528e-39
2.4113953 1.1973141 0.10732342 6.3585936e-39
2.3913994 1.1991531 0.10707191 7.1858417e-39
2.3738286 1.1896669 0.10182443 1.0040302e-38
2.3541574 1.1796132 0.089582913 1.3541927e-38
2.3247674 1.1901559 0.093943276 1.3910002e-38
2.309258 1.1953367 0.095985435 1.2066098e-38
2.2583413 1.202574 0.07224863 2.1573067e-38
2.250175 1.211807 0.079260021 2.1481229e-38
2.4570887 1.2652892 0.1285791 1.9544041e-38
2.4537399 1.2308149 0.13321581 1.8993737e-38
2.4439912 1.2441853 0.13822086 1.9360009e-38
2.4264364 1.2248133 0.13282855 1.3648203e-38
2.4040725 1.2330267 0.14077348 1.1798524e-38
2.4095316 1.2103682 0.12681454 6.6333798e-39
2.3831561 1.2137475 0.13349782 7.1843942e-39
2.3622477 1.2004945 0.12971711 7.64395e-39
2.3396516 1.2000993 0.12297031 8.6566614e-39
2.3207655 1.1950902 0.12649062 8.1024156e-39
2.2963343 1.2006732 0.113911 1.0128561e-38
2.3000011 1.1829268 0.13059574 9.3931082e-39
2.2830806 1.1968433 0.11940266 1.1512162e-38
2.4277346 1.2496957 0.15371384 1.9451486e-38
2.416054 1.2502096 0.15451263 1.9359635e-38
2.3938103 1.2462622 0.15579052 1.5302692e-38
2.3735204 1.2255814 0.15527672 6.5383171e-39
2.3542264 1.202325 0.15365833 6.1691773e-39
2.3344679 1.1842539 0.15493646 5.3408571e-39
2.3129954 1.1830673 0.14543258 5.341213e-39
2.3153121 1.1708509 0.16319275 5.2508349e-39
2.3020205 1.1785342 0.15001053 5.2465469e-39
