# .PCD v0.7 - Point Cloud Data file format
VERSION 0.7
FIELDS x y z rgb
SIZE 4 4 4 4
TYPE F F F F
COUNT 1 1 1 1
WIDTH 1012
HEIGHT 1
VIEWPOINT 0 0 0 1 0 0 0
POINTS 1012
DATA ascii
2.4614396 -0.97747755 -1.2764987 7.0000267e-39
2.4843144 -0.96567774 -1.2875845 6.8163599e-39
2.4943616 -0.94438213 -1.2848856 6.4482949e-39
2.5017645 -0.92728853 -1.2918714 9.1025223e-39
2.3804364 -0.78873086 -1.2611533 1.4468554e-38
2.3545537 -0.76221329 -1.2495543 9.8599185e-39
2.3244665 -0.7333079 -1.2419477 9.1219934e-39
2.3426464 -0.72352678 -1.2474636 8.6620914e-39
2.32196 -0.71444803 -1.2510448 8.5702713e-39
2.3512352 -0.70392191 -1.2444172 8.1092722e-39
2.3786466 -0.69547147 -1.2673573 7.7401253e-39
2.3647497 -0.68698502 -1.2423239 8.0167248e-39
2.3803208 -0.67295837 -1.2611532 7.7397638e-39
2.3803015 -0.65366304 -1.2611533 9.2966456e-39
2.4077518 -1.0183074 -1.2379286 1.3081299e-38
2.393383 -1.0106153 -1.2146232 1.2626438e-38
2.419121 -1.0030292 -1.2384208 8.5695343e-39
2.4275527 -0.97981989 -1.2412016 7.3688261e-39
2.4488733 -0.96825397 -1.2428058 6.9078339e-39
2.466239 -0.96586603 -1.2589054 7.0000295e-39
2.4893343 -0.96032852 -1.2578353 6.7231035e-39
2.4514642 -0.95508933 -1.233284 6.4497284e-39
2.4970143 -0.94265968 -1.2562239 6.5394283e-39
2.5097573 -0.92222738 -1.2626259 1.1873038e-38
2.357259 -0.76210761 -1.2158329 9.3071063e-39
2.3322399 -0.73212123 -1.2135191 8.663176e-39
2.3516648 -0.71971738 -1.2144717 8.3869423e-39
2.3577034 -0.70249546 -1.2175989 8.1089204e-39
2.3917923 -0.69224238 -1.2192763 8.2915096e-39
2.3689559 -0.68378937 -1.2269319 7.8323336e-39
2.3893428 -0.67207241 -1.2281593 7.9252354e-39
2.3710253 -0.64868146 -1.2192359 1.0213225e-38
2.3892088 -0.65365416 -1.2285823 1.0212857e-38
2.4167266 -1.0182985 -1.2051098 1.1149908e-38
2.4167073 -0.99885619 -1.2051098 8.2000259e-39
2.4329011 -0.97619259 -1.2132053 6.9996764e-39
2.4540782 -0.96495831 -1.223762 6.540122e-39
2.4758584 -0.96254009 -1.2237192 6.8141963e-39
2.4374955 -0.95742249 -1.2047609 6.9074556e-39
2.45753 -0.94521165 -1.2110661 6.5397702e-39
2.475841 -0.94512999 -1.2237192 6.7230993e-39
2.4968035 -0.93357605 -1.2304251 6.8156551e-39
2.5116203 -0.92045307 -1.2359036 1.1504967e-38
2.3791599 -0.78590524 -1.189991 1.4283428e-38
2.4008055 -0.7983582 -1.1867052 1.5292528e-38
2.3369434 -0.77102023 -1.1964618 1.4195212e-38
2.3680871 -0.76256269 -1.1924868 9.7680788e-39
2.3385611 -0.7301501 -1.190397 9.0319684e-39
2.357687 -0.72731215 -1.1924771 8.5731454e-39
2.3418529 -0.704997 -1.1782675 8.1107127e-39
2.3614054 -0.69875669 -1.1896077 8.2936578e-39
2.3956096 -0.69223857 -1.2053173 8.0178178e-39
2.3799028 -0.68696988 -1.1869127 8.2933271e-39
2.3981352 -0.67294067 -1.1960113 8.1103484e-39
2.4176493 -0.65861654 -1.2004215 1.113121e-38
2.395571 -0.65364778 -1.2053173 1.0856764e-38
2.4035721 -1.0202527 -1.1773993 1.2531736e-38
2.3878005 -1.0077015 -1.159207 1.0690363e-38
2.4054642 -1.0033674 -1.1704197 8.6624417e-39
2.4243951 -0.99398804 -1.1769794 6.9092814e-39
2.4386089 -0.97538769 -1.1839068 6.4500914e-39
2.443167 -0.94468397 -1.1839763 6.6316043e-39
2.4644494 -0.92052585 -1.1856743 7.0003827e-39
2.4830277 -0.915277 -1.1973295 8.7412858e-39
2.3837869 -0.78270918 -1.1730598 1.2904469e-38
2.4216413 -0.80442911 -1.1863562 1.6304873e-38
2.3506074 -0.75214422 -1.1464275 8.9404874e-39
2.3663287 -0.76404035 -1.1610126 9.493294e-39
2.3487906 -0.73223573 -1.1529976 8.6638963e-39
2.3667049 -0.72286928 -1.1594852 9.1245171e-39
2.3455894 -0.70970881 -1.1646217 8.5706245e-39
2.3692837 -0.70017999 -1.1594505 8.3865793e-39
2.3860269 -0.67738944 -1.1644843 8.2943823e-39
2.4049151 -0.66650212 -1.1711953 8.2947424e-39
2.4063845 -0.65122509 -1.1657667 1.1414969e-38
2.3953915 -1.0220555 -1.1315014 1.3454033e-38
2.388777 -1.0075512 -1.1387855 1.0688941e-38
2.4137261 -0.99451542 -1.1401752 7.7415855e-39
2.4303768 -0.99236178 -1.1551003 7.0940483e-39
2.4162533 -0.97682548 -1.1308693 7.461742e-39
2.431742 -0.96846271 -1.1500212 6.4493795e-39
2.4437273 -0.93884498 -1.1527443 6.5405073e-39
2.4512358 -0.91823083 -1.1543736 6.5408478e-39
2.4722588 -0.91805011 -1.1571085 7.0907664e-39
2.48893 -0.91278398 -1.175738 1.0310025e-38
2.5131044 -0.92018729 -1.170768 1.1506419e-38
2.3568552 -0.78043151 -1.1236845 1.6487857e-38
2.3556018 -0.77100158 -1.1282332 1.2442436e-38
2.3748186 -0.76086491 -1.1299554 9.1252276e-39
2.3559754 -0.7301327 -1.126717 8.4795022e-39
2.3742299 -0.72919571 -1.131992 8.6653298e-39
2.3582742 -0.7068668 -1.1182263 9.1216402e-39
2.3764174 -0.69841689 -1.1365159 8.5691825e-39
2.3827341 -0.67106891 -1.1351466 8.3851514e-39
2.4133854 -0.65362996 -1.1401752 8.6552461e-39
2.4021261 -1.0220487 -1.1068742 1.1242093e-38
2.4188466 -1.0250614 -1.1215632 1.0323387e-38
2.4015458 -1.0029007 -1.1089264 8.9404846e-39
2.4188223 -1.0009421 -1.1215632 8.0192528e-39
2.4041877 -0.97896236 -1.0991782 7.6475878e-39
2.4209719 -0.96924043 -1.1135867 6.7270608e-39
2.405417 -0.9454509 -1.0945606 6.5426373e-39
2.4213095 -0.94305336 -1.1122572 6.5412122e-39
2.4434068 -0.93217629 -1.1223968 6.6312666e-39
2.4554589 -0.91893208 -1.119979 6.5405017e-39
2.4805851 -0.91162533 -1.1266384 1.0033455e-38
2.4968028 -0.91277611 -1.1469492 1.2437325e-38
2.3618307 -0.78042656 -1.1054903 1.4830101e-38
2.4027286 -0.78269023 -1.1037959 1.1242077e-38
2.383369 -0.76017678 -1.1062684 8.9397657e-39
2.3647633 -0.72760892 -1.0945736 8.1096407e-39
2.3817484 -0.7291882 -1.1044987 8.2943935e-39
2.3635309 -0.703628 -1.0989922 8.4791379e-39
2.3817201 -0.70068556 -1.1044987 8.3858703e-39
2.3657093 -0.6785658 -1.0909348 8.4795036e-39
2.3890481 -0.66470015 -1.1078975 8.5698944e-39
2.4184752 -0.65362489 -1.1215632 8.0106138e-39
2.4105446 -1.0220404 -1.0760902 9.6794733e-39
2.4290309 -1.0298752 -1.0843393 9.0308824e-39
2.4046507 -1.0057399 -1.0786278 8.2904376e-39
2.4006097 -0.97717726 -1.0785571 7.925241e-39
2.4030464 -0.94303131 -1.0779463 7.0951287e-39
2.4042838 -0.92073888 -1.0733404 6.2635477e-39
2.4289215 -0.92053449 -1.0843393 5.9873223e-39
2.4570642 -0.91475087 -1.0951382 6.5347354e-39
2.4852662 -0.9056977 -1.1094989 1.1234494e-38
2.3918302 -0.78618371 -1.0678412 1.4836623e-38
2.3742416 -0.75212055 -1.0600045 7.6508108e-39
2.3892996 -0.76148379 -1.0770056 8.2029195e-39
2.3717301 -0.72854507 -1.0691017 7.3745938e-39
2.3867514 -0.71968228 -1.08617 7.9259711e-39
2.3724158 -0.70361912 -1.0665025 7.7419358e-39
2.3867323 -0.70068055 -1.08617 8.2940334e-39
2.3729243 -0.67903006 -1.064553 8.2021937e-39
2.3952498 -0.6670379 -1.0776473 8.5709748e-39
2.4181309 -1.031607 -1.0483845 1.1613742e-38
2.3807013 -0.99260962 -1.0372616 8.387685e-39
2.3964369 -1.0070755 -1.0518034 8.2007742e-39
2.3809283 -0.97091758 -1.0363518 6.9100171e-39
2.3951507 -0.97382355 -1.0563856 5.7121984e-39
2.3808963 -0.93885154 -1.0363518 5.5285134e-39
2.3953285 -0.94294548 -1.0556219 7.0954846e-39
2.3818746 -0.92187446 -1.0327129 5.618565e-39
2.4058008 -0.91349322 -1.0456527 6.542301e-39
2.4340003 -0.90927374 -1.0657272 6.4494005e-39
2.3817329 -0.78040665 -1.0327129 1.6580043e-38
2.3943365 -0.78618121 -1.0586767 1.5386186e-38
2.3767078 -0.76605052 -1.0366309 1.0413062e-38
2.394815 -0.7633785 -1.0568439 7.6518926e-39
2.3464558 -0.72240889 -1.0174433 7.650808e-39
2.3691404 -0.73283035 -1.0374283 7.0040204e-39
2.3464465 -0.71311718 -1.0174433 7.8348419e-39
2.367439 -0.70146191 -1.0366755 7.1873215e-39
2.3791463 -0.68138164 -1.0418102 7.3713428e-39
2.4049299 -0.66933572 -1.0479438 7.8283553e-39
2.4151433 -1.0276468 -1.0213844 1.1975308e-38
2.3785214 -1.0014797 -1.0092524 9.4010816e-39
2.3540597 -0.97327852 -0.99055541 8.6631718e-39
2.3677733 -0.97309673 -1.0124363 7.9241663e-39
2.3528111 -0.95005041 -0.99503672 7.1887466e-39
2.3742669 -0.93771505 -1.0101715 6.8185221e-39
2.387557 -0.91782671 -1.0119195 6.2657113e-39
2.418649 -0.91388172 -1.0157305 6.9100003e-39
2.4441814 -0.91087151 -1.0285032 7.4602734e-39
2.4653409 -0.91131765 -1.0269507 8.4668373e-39
2.5035038 -0.91555101 -1.0428454 1.1426836e-38
2.3854647 -0.7804029 -1.0190673 1.6027554e-38
2.353029 -0.75956929 -0.99354291 1.0506328e-38
2.367398 -0.7621519 -1.0130383 9.4943408e-39
2.3317935 -0.7328338 -0.98921156 7.6504646e-39
2.3489256 -0.74098992 -1.0084807 6.636677e-39
2.330796 -0.70886123 -0.99277109 7.2791472e-39
2.3513362 -0.70072323 -0.99951804 7.005091e-39
2.3684821 -0.69412416 -1.0088243 6.8188907e-39
2.3878536 -0.68137288 -1.0099701 6.9089087e-39
2.4107695 -0.67106289 -1.0171194 7.0018414e-39
2.3589835 -0.99495435 -0.97263008 8.5691349e-39
2.376699 -1.0086614 -0.97992873 1.0596667e-38
2.3425391 -0.9729439 -0.9644444 8.5699014e-39
2.3421707 -0.95251602 -0.96571565 7.5553879e-39
2.3589292 -0.94075251 -0.97263002 6.5401458e-39
2.3753891 -0.93377095 -0.98444366 6.9996932e-39
2.3613663 -0.92681241 -0.96366745 5.8955163e-39
2.3900692 -0.91956538 -0.97872955 6.449025e-39
2.4176114 -0.9060815 -0.98664171 6.5412262e-39
2.4492648 -0.90443462 -1.0098912 8.4693512e-39
2.4157436 -0.89067 -0.98077917 7.8247441e-39
2.3612223 -0.78279048 -0.96366745 9.3002554e-39
2.3359842 -0.75849283 -0.96488339 9.7687893e-39
2.3612084 -0.76885289 -0.96366745 9.3067336e-39
2.3297272 -0.73112941 -0.96264267 8.5720538e-39
2.3301396 -0.70386553 -0.96330959 7.6490101e-39
2.3574576 -0.69452268 -0.97711146 7.3709757e-39
2.3751459 -0.69037288 -0.98444366 7.3695253e-39
2.3611248 -0.68522722 -0.96366745 7.1833516e-39
2.3918149 -0.67420202 -0.97745097 7.1847767e-39
2.3439007 -0.99470514 -0.93679905 4.9649056e-39
2.3362713 -0.97182322 -0.93276948 7.9263271e-39
2.3466558 -0.94214088 -0.93790364 7.0947531e-39
2.3500454 -0.91791177 -0.93679416 5.9902076e-39
2.3650334 -0.91751695 -0.95022351 6.0798641e-39
2.397275 -0.90869528 -0.94933963 5.9876797e-39
2.4195123 -0.90016705 -0.96703261 6.4461719e-39
2.4049377 -0.88412666 -0.94823939 7.5510313e-39
2.3661261 -0.78477681 -0.94574207 8.4762414e-39
2.3876052 -0.80269814 -0.93929416 1.0225076e-38
2.3661053 -0.76420218 -0.94574213 8.4802281e-39
2.341774 -0.73338604 -0.93603784 9.2159995e-39
2.3352346 -0.70052588 -0.93432707 7.8337769e-39
2.3452101 -0.68177897 -0.93086642 7.094393e-39
2.3660219 -0.68057644 -0.94574213 7.093307e-39
2.3934786 -0.67569029 -0.95336616 7.3688107e-39
2.429703 -0.6706804 -0.9542014 8.1971112e-39
2.3230593 -0.98887646 -0.89925778 3.9503753e-39
2.3234396 -0.96917331 -0.89779586 7.5560998e-39
2.3395128 -0.97010767 -0.9072625 7.4642447e-39
2.342731 -0.93898118 -0.90778661 6.8188865e-39
2.354671 -0.91662455 -0.91012669 6.2660686e-39
2.3756418 -0.90511733 -0.9113853 5.9876755e-39
2.3914123 -0.90567046 -0.9257493 6.1684836e-39
2.4072361 -0.8871665 -0.92184019 6.6315945e-39
2.3590398 -0.78643668 -0.90342313 7.6432045e-39
2.371845 -0.78432852 -0.9248293 9.6751237e-39
2.3913093 -0.80269444 -0.9257493 1.0039223e-38
2.3452125 -0.75816172 -0.905141 8.0174381e-39
2.3710124 -0.76884311 -0.92781687 7.8334266e-39
2.3251944 -0.72516042 -0.8904863 9.1241388e-39
2.3389866 -0.73173964 -0.90831429 8.5713391e-39
2.3251717 -0.70242649 -0.8904863 8.7546598e-39
2.3384402 -0.70295268 -0.91020757 8.202921e-39
2.3441458 -0.67781848 -0.90631056 7.0025519e-39
2.3749983 -0.66972709 -0.91287911 7.3695225e-39
2.4063637 -0.66553432 -0.91821635 7.094023e-39
2.4400644 -0.66759157 -0.9365201 8.474061e-39
2.4668379 -0.66322428 -0.94474918 1.1335665e-38
2.2973285 -0.97490221 -0.86061358 6.3561315e-39
2.3264723 -0.96910053 -0.87154126 7.8341258e-39
2.3495693 -0.9594115 -0.87044907 7.3695505e-39
2.3308122 -0.94567418 -0.87075043 7.1869529e-39
2.3456872 -0.94292802 -0.88458544 6.9118052e-39
2.3313913 -0.92521298 -0.86855751 6.3589887e-39
2.3532436 -0.91208863 -0.87783724 6.1727828e-39
2.3640263 -0.89123243 -0.87192404 5.6206922e-39
2.3833849 -0.88652623 -0.88300365 5.9873209e-39
2.416605 -0.88210809 -0.89656448 5.895833e-39
2.4191349 -0.86525011 -0.89625567 3.4126648e-39
2.3857651 -0.81528711 -0.87404096 8.9397587e-39
2.361717 -0.78916335 -0.88123637 7.1909298e-39
2.3857558 -0.80599535 -0.87404096 1.0039957e-38
2.3472571 -0.76133657 -0.87817991 7.8341258e-39
2.3312004 -0.73424792 -0.86855751 7.6508052e-39
2.3445127 -0.73500532 -0.88811952 8.6617313e-39
2.3299694 -0.70242167 -0.8729434 8.663532e-39
2.3299465 -0.67968774 -0.87294328 7.6479325e-39
2.3530207 -0.66842937 -0.87537384 7.5539194e-39
2.4176834 -0.65776515 -0.90080422 6.9103436e-39
2.3831558 -0.65732998 -0.88300365 7.3691764e-39
2.4086406 -0.64825612 -0.88581842 8.6451665e-39
2.4343023 -0.65312839 -0.91204607 9.7497078e-39
2.3020761 -0.99282777 -0.8433184 1.3274067e-38
2.3364685 -1.0010434 -0.83662093 1.2261696e-38
2.3568637 -1.0052024 -0.84394342 1.0692196e-38
2.3266258 -0.97110009 -0.84272683 8.0181597e-39
2.3318777 -0.94253701 -0.84202921 6.819255e-39
2.3376005 -0.91997969 -0.8390094 6.5415667e-39
2.3562834 -0.90811068 -0.84571046 6.1724086e-39
2.3662353 -0.88623971 -0.84645998 5.8043478e-39
2.3907256 -0.87412989 -0.8561157 5.5281351e-39
2.4170191 -0.87378156 -0.86800951 5.7118018e-39
2.4265981 -0.86524266 -0.8689642 4.3328303e-39
2.3736644 -0.80948627 -0.85002953 9.7651992e-39
2.390667 -0.81528223 -0.8561157 9.1230598e-39
2.3675687 -0.79067409 -0.84950525 1.0700806e-38
2.3906577 -0.80599046 -0.8561157 1.327651e-38
2.3391416 -0.75970209 -0.83961159 7.4667852e-39
2.355422 -0.77163303 -0.84836102 7.3731603e-39
2.3267195 -0.73332083 -0.83769703 7.6497374e-39
2.30651 -0.69697356 -0.82602316 8.0113284e-39
2.3279922 -0.70309776 -0.84226596 8.3862122e-39
2.3303246 -0.6790027 -0.83743924 8.1114232e-39
2.3589551 -0.66724485 -0.84870756 7.554641e-39
2.3619692 -0.6537236 -0.84104735 7.4606532e-39
2.3892789 -0.65267795 -0.86059701 6.8163599e-39
2.4059761 -0.65289611 -0.87156987 6.2668057e-39
2.3150828 -0.99281472 -0.79575652 1.0235174e-38
2.344662 -1.0024952 -0.82031429 1.0413811e-38
2.3145566 -0.97360426 -0.79760963 8.0188716e-39
2.3001046 -0.95029396 -0.78592545 7.374584e-39
2.3126688 -0.94350892 -0.8044042 7.3720659e-39
2.315002 -0.91212851 -0.79575652 6.5426541e-39
2.3309891 -0.9078033 -0.81147492 6.4490081e-39
2.3406043 -0.88985109 -0.8074432 5.8047177e-39
2.369669 -0.87904632 -0.81940281 5.5281323e-39
2.3956246 -0.87102771 -0.83819038 5.4366751e-39
2.4148343 -0.86820114 -0.83996522 5.3426858e-39
2.3822372 -0.86483192 -0.8188833 5.527433e-39
2.3996942 -0.85553741 -0.82325268 4.6076487e-39
2.41359 -0.85884094 -0.84448016 4.9753228e-39
2.3785315 -0.80948144 -0.8322317 1.0502759e-38
2.3419812 -0.7850886 -0.81226188 9.9589567e-39
2.3651187 -0.80368203 -0.81302017 1.0778617e-38
2.3160231 -0.75075495 -0.79143274 7.5596927e-39
2.3322082 -0.76580882 -0.80649906 7.1884103e-39
2.2998734 -0.71882248 -0.78592545 7.2831156e-39
2.3133011 -0.73154664 -0.80131572 7.558255e-39
2.3273628 -0.73491967 -0.81435555 7.9259627e-39
2.313215 -0.70144945 -0.80152166 7.4649818e-39
2.3273208 -0.69279128 -0.81435555 7.5553739e-39
2.2998288 -0.67430872 -0.78592545 7.5560872e-39
2.3135865 -0.6790362 -0.80008036 7.9259543e-39
2.3379636 -0.6699279 -0.80947238 7.9248613e-39
2.3665411 -0.65124434 -0.81700861 7.8305049e-39
2.3566782 -1.0252172 -0.77645677 7.4653937e-39
2.3048549 -1.0037056 -0.76875061 1.5111114e-38
2.3210037 -1.001774 -0.7741375 1.143512e-38
2.3439925 -1.0062677 -0.78183138 9.5826142e-39
2.3063819 -0.96512556 -0.76302564 7.8341272e-39
2.3201902 -0.97637349 -0.77702004 7.9270473e-39
2.3057353 -0.94494665 -0.76531559 7.4657076e-39
2.3202641 -0.93773794 -0.77660829 7.1883921e-39
2.320914 -0.91212267 -0.7741375 6.8170858e-39
2.3346722 -0.90041709 -0.78823221 6.264261e-39
2.3224699 -0.89120239 -0.76837248 6.1731429e-39
2.3484375 -0.883618 -0.78332704 5.6199705e-39
2.3707438 -0.87145776 -0.79269916 5.5266903e-39
2.3843384 -0.855205 -0.79410559 4.7913001e-39
2.4029546 -0.84779102 -0.81130248 5.7060537e-39
2.3516717 -0.81606978 -0.79399979 8.9487607e-39
2.3852248 -0.83105272 -0.79077643 8.1060282e-39
2.3455002 -0.79650891 -0.78237629 7.7390533e-39
2.369951 -0.8036772 -0.79534972 7.9309654e-39
2.321101 -0.76099581 -0.77290213 7.1891236e-39
2.3357365 -0.77403069 -0.78387833 7.0962091e-39
2.3048153 -0.72950083 -0.76789188 8.0181583e-39
2.3048458 -0.70101196 -0.76767725 8.3862248e-39
2.3183432 -0.7059269 -0.78278512 8.1096393e-39
2.3045299 -0.6787554 -0.76875067 7.6493604e-39
2.3212612 -0.66782218 -0.77197564 7.9241368e-39
2.344172 -0.66358918 -0.78674614 7.2776968e-39
2.3526599 -0.64609802 -0.78123391 7.3684463e-39
2.3685825 -0.64338493 -0.79976732 7.2784073e-39
2.3958066 -1.0493321 -0.76993918 1.1976444e-38
2.359077 -1.0252148 -0.76768529 1.0234853e-38
2.3774331 -1.0372404 -0.76884407 1.0039946e-38
2.3285697 -0.99997348 -0.74646515 9.306735e-39
2.3419247 -1.0087402 -0.76210886 1.050711e-38
2.3121011 -0.96986794 -0.74212962 8.0192458e-39
2.3100369 -0.94064647 -0.74240983 7.7419274e-39
2.311811 -0.91467118 -0.74298835 7.1887536e-39
2.325635 -0.90315282 -0.75684232 6.4486788e-39
2.3129673 -0.89686453 -0.73869455 6.6344966e-39
2.3279862 -0.88970268 -0.74819469 5.8972847e-39
2.351747 -0.87767261 -0.75300658 5.0675058e-39
2.3549745 -0.85494769 -0.7528193 4.9756815e-39
2.383359 -0.84844542 -0.76923037 4.7909344e-39
2.3563077 -0.82257313 -0.74782521 5.6181881e-39
2.3772271 -0.83114886 -0.76884407 5.7960549e-39
2.3140259 -0.78112763 -0.73440087 5.716513e-39
2.3274157 -0.79198325 -0.74992418 6.8188921e-39
2.3098574 -0.76273698 -0.7424165 6.6341281e-39
2.3069937 -0.73198259 -0.74236006 7.7415602e-39
2.3085897 -0.70178431 -0.74110031 8.9390328e-39
2.3115733 -0.67684066 -0.74298835 8.6628019e-39
2.3277638 -0.66706854 -0.74819469 7.8323209e-39
2.3439629 -0.66569203 -0.7534011 7.8337531e-39
2.3301136 -0.65212429 -0.73954707 7.5549984e-39
2.3486216 -0.64429104 -0.75334376 7.5546495e-39
2.3300867 -0.62522888 -0.73954707 7.7292989e-39
2.3201137 -0.99775523 -0.71293229 1.1525935e-38
2.3363843 -1.0107237 -0.71792805 1.2076934e-38
2.3176823 -0.97251266 -0.71313697 8.0185213e-39
2.2902319 -0.93110132 -0.69306231 7.2813094e-39
2.3095915 -0.94265449 -0.71437985 7.464993e-39
2.2900586 -0.91237509 -0.69362676 6.7277839e-39
2.3060813 -0.90953016 -0.71236461 6.8178145e-39
2.3192704 -0.88738263 -0.70975399 6.0798767e-39
2.335072 -0.88073045 -0.72225183 5.4352136e-39
2.3223166 -0.85234135 -0.70434487 6.079504e-39
2.3340297 -0.85191494 -0.72595799 5.3433963e-39
2.3226767 -0.82118142 -0.70291364 4.9746208e-39
2.3359613 -0.82424909 -0.7187928 3.5020046e-39
2.3203738 -0.78824359 -0.71121484 7.1902011e-39
2.3338132 -0.804528 -0.72657567 4.8702128e-39
2.3036158 -0.75796735 -0.70793641 6.8181774e-39
2.3035893 -0.73144621 -0.70793641 7.7401197e-39
2.3127043 -0.70325649 -0.71075225 8.5698818e-39
2.320111 -0.67509782 -0.7117613 8.7539143e-39
2.3332787 -0.66407472 -0.72801691 8.201465e-39
2.3221207 -0.65648091 -0.70434481 8.5688028e-39
2.3367333 -0.6503247 -0.71533376 8.1085449e-39
2.3559368 -0.6408838 -0.72089756 8.0152464e-39
2.3348165 -0.62522417 -0.72225183 8.0073403e-39
2.2664087 -1.0928286 -0.65566659 5.2541448e-39
2.2892663 -1.0868994 -0.66683447 1.0220063e-38
2.3190956 -1.0844309 -0.68474722 1.3642777e-38
2.3423681 -1.0824388 -0.69630903 1.6036999e-38
2.3610473 -1.0809414 -0.69244659 1.5295132e-38
2.2969389 -1.0773944 -0.66907221 1.2253374e-38
2.3208399 -1.0755576 -0.67833674 1.3259247e-38
2.3288031 -0.99834007 -0.68115878 1.0695083e-38
2.3422964 -1.0107177 -0.69630903 1.171573e-38
2.2979825 -0.96327949 -0.66483867 7.2841918e-39
2.3166535 -0.97537827 -0.68253857 7.6511779e-39
2.2925699 -0.94007754 -0.67241639 7.1891179e-39
2.2927148 -0.91216624 -0.67043597 6.45119e-39
2.3095913 -0.90382749 -0.68661821 5.8047472e-39
2.2967501 -0.88866782 -0.66907221 5.0686002e-39
2.3161674 -0.88083196 -0.6839698 5.252267e-39
2.2971022 -0.8550185 -0.66766107 5.4355891e-39
2.313731 -0.85108238 -0.68417645 5.988051e-39
2.297842 -0.82283187 -0.66483867 4.8845579e-39
2.322521 -0.82293105 -0.68200684 5.0689716e-39
2.3220031 -0.79236829 -0.68110442 6.2660728e-39
2.2977762 -0.75699699 -0.66483867 6.5444674e-39
2.3111987 -0.76237988 -0.68022281 7.1894781e-39
2.2977543 -0.73505205 -0.66483867 7.0043483e-39
2.310585 -0.73143929 -0.68235463 7.5589711e-39
2.2977324 -0.71310711 -0.66483867 7.2795031e-39
2.3114319 -0.70381224 -0.6791569 8.1099784e-39
2.3225725 -0.67712057 -0.68128622 8.2021727e-39
2.3279917 -0.65647507 -0.68287623 8.3861842e-39
2.3438263 -0.64852452 -0.68939096 8.4773246e-39
2.3698468 -0.64318544 -0.69278699 8.6617005e-39
2.4148693 -0.64338261 -0.69874769 8.0181429e-39
2.3974485 -0.51512104 -0.69374472 1.2624316e-38
2.3793354 -0.49473551 -0.69166559 1.2983744e-38
2.2555702 -1.0897108 -0.63463223 8.9311141e-39
2.2956617 -1.0955034 -0.6495465 1.2981587e-38
2.3266404 -1.0923706 -0.65360838 1.1319881e-38
2.2961628 -1.0562869 -0.64150405 1.0854625e-38
2.31986 -1.0673641 -0.64966673 1.1047272e-38
2.3326483 -0.99806207 -0.65635657 9.9567805e-39
2.2974777 -0.9669596 -0.64647877 7.6508164e-39
2.3166621 -0.97896349 -0.66103643 7.9281277e-39
2.2422593 -0.92855722 -0.62206143 6.5502057e-39
2.2565539 -0.93924201 -0.63048542 7.0072392e-39
2.2856624 -0.9481138 -0.64917767 7.3731561e-39
2.2318542 -0.91039026 -0.62213391 5.8990896e-39
2.2628882 -0.91145343 -0.64188027 5.99273e-39
2.2393243 -0.88469601 -0.62125945 3.6846148e-39
2.260612 -0.88403767 -0.6397059 4.5165181e-39
2.284826 -0.87836051 -0.65198117 4.6065557e-39
2.2421825 -0.85170221 -0.62206143 3.7764139e-39
2.260957 -0.85390466 -0.64006835 4.4235812e-39
2.2421539 -0.82323736 -0.62206143 3.6852944e-39
2.26598 -0.8259384 -0.63892889 4.423214e-39
2.284765 -0.81732571 -0.65198117 4.5157768e-39
2.2670624 -0.79666376 -0.63197351 4.0512155e-39
2.2904456 -0.78768122 -0.64842951 4.6980227e-39
2.2921405 -0.76379895 -0.64503425 4.6065557e-39
2.2729042 -0.73788977 -0.63061577 3.5927583e-39
2.2952793 -0.73381829 -0.64692545 5.0671597e-39
2.299793 -0.71230257 -0.64719176 5.5277791e-39
2.3187158 -0.70048982 -0.65250921 6.079511e-39
2.3214161 -0.67474574 -0.65328175 7.0014659e-39
2.3355029 -0.65290642 -0.65539646 7.4628013e-39
2.3513927 -0.64762044 -0.66171861 7.73974e-39
2.3742051 -0.64406627 -0.67002767 8.1074477e-39
2.4139533 -0.64184231 -0.67934591 7.8340936e-39
2.4047198 -0.53801298 -0.66723907 1.2992712e-38
2.4069145 -0.51947945 -0.67620474 1.3078104e-38
2.3825369 -0.49776345 -0.67997026 1.1692653e-38
2.4030647 -0.493743 -0.67312926 1.1965999e-38
2.3097179 -1.1212716 -0.62250328 6.5246643e-39
2.2491794 -1.0907999 -0.59735042 6.9838389e-39
2.2783895 -1.0924624 -0.60511488 1.2706065e-38
2.3005345 -1.0871376 -0.61552215 1.049125e-38
2.3292415 -1.0964544 -0.63694948 8.6455225e-39
2.301291 -1.0632447 -0.6145066 1.2894802e-38
2.3588595 -1.0196663 -0.63577574 1.060107e-38
2.3311658 -0.99982017 -0.62096643 6.9139688e-39
2.2811174 -0.95863217 -0.60138983 5.4373744e-39
2.2952719 -0.97426194 -0.61413413 5.804394e-39
2.2456782 -0.93417424 -0.59820646 5.4388289e-39
2.2611027 -0.95213473 -0.61389816 6.6366588e-39
2.2330799 -0.91331077 -0.59870785 4.7938266e-39
2.2333562 -0.8843863 -0.59759182 3.9611821e-39
2.2221696 -0.85335708 -0.58151847 3.778932e-39
2.2326541 -0.85384315 -0.60004699 3.5019976e-39
2.2441633 -0.82472217 -0.60050362 3.6853197e-39
2.2699776 -0.79540831 -0.60740846 3.317249e-39
2.29163 -0.78244174 -0.62674981 3.5963821e-39
2.2803583 -0.77034563 -0.60347742 3.4101719e-39
2.2947497 -0.76579261 -0.61528099 3.8711318e-39
2.2734547 -0.73187774 -0.6083616 3.778223e-39
2.2927189 -0.72140568 -0.62254459 3.7792992e-39
2.2808709 -0.71191114 -0.60138983 3.5009046e-39
2.3019536 -0.70194697 -0.61903369 3.6870923e-39
2.3078961 -0.67939258 -0.61407059 4.0526476e-39
2.3301103 -0.66861236 -0.62504816 3.9622387e-39
2.3424706 -0.65349299 -0.62992048 4.2377704e-39
2.3596697 -0.64761215 -0.63145196 4.421077e-39
2.3832047 -0.64031243 -0.63540184 4.6065375e-39
2.3607402 -0.5355469 -0.62712812 1.3086376e-38
2.3889081 -0.5291208 -0.63728958 1.2896577e-38
2.4122655 -0.51704389 -0.64715123 1.3536915e-38
2.4107144 -0.49220875 -0.64515108 1.3994664e-38
2.4119041 -0.47388828 -0.64073342 1.1965975e-38
2.284734 -1.0886317 -0.58105862 1.4272665e-38
2.3049629 -1.08179 -0.5790906 1.3810627e-38
2.2846551 -1.0711681 -0.58886445 1.1594338e-38
2.3051906 -1.0604055 -0.58424455 1.2703557e-38
2.3923352 -1.0305099 -0.61196917 1.051893e-38
2.3441725 -1.0023673 -0.59274822 6.6348666e-39
2.2856843 -0.95862764 -0.58468932 5.4380764e-39
2.3033218 -0.97425389 -0.5846976 4.0566245e-39
2.2569053 -0.93281227 -0.56852096 5.8965701e-39
2.2713034 -0.94639242 -0.57657683 5.8058051e-39
2.2303717 -0.90252012 -0.55170554 4.7938168e-39
2.2418582 -0.91407329 -0.56660992 5.0693401e-39
2.229316 -0.88453865 -0.55549991 3.9626324e-39
2.2415934 -0.88167852 -0.56746018 3.6860343e-39
2.2422786 -0.85468191 -0.56485623 3.5927471e-39
2.2487934 -0.82311028 -0.56650668 3.5945492e-39
2.2601519 -0.80044746 -0.55616546 3.5009256e-39
2.2789078 -0.79573697 -0.57854545 3.5001829e-39
2.2866311 -0.7638467 -0.58051413 3.5941876e-39
2.2745316 -0.72967148 -0.57745802 3.501992e-39
2.2849522 -0.7039876 -0.5809204 3.5938163e-39
2.3131039 -0.69318712 -0.57822746 3.7767614e-39
2.31095 -0.68227118 -0.59212893 3.7782174e-39
2.3459013 -0.67468691 -0.59328628 4.0533693e-39
2.3679626 -0.66329288 -0.60118532 4.237406e-39
2.3702984 -0.63415384 -0.5925377 4.5164858e-39
2.3863101 -0.6493094 -0.60701895 4.4225148e-39
2.3843188 -0.53926635 -0.60536873 1.3087454e-38
2.4017594 -0.53048116 -0.60979825 1.2895868e-38
2.4191959 -0.51706207 -0.61422777 1.344292e-38
2.4230514 -0.49297437 -0.61520511 1.4728266e-38
2.3993006 -0.47046596 -0.61856979 1.1597907e-38
2.429096 -0.4755885 -0.61199313 1.3440389e-38
2.3227549 -1.1131116 -0.5444724 4.2302034e-39
2.2915232 -1.0884751 -0.56381363 1.5192476e-38
2.3126023 -1.0912335 -0.55552191 1.3348545e-38
2.3151441 -1.0617329 -0.55578512 1.3993201e-38
2.3091419 -1.0440023 -0.56367147 1.2063221e-38
2.3537459 -1.0028013 -0.56848407 7.4678698e-39
2.3801341 -1.01068 -0.55794728 7.100888e-39
2.2959604 -0.95861739 -0.54711306 5.5274316e-39
2.3213594 -0.97861999 -0.55919325 4.2399424e-39
2.2647936 -0.93707412 -0.53969145 5.7121718e-39
2.2758451 -0.95212001 -0.55998951 5.896563e-39
2.2355604 -0.90307689 -0.53273362 4.7934693e-39
2.2501774 -0.92042828 -0.53621256 5.4366793e-39
2.2352636 -0.88390046 -0.53375 3.7778698e-39
2.2506902 -0.8737635 -0.53416657 3.3168889e-39
2.2501116 -0.8546741 -0.53621256 3.3193958e-39
2.254946 -0.82248205 -0.53737223 3.6853141e-39
2.264657 -0.80044299 -0.53969145 3.3168721e-39
2.2817414 -0.79154295 -0.54997265 3.4072796e-39
2.2657573 -0.77482349 -0.53557295 3.4083628e-39
2.2862391 -0.76192576 -0.54959124 3.3176049e-39
2.2827075 -0.7310217 -0.54808652 3.3190455e-39
2.2934303 -0.71189868 -0.55546337 3.4112243e-39
2.3188856 -0.70455164 -0.55712771 4.236676e-39
2.3449478 -0.69825351 -0.5565775 4.2366858e-39
2.3545461 -0.67718863 -0.56571001 4.2370361e-39
2.359695 -0.65644336 -0.56694591 3.9622625e-39
2.375437 -0.64909059 -0.57380122 4.0537196e-39
2.3981998 -0.64312774 -0.57773429 3.8696899e-39
2.4288814 -0.53798878 -0.57888693 1.2989486e-38
2.4079926 -0.52683747 -0.58699238 1.3813136e-38
2.4268465 -0.51661831 -0.58624959 1.51914e-38
2.432683 -0.49465281 -0.59041595 1.5281418e-38
2.4614162 -0.48535433 -0.59619892 1.4361256e-38
2.4439063 -0.47729111 -0.59196055 1.3996421e-38
2.3172615 -1.1137483 -0.53423488 1.7542561e-39
2.3292751 -1.095409 -0.52883726 1.0310059e-38
2.3529134 -1.0850116 -0.52886391 1.2702845e-38
2.3328199 -1.0685805 -0.53783244 1.3349993e-38
2.3522015 -1.0726359 -0.53142214 1.2057802e-38
2.3028197 -0.96726727 -0.52206224 5.6218343e-39
2.2690191 -0.93555611 -0.51001883 5.1626035e-39
2.2871854 -0.95210862 -0.51852137 4.6090584e-39
2.2429018 -0.90644139 -0.50590205 4.9775046e-39
2.2602508 -0.92253929 -0.49938503 5.3477305e-39
2.243696 -0.88564813 -0.50292069 3.5931254e-39
2.2568471 -0.87587845 -0.51166087 3.4087216e-39
2.2466285 -0.85333264 -0.49207962 3.1342927e-39
2.2568259 -0.85466743 -0.51166087 3.6852973e-39
2.246043 -0.82383037 -0.49411231 3.1350326e-39
2.2584388 -0.82243568 -0.51001948 3.4105208e-39
2.2657843 -0.80186045 -0.51120436 3.3165063e-39
2.2867398 -0.78981858 -0.51955813 3.5002025e-39
2.274755 -0.76200539 -0.50262499 3.2264841e-39
2.2879274 -0.76122123 -0.5237745 3.3183266e-39
2.2724724 -0.73211956 -0.51086193 3.4098062e-39
2.2872467 -0.72963089 -0.51748472 3.5934716e-39
2.2999578 -0.71107984 -0.52148151 2.9499028e-39
2.3280735 -0.70037955 -0.52784795 3.5001717e-39
2.3513584 -0.69603705 -0.53312755 4.14303e-39
2.3596365 -0.67628288 -0.53500879 3.9618827e-39
2.3868792 -0.66103268 -0.53200442 4.5139467e-39
2.3667402 -0.65643632 -0.54118359 4.0544273e-39
2.383323 -0.65207112 -0.54497588 4.3299338e-39
2.4041405 -0.65033358 -0.54693979 4.4217805e-39
2.4374454 -0.54169399 -0.55895662 1.280726e-38
2.437834 -0.52027708 -0.55745751 1.4272306e-38
2.4524515 -0.50495958 -0.56081426 1.4547085e-38
2.4671464 -0.49618897 -0.57528609 1.4177587e-38
2.4897857 -0.50302875 -0.56455314 1.3438958e-38
2.3421259 -1.1124612 -0.50396413 2.9402156e-39
2.3611016 -1.1115247 -0.49901852 9.3062936e-39
2.3388791 -1.0913267 -0.50228053 1.1231652e-38
2.3432486 -1.0773481 -0.49973059 1.1969212e-38
2.3685794 -1.0741459 -0.50836581 9.8451096e-39
2.3908386 -1.0734253 -0.51903301 1.1331719e-38
2.3110354 -0.96206492 -0.4920013 6.5459023e-39
2.3251719 -0.97423202 -0.50479835 7.2896205e-39
2.2816877 -0.9370572 -0.47791395 5.8040087e-39
2.2962534 -0.94780046 -0.48534682 5.8972917e-39
2.2466469 -0.90443081 -0.4770363 4.9767844e-39
2.265846 -0.92253375 -0.47892523 5.7132606e-39
2.2456017 -0.88363302 -0.47388911 3.5938401e-39
2.2510757 -0.85332823 -0.47581807 3.5934562e-39
2.2499342 -0.82382649 -0.4798834 3.1335738e-39
2.2684801 -0.81904101 -0.47703853 3.4998256e-39
2.2776527 -0.79642141 -0.4795174 3.6838511e-39
2.2932613 -0.79088688 -0.49571386 3.5005613e-39
2.2807088 -0.76260936 -0.48085573 3.5005487e-39
2.2956183 -0.76637971 -0.48700556 3.6849483e-39
2.2792301 -0.73211277 -0.48615095 3.5916597e-39
2.2951653 -0.73185521 -0.48853675 3.4090649e-39
2.3051631 -0.70657319 -0.49048203 3.2257512e-39
2.3376451 -0.69832474 -0.49861637 3.1332025e-39
2.3583541 -0.69603002 -0.50754577 3.0410054e-39
2.366657 -0.67627573 -0.50933671 3.5012647e-39
2.4164748 -0.66579026 -0.52236396 4.3299394e-39
2.4501848 -0.66473448 -0.52419472 4.6954891e-39
2.4463241 -0.5432117 -0.52649719 1.2348444e-38
2.4505746 -0.52387846 -0.528754 1.2152521e-38
2.4798312 -0.51785707 -0.52897906 1.2890441e-38
2.4585354 -0.5049535 -0.53856695 1.2796453e-38
2.4003429 -1.1182414 -0.48444259 1.1884956e-38
2.3344765 -1.078854 -0.47115657 1.1506453e-38
2.3787749 -1.0932739 -0.46654993 1.1510773e-38
2.3501949 -1.0773412 -0.47432935 1.1970669e-38
2.3763418 -1.0671624 -0.47750068 9.5721437e-39
2.4014628 -1.0554844 -0.48011878 1.0499115e-38
2.4038184 -1.0465168 -0.47147116 1.2717917e-38
2.3165212 -0.96725357 -0.47196066 1.0332408e-38
2.2521715 -0.93433267 -0.44177923 9.3107048e-39
2.2777028 -0.93830347 -0.46405801 6.2635729e-39
2.2507174 -0.91348106 -0.4426879 5.5299497e-39
2.2481773 -0.88206017 -0.44608456 3.6849399e-39
2.2588584 -0.85332042 -0.44736034 3.3179651e-39
2.2599442 -0.82803124 -0.44329479 3.2250324e-39
2.2729049 -0.81986517 -0.45273679 3.3157903e-39
2.2781577 -0.79259908 -0.45119947 3.1328521e-39
2.2821209 -0.76348263 -0.45200124 3.6845868e-39
2.3006046 -0.76293546 -0.46875957 2.951e-39
2.2830007 -0.73551798 -0.45050558 3.7771201e-39
2.3028331 -0.7233817 -0.46046594 3.593459e-39
2.3101678 -0.70176315 -0.46113613 3.501615e-39
2.332943 -0.69520766 -0.47536179 3.7742531e-39
2.3196604 -0.68157327 -0.45943525 3.5016347e-39
2.3385823 -0.68108827 -0.4698543 3.3161532e-39
2.3716731 -0.67696959 -0.48025542 3.3161476e-39
2.3975298 -0.6699872 -0.49309018 4.4192539e-39
2.4292605 -0.67152971 -0.49269152 4.604734e-39
2.4566543 -0.66780329 -0.5005492 4.8816642e-39
2.470768 -0.56952113 -0.49407229 1.3456222e-38
2.4526021 -0.54755765 -0.49976307 1.1423964e-38
2.4666719 -0.52954727 -0.50890386 1.1600796e-38
2.4876051 -0.53023821 -0.50059736 1.2614574e-38
2.4074376 -1.1182343 -0.45849976 1.161558e-38
2.3834498 -1.0932485 -0.44945535 1.1969959e-38
2.3600204 -1.0619699 -0.43834424 1.1140557e-38
2.3820207 -1.0578008 -0.45162269 9.0207706e-39
2.3925581 -1.0332938 -0.44815305 9.4763748e-39
2.4079504 -1.0397888 -0.45633784 1.1517575e-38
2.3470218 -0.9742102 -0.4248991 1.2351357e-38
2.2878799 -0.94209898 -0.42279515 8.3908869e-39
2.2614288 -0.90974128 -0.41794872 5.0686086e-39
2.2625673 -0.88418186 -0.41736749 3.5934744e-39
2.26455 -0.8533659 -0.4172157 3.869334e-39
2.2654746 -0.82490969 -0.41699579 3.1332025e-39
2.282521 -0.81221968 -0.41754597 3.5916737e-39
2.2658472 -0.80133224 -0.42161262 3.2246862e-39
2.2828574 -0.7889694 -0.42191675 3.2236283e-39
2.2845376 -0.76058859 -0.42135605 3.6849455e-39
2.2905395 -0.73346531 -0.42412272 3.5012759e-39
2.3111458 -0.71993405 -0.43005592 3.6849385e-39
2.293855 -0.71501929 -0.43261045 2.678341e-39
2.3176517 -0.70049822 -0.43273255 3.6852902e-39
2.3265111 -0.68156642 -0.43438444 3.6852902e-39
2.3469038 -0.67294049 -0.4377085 3.8689668e-39
2.3830333 -0.66740346 -0.44942018 3.5916709e-39
2.4081671 -0.66549397 -0.45417595 3.4083614e-39
2.4343665 -0.66733378 -0.46831751 4.0508484e-39
2.4555874 -0.666197 -0.48169956 4.3320567e-39
2.4272997 -0.65658128 -0.4486286 2.2159671e-39
2.4761255 -0.57320607 -0.47449461 1.2074367e-38
2.4637952 -0.54841256 -0.47400108 1.0773546e-38
2.4755981 -0.53261364 -0.4762744 1.3163802e-38
2.4933212 -0.52713525 -0.4796845 1.3442907e-38
2.4145322 -1.1182272 -0.43255693 1.2347732e-38
2.3629389 -1.0861064 -0.42776039 1.2162978e-38
2.3885417 -1.0909661 -0.4170166 1.1975344e-38
2.365808 -1.0608668 -0.41717654 1.1694078e-38
2.3878891 -1.0548377 -0.41843483 1.0312579e-38
2.3939955 -1.0397414 -0.4214375 7.0904133e-39
2.4156301 -1.0336977 -0.42823312 9.2073058e-39
2.4348183 -1.0312161 -0.42250523 1.0500905e-38
2.3866382 -0.99657434 -0.40521869 1.262541e-38
2.3347938 -0.97156376 -0.40515849 1.2441371e-38
2.3493218 -0.97420788 -0.41648865 1.2350631e-38
2.2980146 -0.94418961 -0.39386666 9.0373311e-39
2.2692206 -0.91115379 -0.38762322 4.9756899e-39
2.2859883 -0.92251354 -0.40527013 5.2540719e-39
2.2634432 -0.88081062 -0.38736883 3.5931072e-39
2.2459199 -0.85425997 -0.37715414 3.7785803e-39
2.2646348 -0.84836465 -0.38761798 3.9611681e-39
2.2728546 -0.82633513 -0.39056432 3.3165175e-39
2.2917135 -0.81591934 -0.39342368 3.3157917e-39
2.2776988 -0.79429591 -0.37824833 3.5920408e-39
2.288733 -0.78979045 -0.39474797 3.4994837e-39
2.2891843 -0.76130658 -0.39299428 3.8686151e-39
2.298439 -0.73456061 -0.39459446 3.5930974e-39
2.3175719 -0.71992767 -0.40655729 3.6856574e-39
2.3066165 -0.71215999 -0.38593414 3.6845812e-39
2.3213584 -0.70045501 -0.40366927 3.684584e-39
2.3311129 -0.68255174 -0.40239811 3.7771482e-39
2.3592415 -0.67564368 -0.4094522 3.6856504e-39
2.387635 -0.66809243 -0.42185545 3.9611555e-39
2.4176311 -0.66996706 -0.4195855 4.051556e-39
2.4498742 -0.67047423 -0.43436825 4.3281471e-39
2.4676683 -0.66618496 -0.43752345 3.2261156e-39
2.4878399 -0.60640687 -0.43177977 1.7607929e-38
2.4772034 -0.58403707 -0.44026515 1.1149539e-38
2.4763558 -0.55391014 -0.44372785 1.1877383e-38
2.4804652 -0.53260875 -0.45847654 1.3260671e-38
2.5006804 -0.53332245 -0.45279655 1.2798248e-38
2.4204443 -1.1182213 -0.41093791 1.2073331e-38
2.3727314 -1.0657873 -0.38513857 1.1879548e-38
2.3913624 -1.0569788 -0.38816425 1.1508967e-38
2.4023325 -1.0377547 -0.39094454 8.4726289e-39
2.4244087 -1.0285659 -0.39611343 6.2584806e-39
2.4371994 -1.0312138 -0.41379747 9.6639666e-39
2.3997393 -1.0045375 -0.38956392 1.1240967e-38
2.3318057 -0.96573979 -0.37562436 1.2625388e-38
2.3562307 -0.98292035 -0.39125735 1.2629358e-38
2.286732 -0.93337142 -0.34572512 7.7498531e-39
2.3014843 -0.93887323 -0.36288232 7.7476839e-39
2.2717993 -0.91206521 -0.35779387 4.9760557e-39
2.2558324 -0.89582801 -0.3410593 4.7012569e-39
2.2724094 -0.88274539 -0.35621271 3.8689781e-39
2.2700624 -0.85254282 -0.35583901 3.8707787e-39
2.2793136 -0.82654393 -0.35729808 3.4087048e-39
2.2827041 -0.79639828 -0.35995406 3.7749888e-39
2.2964771 -0.78038919 -0.36639661 3.7764279e-39
2.2970173 -0.76129872 -0.36435065 3.5012689e-39
2.2842977 -0.72263992 -0.35385591 3.7782005e-39
2.298254 -0.73291844 -0.36541069 3.5016136e-39
2.2865129 -0.71420825 -0.34572512 3.9625988e-39
2.3056734 -0.70292157 -0.3666032 3.5941764e-39
2.3260536 -0.69627422 -0.37545615 3.6849231e-39
2.3326504 -0.67811352 -0.3765398 3.7764027e-39
2.3673179 -0.67127609 -0.37990236 3.8700486e-39
2.3966072 -0.67105103 -0.38905722 4.1455411e-39
2.4235432 -0.66996115 -0.3979665 4.6047424e-39
2.4520133 -0.67150694 -0.40948963 4.4210462e-39
2.4749167 -0.66617769 -0.41101778 2.5821797e-39
2.4832051 -0.61179978 -0.40975469 1.6685964e-38
2.4748342 -0.58374101 -0.41101781 1.0310793e-38
2.4831278 -0.55824369 -0.41471669 1.2521678e-38
2.5113199 -0.55189532 -0.4139584 1.2890095e-38
2.5243948 -0.54044008 -0.43813452 1.2155732e-38
2.3972204 -1.0849674 -0.36684602 1.2072219e-38
2.3805676 -1.0670884 -0.3510977 1.2341604e-38
2.3983634 -1.0619813 -0.36258245 1.1969229e-38
2.4077399 -1.0359491 -0.36400402 9.7590461e-39
2.4321754 -1.0249721 -0.36769983 6.8113013e-39
2.4491017 -1.0266881 -0.37025854 5.702451e-39
2.4128814 -1.0035976 -0.3737286 9.9527293e-39
2.4333434 -1.0106267 -0.36337602 8.0984233e-39
2.3484907 -0.96722162 -0.35505685 1.2352764e-38
2.363122 -0.97419411 -0.36602598 1.2718682e-38
2.2911789 -0.93336701 -0.32946351 7.7508985e-39
2.3161397 -0.95204663 -0.33303162 1.0137184e-38
2.261986 -0.90746373 -0.3186003 4.883846e-39
2.2729919 -0.91431177 -0.33524278 5.2529873e-39
2.2619667 -0.88833785 -0.31860036 4.3303149e-39
2.2746103 -0.87664229 -0.32918712 3.9611695e-39
2.2645731 -0.86255687 -0.30897501 4.0548183e-39
2.2751372 -0.85152972 -0.32716858 4.0526603e-39
2.2777705 -0.82319874 -0.32754645 3.4090579e-39
2.2897899 -0.79415458 -0.32852092 3.5023451e-39
2.3026407 -0.7895745 -0.34389085 3.3186713e-39
2.2915683 -0.76688671 -0.32743078 3.9611541e-39
2.3044021 -0.76044297 -0.33734372 3.6860147e-39
2.2909725 -0.72684789 -0.32946351 3.8693396e-39
2.3066928 -0.73471868 -0.33404264 3.6856476e-39
2.2887363 -0.71420604 -0.3375943 3.6856406e-39
2.3122709 -0.7041586 -0.33679599 3.5945352e-39
2.3345566 -0.69411618 -0.34435508 3.685642e-39
2.3422313 -0.68029153 -0.34656751 3.685656e-39
2.3768971 -0.6749264 -0.35499692 3.6856518e-39
2.4149003 -0.67419368 -0.36514121 4.1444551e-39
2.4592011 -0.67604661 -0.38322294 4.3270583e-39
2.4826519 -0.66983378 -0.38274512 2.8577044e-39
2.49229 -0.63180071 -0.38148111 1.741777e-38
2.4900649 -0.61318636 -0.38575876 1.3823947e-38
2.4820826 -0.58373374 -0.38451216 1.0404774e-38
2.4665518 -0.55678773 -0.37296775 1.2890081e-38
2.4839191 -0.55551064 -0.38744178 1.3073052e-38
2.5318124 -0.54979414 -0.41104481 1.2612422e-38
2.3804047 -1.0693109 -0.33350334 1.2621799e-38
2.4125824 -1.0579201 -0.3333185 1.1875947e-38
2.4239471 -1.0320755 -0.33336771 9.6675651e-39
2.4380865 -1.0240698 -0.34608081 7.5513942e-39
2.4203782 -1.0062791 -0.33021194 5.7996829e-39
2.4368906 -1.0106232 -0.35040462 7.624144e-39
2.3438954 -0.96065009 -0.3111805 4.7826527e-39
2.3769307 -0.98289961 -0.31556332 5.153617e-39
2.2996302 -0.93504441 -0.29856646 5.3455375e-39
2.3203692 -0.95101488 -0.30808598 4.6043837e-39
2.2625329 -0.90340298 -0.29004747 4.7938196e-39
2.2818284 -0.9184882 -0.30294606 4.886353e-39
2.2603467 -0.88255173 -0.29265907 3.9633429e-39
2.2795782 -0.87663728 -0.31102023 4.0540882e-39
2.2595634 -0.85873806 -0.28936964 3.7793174e-39
2.2871213 -0.84721631 -0.30066162 3.6860231e-39
2.2921805 -0.82138669 -0.30012035 3.4097964e-39
2.2968202 -0.79357219 -0.30074373 3.7775097e-39
2.2977872 -0.76022458 -0.30087653 3.8686151e-39
2.2992318 -0.72744173 -0.29926336 3.7774985e-39
2.311763 -0.73583078 -0.31033686 3.7778516e-39
2.3001223 -0.70471162 -0.29592392 3.685663e-39
2.3168755 -0.70198762 -0.31047308 3.777137e-39
2.3424947 -0.69410825 -0.31532735 3.7778418e-39
2.3504837 -0.68352228 -0.31640401 4.0537042e-39
2.3748982 -0.6755473 -0.32187116 3.9622401e-39
2.4146249 -0.67477 -0.33392617 3.8696759e-39
2.4681723 -0.67831099 -0.35042536 4.052628e-39
2.4906263 -0.67074174 -0.35358891 2.5807476e-39
2.5277748 -0.66647708 -0.35420743 7.1674749e-39
2.4911988 -0.63944572 -0.35138011 1.566857e-38
2.4905667 -0.61120421 -0.35358891 9.7615768e-39
2.4905393 -0.58372527 -0.35358891 1.0864665e-38
2.4719431 -0.55109894 -0.35323188 1.2428021e-38
2.4909205 -0.56235248 -0.35211638 1.2244346e-38
2.3987937 -1.0509586 -0.29652062 1.1051616e-38
2.4195929 -1.0624135 -0.30643663 1.1051618e-38
2.3980315 -1.036618 -0.28914842 9.944536e-39
2.4183285 -1.0303982 -0.30557293 9.5746758e-39
2.4006705 -0.99828869 -0.28946471 6.7223538e-39
2.4154091 -1.0068595 -0.30004925 7.1837019e-39
2.3690512 -0.97585791 -0.27990443 5.6160049e-39
2.3792307 -0.98289734 -0.30715287 4.4185715e-39
2.2756071 -0.92907065 -0.26886967 4.8827712e-39
2.2928853 -0.93521845 -0.26257521 4.9756914e-39
2.324069 -0.95641303 -0.26614377 5.5252456e-39
2.2739792 -0.91217941 -0.26591501 4.884216e-39
2.292877 -0.92684782 -0.26257521 4.8863642e-39
2.2707975 -0.885207 -0.26418349 5.7132564e-39
2.2687182 -0.85538316 -0.26393718 7.9252439e-39
2.290585 -0.8431437 -0.2706494 8.2914956e-39
2.2799029 -0.83759487 -0.2528275 1.0870102e-38
2.2926719 -0.82257825 -0.26673451 8.2922131e-39
2.2975616 -0.79375231 -0.26828718 8.4769743e-39
2.3030918 -0.76562029 -0.2679604 8.9401048e-39
2.3193936 -0.75703412 -0.28251159 6.3636607e-39
2.3054924 -0.72954381 -0.26963925 8.6602627e-39
2.3182619 -0.74430871 -0.28660357 4.7920148e-39
2.3045506 -0.70369625 -0.27039698 6.7281118e-39
2.3304853 -0.69212031 -0.27962387 3.8696829e-39
2.3321142 -0.68082315 -0.2925815 4.1423209e-39
2.3586669 -0.67487478 -0.28644776 3.7771257e-39
2.3838377 -0.66589963 -0.29781216 3.6860119e-39
2.4313302 -0.6652745 -0.30502915 3.6849217e-39
2.4460049 -0.66545612 -0.3158142 3.7753167e-39
2.4765456 -0.66467881 -0.31975698 3.0366979e-39
2.4966621 -0.66615593 -0.33150089 1.4718833e-39
2.4336562 -0.64301527 -0.2964417 8.8500448e-39
2.4788191 -0.63936269 -0.3170377 1.5487753e-38
2.4974551 -0.65394229 -0.32855579 1.077391e-38
2.427938 -0.61040568 -0.29574925 5.704616e-39
2.4757845 -0.6113584 -0.31666052 8.5648259e-39
2.4966071 -0.61119813 -0.33150089 8.7420145e-39
2.4336073 -0.59405011 -0.2964417 7.7310953e-39
2.4506586 -0.58924776 -0.29851899 8.1917344e-39
2.5007968 -0.58229268 -0.32289839 1.0495871e-38
2.4965613 -0.5654 -0.33150089 1.1967376e-38
2.3741117 -1.041944 -0.24950905 1.2440295e-38
2.3964207 -1.0321611 -0.26652983 1.0314759e-38
2.4193163 -1.0274829 -0.28583711 9.0243733e-39
2.378207 -0.997491 -0.24650335 1.3793555e-39
2.3996232 -1.0066905 -0.26733026 8.2875117e-39
2.3459201 -0.9711507 -0.24315949 1.9296609e-39
2.3586547 -0.9778316 -0.25727186 6.3532014e-39
2.3152032 -0.9434582 -0.24165078 4.422498e-39
2.3285451 -0.95640856 -0.24977598 4.6933521e-39
2.2843604 -0.90827292 -0.23678535 4.9778423e-39
2.2994938 -0.91966635 -0.23835269 4.9771263e-39
2.2735808 -0.88225502 -0.23268518 7.4620839e-39
2.2738411 -0.85537601 -0.23335837 9.952096e-39
2.2994173 -0.84313488 -0.23835272 1.0043199e-38
2.2850127 -0.82927412 -0.23411165 1.0318709e-38
2.299196 -0.82258898 -0.2390867 9.7673292e-39
2.3011584 -0.79352254 -0.23854482 9.2156113e-39
2.286417 -0.77106345 -0.22876427 5.9002008e-39
2.307909 -0.76006293 -0.24267755 8.659925e-39
2.3146005 -0.72998524 -0.24307369 9.0312117e-39
2.3305712 -0.74429637 -0.24159208 9.5858274e-39
2.3124113 -0.70240057 -0.24164823 6.5440933e-39
2.3347113 -0.69137287 -0.25469148 3.8704074e-39
2.3398392 -0.68217576 -0.24538265 3.9607897e-39
2.3637764 -0.67236787 -0.25909021 3.6845686e-39
2.4065118 -0.66471946 -0.26688582 3.4072852e-39
2.4269736 -0.66215956 -0.27798221 3.1328297e-39
2.4530952 -0.66096646 -0.28987136 3.5923603e-39
2.4088185 -0.65593916 -0.25841874 3.4065426e-39
2.4358699 -0.64476055 -0.27546459 4.0594481e-39
2.4570243 -0.64900899 -0.27545866 2.3027117e-39
2.4696815 -0.65112239 -0.29363003 6.0805605e-39
2.4070315 -0.6054675 -0.26476905 3.2246708e-39
2.4238715 -0.61064959 -0.27410081 3.4969585e-39
2.4316385 -0.58844531 -0.27600038 5.5220044e-39
2.4561646 -0.57728869 -0.27834117 5.9833356e-39
2.4817317 -0.579602 -0.29479542 8.2842537e-39
2.4382684 -0.55843449 -0.2792668 8.5518765e-39
2.4577262 -0.56234527 -0.27257612 6.5318655e-39
2.3375928 -1.0518491 -0.21704037 9.2170687e-39
2.3429866 -1.0384469 -0.21859144 5.8068926e-39
2.3769348 -1.0338595 -0.22923079 4.7905812e-39
2.3969057 -1.0250227 -0.24267273 4.6973024e-39
2.3767684 -1.0025593 -0.22752067 1.5655166e-39
2.3245573 -0.95862168 -0.20750141 3.1335654e-39
2.3414459 -0.97123241 -0.22161059 1.9339362e-39
2.3643336 -0.98642415 -0.23653778 1.2903661e-39
2.3153298 -0.94268417 -0.21085832 4.2388382e-39
2.289252 -0.90840381 -0.20710465 4.9771151e-39
2.3061252 -0.92683458 -0.21413025 4.6998247e-39
2.2799199 -0.88337237 -0.20516708 7.1840719e-39
2.2863846 -0.85489219 -0.20644377 1.0319448e-38
2.2912862 -0.82567424 -0.20707563 9.4911122e-39
2.3038137 -0.82359898 -0.22220442 9.3988984e-39
2.2903013 -0.80209696 -0.20582704 8.0145444e-39
2.3107662 -0.79008442 -0.21182384 7.1840803e-39
2.3128374 -0.76028484 -0.21038584 9.5840337e-39
2.3161581 -0.73023194 -0.20981155 9.0301439e-39
2.3339283 -0.74429303 -0.22931622 9.2145057e-39
2.3220809 -0.70574337 -0.21563224 7.1894599e-39
2.3372343 -0.69338322 -0.21704037 3.6874496e-39
2.3242791 -0.680453 -0.20750141 3.0442144e-39
2.3446481 -0.679784 -0.22147173 3.593096e-39
2.3680179 -0.66777861 -0.22948276 3.407637e-39
2.4042253 -0.66249049 -0.24491043 2.9502349e-39
2.383574 -0.65553868 -0.22562766 3.0413712e-39
2.4116011 -0.65329999 -0.23610397 2.5793112e-39
2.4345634 -0.64250344 -0.2480095 1.7499121e-39
2.4110811 -0.60326898 -0.24995165 4.1426783e-39
2.430773 -0.61237586 -0.24242568 3.1306871e-39
2.4396677 -0.58716542 -0.24663511 4.1462726e-39
2.4612913 -0.58027196 -0.25960472 4.0555133e-39
2.4796104 -0.57829034 -0.25705731 4.7912679e-39
2.3443048 -1.0497214 -0.19248867 8.9487537e-39
2.3279684 -1.0344826 -0.19530521 3.6864267e-39
2.3495796 -1.0301609 -0.18734497 3.5952792e-39
2.384501 -1.0244797 -0.20336756 2.208735e-39
2.3594525 -0.98821616 -0.19373751 2.3027313e-39
2.3826644 -1.007037 -0.19991083 2.0261417e-39
2.3301201 -0.96283084 -0.18717442 3.3161658e-39
2.3449771 -0.9761892 -0.18976071 2.6704433e-39
2.301204 -0.93458885 -0.17529045 4.1444972e-39
2.3153419 -0.94356662 -0.18048783 4.2366802e-39
2.2912226 -0.90979069 -0.17495583 4.8838474e-39
2.2865701 -0.88198453 -0.17553611 7.8290783e-39
2.2900922 -0.85437596 -0.1758244 9.8602549e-39
2.2968199 -0.82481712 -0.17575675 9.8588283e-39
2.3153985 -0.81591415 -0.17981498 8.102815e-39
2.299607 -0.80015486 -0.18063784 6.8181704e-39
2.317625 -0.78979945 -0.1837092 7.0925811e-39
2.3240545 -0.76229155 -0.181051 8.9368706e-39
2.3219948 -0.73266858 -0.18571797 9.3067294e-39
2.3264978 -0.7027567 -0.18599078 6.9125114e-39
2.3276143 -0.68044966 -0.19530521 3.502673e-39
2.3502452 -0.67690825 -0.18835838 3.5927261e-39
2.3742177 -0.66398293 -0.1992165 3.3161616e-39
2.3852949 -0.65055186 -0.2019856 3.1299711e-39
2.4144824 -0.6372112 -0.21006909 2.578235e-39
2.4352465 -0.63407046 -0.22614628 2.2098365e-39
2.424983 -0.61203307 -0.19914918 3.3150672e-39
2.4375565 -0.61196721 -0.21761911 3.4987382e-39
2.4427755 -0.58472306 -0.2168483 4.5132488e-39
2.4843788 -0.58430392 -0.23964176 4.9738486e-39
2.3390818 -1.0302569 -0.15465118 8.3919982e-39
2.3559916 -1.0273558 -0.16591758 3.6878294e-39
2.362087 -1.0054176 -0.16229577 2.3942053e-39
2.3802357 -1.0122029 -0.17848237 1.6591696e-39
2.3315568 -0.96776277 -0.15594399 3.2257722e-39
2.3006942 -0.93788415 -0.14399412 4.3313855e-39
2.3193984 -0.95193326 -0.16568519 3.1339382e-39
2.2953188 -0.91090059 -0.14364998 4.7920218e-39
2.2970138 -0.88038343 -0.14492346 8.8435778e-39
2.2965894 -0.85166043 -0.14258035 1.0043934e-38
2.3007181 -0.82284272 -0.14481425 8.9386671e-39
2.3225682 -0.80962908 -0.15357395 5.8029283e-39
2.2984853 -0.80759454 -0.13169265 7.1116402e-39
2.3248777 -0.79127395 -0.15372796 6.8167145e-39
2.332283 -0.76114351 -0.15578242 1.0227601e-38
2.3083022 -0.72114795 -0.14855355 9.4940059e-39
2.3286779 -0.73050588 -0.15693949 9.6783775e-39
2.3082941 -0.71283239 -0.14855355 8.1139581e-39
2.3324635 -0.70160359 -0.15898892 6.7273985e-39
2.3349009 -0.67543507 -0.15853235 3.7782047e-39
2.363138 -0.66735053 -0.16283923 4.0519316e-39
2.3815866 -0.66182601 -0.17226215 3.5009144e-39
2.3930693 -0.64553362 -0.1726723 3.4072656e-39
2.4187961 -0.63550591 -0.18142128 2.7633438e-39
2.4203162 -0.61374265 -0.17722629 2.7636927e-39
