# .PCD v0.7 - Point Cloud Data file format
VERSION 0.7
FIELDS x y z rgb
SIZE 4 4 4 4
TYPE F F F F
COUNT 1 1 1 1
WIDTH 964
HEIGHT 1
VIEWPOINT 0 0 0 1 0 0 0
POINTS 964
DATA ascii
0.091974974 0.53725111 -1.0729147 6.3525021e-39
0.07946825 0.54083872 -1.0770061 7.647875e-39
0.12717962 0.44169313 -1.067513 4.2348921e-39
0.10656929 0.42480245 -1.0833911 4.3252717e-39
0.092602372 0.40879118 -1.0901079 4.5067903e-39
0.10930467 0.67296058 -1.029701 3.4040188e-39
0.10426879 0.66629189 -1.0317078 3.0373929e-39
0.099418998 0.53330433 -1.0512872 6.450841e-39
0.072484136 0.54087317 -1.0594015 7.9219858e-39
0.13164628 0.5040077 -1.0403358 6.4476139e-39
0.11766064 0.51847297 -1.0461102 6.9089409e-39
0.13684237 0.48932323 -1.039891 5.6200014e-39
0.13311732 0.47894835 -1.0464097 5.2522923e-39
0.12983048 0.45504761 -1.0493851 4.6976737e-39
0.10797489 0.43519366 -1.0493071 3.4040216e-39
0.098318338 0.42534649 -1.0619093 3.4962285e-39
0.08539784 0.40973833 -1.0662589 4.5078651e-39
0.10196877 0.78265572 -0.99971956 8.6610054e-39
0.092725992 0.78723419 -1.016872 1.0415571e-38
0.11818993 0.76338971 -0.99507749 8.0163689e-39
0.130193 0.73692036 -0.9933961 6.3575496e-39
0.12975502 0.70676678 -0.99718571 4.3296031e-39
0.12678611 0.68692911 -1.0005604 4.0511973e-39
0.11550081 0.67671764 -1.0065112 3.0388362e-39
0.10222423 0.66569161 -1.0235484 2.2101686e-39
0.090153575 0.5377537 -1.0215671 7.3699107e-39
0.071424127 0.54654425 -1.0351402 1.0040652e-38
0.12502182 0.50470245 -1.0167475 6.355784e-39
0.11103511 0.51780015 -1.0196568 7.0007778e-39
0.13358295 0.48767921 -1.0159849 5.9880622e-39
0.13506174 0.46937248 -1.0155221 5.5274134e-39
0.12267542 0.45360044 -1.0204856 4.2370417e-39
0.10442495 0.43415132 -1.0351402 2.3045124e-39
0.089803219 0.42274427 -1.0344142 3.7717307e-39
0.081207633 0.41317546 -1.0459378 3.6802792e-39
0.098304749 0.78579479 -0.97560531 9.7677201e-39
0.07701087 0.79153514 -0.96971154 1.0318345e-38
0.12643576 0.7615155 -0.95863491 8.2014804e-39
0.11697567 0.76745093 -0.97241646 8.753571e-39
0.13313866 0.73956001 -0.95957524 6.1738926e-39
0.13225245 0.73557037 -0.97576165 6.2660812e-39
0.12767839 0.70515752 -0.96993703 4.3288828e-39
0.12159312 0.6855489 -0.98553342 3.5916499e-39
0.10837376 0.67485291 -0.97780716 3.5873437e-39
0.057703972 0.54861987 -0.98697221 1.3265721e-38
0.083841324 0.53826392 -0.99420196 7.1883963e-39
0.11834884 0.51072669 -0.98333871 6.724907e-39
0.1058712 0.51962912 -0.99523073 6.6337988e-39
0.13266563 0.48627743 -0.98686439 6.1720962e-39
0.12869084 0.46760002 -0.98096961 4.4200135e-39
0.11506355 0.44803375 -0.9930172 3.3129204e-39
0.096844792 0.42582154 -0.99830586 3.4965872e-39
0.094652891 0.78645307 -0.94118947 9.9517611e-39
0.11953092 0.76324987 -0.93513596 8.4777128e-39
0.11213839 0.77304405 -0.94228905 8.8468638e-39
0.12756276 0.73689872 -0.93621826 6.5415891e-39
0.13179767 0.71778309 -0.93115854 4.9738991e-39
0.12222433 0.70109451 -0.94236827 3.9601003e-39
0.11407375 0.68163675 -0.94329888 3.7738986e-39
0.10598791 0.67089808 -0.94873405 3.8635704e-39
0.057242274 0.54832369 -0.95725453 9.8609807e-39
0.05557394 0.54799443 -0.97847199 1.2254448e-38
0.082582593 0.53631115 -0.96271849 7.0936951e-39
0.057933927 0.54258329 -0.98130536 8.4801903e-39
0.11357105 0.51089692 -0.95673639 6.6334344e-39
0.097725868 0.52374637 -0.9647097 6.819269e-39
0.12774527 0.48542783 -0.95517445 5.8965925e-39
0.12366152 0.46409434 -0.96332717 4.1455748e-39
0.11126089 0.44777206 -0.96040088 3.7731783e-39
0.095033288 0.42571801 -0.96383691 4.049384e-39
0.0894835 0.41917002 -0.97200036 4.7801359e-39
0.10467982 0.77827191 -0.89678061 9.4965478e-39
0.089082837 0.78519344 -0.91488129 1.0690753e-38
0.06081605 0.78993541 -0.91442376 1.1511489e-38
0.1138761 0.76359576 -0.90651542 8.6624628e-39
0.12238836 0.73587137 -0.90614337 6.7245455e-39
0.12555063 0.71546787 -0.90570998 4.5132825e-39
0.11691427 0.69865978 -0.91183883 3.774993e-39
0.10558844 0.68084967 -0.92166466 3.0374153e-39
0.092777848 0.67158216 -0.91703862 3.5866276e-39
0.053000927 0.54707837 -0.94032872 9.2213749e-39
0.076077819 0.53521186 -0.93360239 6.9114605e-39
0.10595977 0.51169109 -0.92834014 7.0015051e-39
0.086622119 0.520486 -0.92039776 7.4660622e-39
0.11651778 0.48133257 -0.92643684 5.8955065e-39
0.11499155 0.4617824 -0.93359798 4.5136384e-39
0.10339797 0.4441033 -0.93287611 3.4991221e-39
0.089759469 0.42426741 -0.93656367 3.4058153e-39
0.084294677 0.41603246 -0.94163769 5.6948854e-39
0.10024178 0.77696884 -0.87907082 1.0322716e-38
0.085272431 0.78495514 -0.88281685 1.0965906e-38
0.10871792 0.76240027 -0.87805569 9.7680929e-39
0.11739969 0.73325366 -0.87809938 6.5419563e-39
0.11830926 0.71307456 -0.87652427 4.0537337e-39
0.10551107 0.69623423 -0.88652933 3.4072796e-39
0.087923169 0.6821456 -0.88586432 3.4976662e-39
0.080386639 0.67133963 -0.89248598 3.0384803e-39
0.069289446 0.66188067 -0.89843827 4.5921349e-39
0.049342752 0.5459125 -0.9098016 1.0319771e-38
0.035463572 0.54819381 -0.9048034 1.234195e-38
0.06716156 0.5335573 -0.90526837 7.0962034e-39
0.098873496 0.50807679 -0.8984068 6.8174642e-39
0.082458019 0.51926339 -0.90378082 7.094407e-39
0.10891688 0.47974038 -0.89762342 5.4352514e-39
0.095122576 0.444704 -0.90520412 3.8682578e-39
0.07247448 0.42477009 -0.90763682 3.774609e-39
0.084194303 0.42253548 -0.92058194 3.4980319e-39
0.073343515 0.41870692 -0.91813987 2.6711705e-39
0.091609836 0.7783618 -0.84885985 9.5833457e-39
0.075878382 0.78753537 -0.85178095 1.078007e-38
0.10309529 0.75969481 -0.84881157 8.016729e-39
0.11127591 0.73212272 -0.84884173 6.818539e-39
0.11333382 0.7085616 -0.84789747 5.0675296e-39
0.10019398 0.69133449 -0.85458606 3.4069125e-39
0.083233476 0.68076861 -0.86714888 2.9477378e-39
0.078974128 0.67245984 -0.8561064 3.3128994e-39
0.04869628 0.54927623 -0.87444913 7.4599357e-39
0.03333354 0.54756844 -0.89630324 1.1429308e-38
0.064514756 0.53083539 -0.87484801 6.2660826e-39
0.089740157 0.50561869 -0.87057006 5.8040283e-39
0.072354436 0.51430798 -0.86131525 5.6225083e-39
0.098186374 0.48281732 -0.87203896 5.894789e-39
0.089877129 0.46575499 -0.87331629 4.7909442e-39
0.083078384 0.44179365 -0.87676466 4.236327e-39
0.052938223 0.79591411 -0.82465369 9.8540948e-39
0.085753798 0.77271485 -0.8212533 1.1241058e-38
0.065937638 0.78168452 -0.82587761 1.0873713e-38
0.094009399 0.75804389 -0.81938213 9.4003865e-39
0.10601056 0.72944832 -0.81912893 5.3430417e-39
0.10606194 0.70565385 -0.82088476 4.8817021e-39
0.096863866 0.6876784 -0.82351744 3.7767852e-39
0.087928534 0.67268419 -0.82106477 4.506779e-39
0.07516551 0.66919756 -0.84085524 4.7808366e-39
0.037945032 0.55216253 -0.85006464 8.1982098e-39
0.014893293 0.56046635 -0.8424685 1.2256223e-38
0.067956328 0.5253998 -0.82942015 5.1590148e-39
0.057271242 0.53128099 -0.84795415 5.6200014e-39
0.081805468 0.50284123 -0.84160286 5.0679066e-39
0.069966197 0.51559556 -0.85392994 5.0693471e-39
0.089491844 0.47985232 -0.84357607 4.8827853e-39
0.077698469 0.46361306 -0.842884 4.5139985e-39
0.06962502 0.44250396 -0.85467499 3.0370496e-39
0.054029584 0.42863545 -0.84984624 2.7597508e-39
0.050789833 0.79546946 -0.80045134 9.8584738e-39
0.079702497 0.77537119 -0.78677708 9.3989432e-39
0.06120491 0.78448659 -0.79982471 1.022907e-38
0.093563795 0.75594807 -0.7871123 8.8468498e-39
0.11085367 0.7299974 -0.78632993 6.8185362e-39
0.10385323 0.70202291 -0.78899795 3.1296123e-39
0.093314648 0.68407822 -0.79576075 3.1317619e-39
0.083886862 0.67053163 -0.79878432 4.0461512e-39
0.025143504 0.56880188 -0.81590593 1.124103e-38
0.054569125 0.5467127 -0.80322802 4.604762e-39
0.039732814 0.55472875 -0.81760842 5.0646318e-39
0.063562155 0.52637935 -0.8106389 4.5154447e-39
0.052849174 0.53623873 -0.81608158 4.9739145e-39
0.07508564 0.50336564 -0.81403577 4.6994772e-39
0.063325524 0.49498722 -0.81076449 4.2384963e-39
0.08105576 0.47985819 -0.80995077 3.7775139e-39
0.072370648 0.46250471 -0.81614727 3.3143637e-39
0.055844665 0.444756 -0.82555676 2.6707824e-39
0.030561447 0.42675582 -0.83593231 2.2994887e-39
0.021916747 0.41815445 -0.83347917 2.6657587e-39
0.065559149 0.80044979 -0.77697867 9.2973238e-39
0.041091084 0.79826647 -0.76862776 9.6704658e-39
0.080650091 0.78016287 -0.75988257 1.0687883e-38
0.057924509 0.78837347 -0.76518786 1.1148143e-38
0.10073042 0.76180255 -0.74578273 7.1865956e-39
0.099257588 0.75570476 -0.75902218 6.4486634e-39
0.10445297 0.72757661 -0.75815696 6.264998e-39
0.10026252 0.69703251 -0.76186597 4.235234e-39
0.088693261 0.67913759 -0.76593435 2.760111e-39
0.081852913 0.66983777 -0.7668193 2.8526527e-39
0.041526079 0.57733309 -0.78833985 1.0410878e-38
0.029794574 0.57747352 -0.78001833 9.3938453e-39
0.051491261 0.55217671 -0.78018516 4.1441258e-39
0.039470315 0.56083655 -0.7906931 4.0515658e-39
0.065571189 0.53199291 -0.78067499 4.3296129e-39
0.070557952 0.50006914 -0.78182095 4.1444972e-39
0.069815516 0.47995344 -0.78030062 4.0511987e-39
0.06695962 0.46470833 -0.78798944 4.7909414e-39
0.06815052 0.44704354 -0.78716099 3.5012871e-39
0.054277301 0.79861736 -0.72563887 1.142652e-38
0.032997847 0.80164921 -0.74241102 9.5775653e-39
0.090714097 0.77542007 -0.72367305 9.8588325e-39
0.076490283 0.78604996 -0.72787189 1.0504216e-38
0.10137916 0.75811064 -0.72360414 8.6617285e-39
0.10881341 0.7314747 -0.72108233 5.5270659e-39
0.10424519 0.71645886 -0.73352599 4.418891e-39
0.1066587 0.71323359 -0.71516919 2.85015e-39
0.096181154 0.69335634 -0.73121446 4.051926e-39
0.088906765 0.67264712 -0.72489089 3.3147085e-39
0.075611234 0.66356665 -0.74078017 3.6780988e-39
0.031596184 0.59893572 -0.74745941 1.2714649e-38
0.01816082 0.59606171 -0.76425362 1.326209e-38
0.062936068 0.58324885 -0.736848 2.301281e-39
0.046700001 0.58510303 -0.74647504 3.4058265e-39
0.022747874 0.58171988 -0.76563525 6.8145397e-39
0.072518945 0.56012994 -0.74297839 4.3285255e-39
0.053317904 0.55979848 -0.76195973 4.3274437e-39
0.081754684 0.53492188 -0.74500096 4.9735319e-39
0.067682028 0.54129195 -0.76244897 5.2508475e-39
0.084154725 0.5131157 -0.74225926 3.7753377e-39
0.074240804 0.49585935 -0.75534403 3.4058321e-39
0.073013425 0.4756909 -0.75051492 2.6700677e-39
0.060619116 0.45742926 -0.7588219 3.7742531e-39
0.060843349 0.44146582 -0.75837141 6.8141823e-39
0.056788564 0.8016789 -0.70304471 1.0871898e-38
0.086151004 0.78116536 -0.69569272 9.0290789e-39
0.07335031 0.78996885 -0.70327514 9.7666509e-39
0.10524142 0.7605629 -0.69066322 6.9096458e-39
0.10830677 0.73054254 -0.6931473 5.4345073e-39
0.10256851 0.70953441 -0.69615173 4.051933e-39
0.091138363 0.68846869 -0.70175505 2.4853177e-39
0.083359361 0.6710183 -0.70275354 2.1161821e-39
0.066630125 0.65657717 -0.70822591 3.4036643e-39
0.078810811 0.61669743 -0.70263612 1.1239899e-38
0.058847904 0.61063963 -0.72565258 1.3072652e-38
0.082394958 0.59483528 -0.70725793 4.0519218e-39
0.069190025 0.59318769 -0.72503531 3.9607869e-39
0.088391781 0.56841207 -0.70979804 4.8806231e-39
0.082648635 0.55387884 -0.72812027 5.0650017e-39
0.096292734 0.54103744 -0.70753264 4.6047508e-39
0.08705163 0.53789186 -0.72705078 4.6962178e-39
0.095832825 0.51631075 -0.70278931 3.6820504e-39
0.087151766 0.50326532 -0.71812719 3.9557703e-39
0.081383586 0.48167446 -0.71127665 3.1281648e-39
0.069017768 0.46708858 -0.72316003 3.035979e-39
0.056252599 0.45190454 -0.73484164 2.8508562e-39
0.055386066 0.43960118 -0.72761983 4.2294719e-39
0.067131519 0.80055577 -0.6641466 1.0597132e-38
0.045608282 0.80750948 -0.67358506 1.1239231e-38
0.090459824 0.78691852 -0.66390759 9.4904172e-39
0.10971141 0.75830144 -0.65627611 6.0791733e-39
0.1035279 0.76296538 -0.66233587 7.0014883e-39
0.107651 0.73064095 -0.66216642 4.5129097e-39
0.098123193 0.70375597 -0.66799992 3.4051076e-39
0.089485049 0.68500465 -0.67161155 3.0359734e-39
0.079894543 0.67105985 -0.66971552 2.2083665e-39
0.062826872 0.65454292 -0.6814397 1.9314181e-39
0.096819162 0.628775 -0.66969782 9.1179745e-39
0.089586735 0.61712939 -0.69124508 8.3879456e-39
0.10451531 0.60379124 -0.67115402 4.3274381e-39
0.092632413 0.60675627 -0.69124508 4.0490407e-39
0.10922027 0.57691991 -0.66703361 4.0501211e-39
0.097831011 0.56802189 -0.68438911 5.0631996e-39
0.11022735 0.54633892 -0.66400015 4.9713655e-39
0.10333812 0.54136074 -0.68214667 4.9735277e-39
0.11419392 0.52858162 -0.66238552 5.3376369e-39
0.10206652 0.51262695 -0.67993963 3.9557689e-39
0.090287447 0.49564266 -0.69336313 3.1285319e-39
0.094045758 0.48826692 -0.67151183 3.4033182e-39
0.08573091 0.48023701 -0.68698668 3.311833e-39
0.062761307 0.45907792 -0.69569832 3.3118386e-39
0.050006628 0.45007062 -0.70991623 2.944505e-39
0.056338072 0.44399965 -0.68784606 2.4849534e-39
0.049739122 0.43376377 -0.70412785 6.2548849e-39
0.070778966 0.81106013 -0.63139176 1.2253391e-38
0.096272469 0.78289104 -0.63177991 8.6610166e-39
0.087450862 0.79121053 -0.6337387 9.7662852e-39
0.1043427 0.75898957 -0.62697148 7.4635384e-39
0.098691106 0.75978887 -0.64113885 8.1089092e-39
0.1092236 0.73891681 -0.62763685 6.3553818e-39
0.10641146 0.7239424 -0.63439596 5.4345101e-39
0.10259163 0.69923168 -0.63353884 3.2210849e-39
0.087952018 0.68263882 -0.64905548 1.8403071e-39
0.113307 0.65638745 -0.63078302 3.0316532e-39
0.080742955 0.66391128 -0.64510912 1.7473912e-39
0.069540262 0.65631294 -0.6598646 1.4708043e-39
0.13300407 0.64970165 -0.61975574 4.696215e-39
0.11811733 0.63788486 -0.63497263 6.4472103e-39
0.10575235 0.63170767 -0.65060663 6.9071066e-39
0.12532723 0.61033034 -0.63053703 4.9735235e-39
0.11380243 0.60369694 -0.64996624 4.7880561e-39
0.12272203 0.58779746 -0.63095766 5.4344989e-39
0.11732543 0.57399273 -0.64372891 4.4199952e-39
0.11613905 0.54582989 -0.64159834 4.3267094e-39
0.11441338 0.52131605 -0.64074194 4.0504756e-39
0.10639179 0.50755459 -0.65456992 3.4976788e-39
0.098441362 0.48659772 -0.64848471 3.2203646e-39
0.081439734 0.46954477 -0.65949374 3.405109e-39
0.067475915 0.45627078 -0.66997623 3.5884283e-39
0.057000518 0.44139796 -0.66392642 4.3238255e-39
0.04721117 0.43135047 -0.67945176 6.8934117e-39
0.045535564 0.82444292 -0.61057287 1.317497e-38
0.032220483 0.83042318 -0.60767972 1.381708e-38
0.080044389 0.80521804 -0.5912984 1.1056307e-38
0.062618017 0.81369638 -0.60859603 1.1886776e-38
0.095183253 0.7874099 -0.59979296 8.7535654e-39
0.080220699 0.79746419 -0.6139214 9.2156281e-39
0.10558033 0.75908315 -0.59985083 6.6334176e-39
0.10674071 0.72978407 -0.60060865 4.4232336e-39
0.10347199 0.72106624 -0.61693162 4.4206931e-39
0.11126351 0.69979185 -0.59490502 4.3306821e-39
0.10472274 0.69645309 -0.60948676 2.7633536e-39
0.1516242 0.67371833 -0.58598745 1.9325111e-39
0.13400221 0.67128426 -0.60152358 2.8555492e-39
0.098502994 0.67568564 -0.61502093 1.4729609e-39
0.15315509 0.66103435 -0.58696085 5.7161515e-39
0.14161968 0.64445186 -0.60041773 4.5121853e-39
0.13866282 0.61851645 -0.59376061 3.6813498e-39
0.13281298 0.60975742 -0.60861343 3.7746146e-39
0.13116014 0.58026099 -0.60688478 3.6824218e-39
0.1262846 0.55257308 -0.60317063 3.2207262e-39
0.11816752 0.5420934 -0.61667269 4.6047396e-39
0.11319077 0.51365077 -0.61605448 4.1434055e-39
0.11318076 0.4935526 -0.61137855 3.7738915e-39
0.096641898 0.47871825 -0.62269586 3.5891345e-39
0.073783875 0.45959601 -0.62946314 4.1412293e-39
0.068370342 0.45096859 -0.63984144 4.1404992e-39
0.058493733 0.44236687 -0.63305914 6.069423e-39
0.041627288 0.82399237 -0.58385611 1.1700231e-38
0.029503584 0.82904208 -0.59462517 1.2161546e-38
0.084014058 0.81320739 -0.56854963 1.0964464e-38
0.063790917 0.81706125 -0.58657229 1.2530358e-38
0.1101371 0.79031396 -0.55425888 7.5528642e-39
0.097888589 0.79107738 -0.57300556 7.9223754e-39
0.1434592 0.7612775 -0.54602754 5.3434215e-39
0.1293478 0.76782334 -0.55532962 6.0791733e-39
0.10584664 0.76393127 -0.57864934 6.0791634e-39
0.14745879 0.74854207 -0.54698408 6.0784516e-39
0.14254928 0.73754108 -0.55851543 5.0653716e-39
0.11592734 0.73357034 -0.580212 4.1473684e-39
0.16086674 0.70199132 -0.54602754 5.5266987e-39
0.14929986 0.71076477 -0.56019217 4.5111119e-39
0.12343562 0.71438086 -0.58215082 3.5888122e-39
0.16225934 0.6972484 -0.54602754 4.9753494e-39
0.15556872 0.67918563 -0.56074142 4.6969395e-39
0.15179348 0.65032542 -0.56122291 3.6816959e-39
0.14398527 0.6381886 -0.57743591 3.3129176e-39
0.15534377 0.6273725 -0.5520938 3.1292536e-39
0.14506757 0.6140458 -0.5697844 4.1430356e-39
0.14524448 0.58481771 -0.56893373 4.2348767e-39
0.13664377 0.57150143 -0.58424562 4.4181946e-39
0.14372325 0.56411064 -0.56186014 3.8657172e-39
0.13666618 0.55098051 -0.57618451 3.8657326e-39
0.12770069 0.52705914 -0.57581335 3.3132693e-39
0.11733425 0.5100764 -0.58536559 3.3129176e-39
0.11025703 0.48967555 -0.58616549 3.9561234e-39
0.096243739 0.4728947 -0.59137541 4.2337795e-39
0.067703009 0.45696855 -0.60626638 4.6036326e-39
0.063151836 0.44961867 -0.60206366 6.0722929e-39
0.08449173 0.8363114 -0.53696573 1.4004732e-38
0.076316118 0.83771914 -0.53502017 1.4831243e-38
0.097171426 0.81888294 -0.53194159 1.0412011e-38
0.083086967 0.82325852 -0.5513624 1.0230149e-38
0.12920821 0.78542799 -0.51972264 9.3053154e-39
0.11841965 0.79548597 -0.53154325 7.9227257e-39
0.14523351 0.76937479 -0.52430403 8.5684511e-39
0.13062763 0.7780081 -0.54265648 7.4613804e-39
0.15683866 0.74285424 -0.52386385 6.0813158e-39
0.14526856 0.7342006 -0.5432539 4.4214274e-39
0.16103625 0.71382558 -0.52599812 5.8022038e-39
0.16195214 0.68809509 -0.52579087 5.2493902e-39
0.15918148 0.67634106 -0.53627145 4.4189008e-39
0.16342402 0.66667962 -0.5173313 4.1426797e-39
0.16133702 0.6523599 -0.53136587 4.3274269e-39
0.1616565 0.61987662 -0.53374076 3.6824246e-39
0.16145635 0.58921909 -0.53019011 3.6809799e-39
0.15202212 0.58166981 -0.54707301 3.497669e-39
0.15983725 0.56835437 -0.5247249 3.7746048e-39
0.14763618 0.555547 -0.54023308 3.0377642e-39
0.13838696 0.54541278 -0.55572367 3.4054636e-39
0.14420342 0.53631675 -0.53562093 3.0377783e-39
0.13213766 0.51997018 -0.54786032 3.7717335e-39
0.1182096 0.50396734 -0.56352282 4.0468995e-39
0.10969901 0.48906514 -0.55914676 3.8632131e-39
0.0904845 0.46980327 -0.5617975 4.8744854e-39
0.07092917 0.45251924 -0.57572353 1.2070016e-38
0.076631069 0.83737814 -0.49934304 1.474122e-38
0.06672883 0.83900529 -0.51913363 1.5569872e-38
0.042146802 0.84248888 -0.52261114 1.602795e-38
0.11306238 0.81159806 -0.48863506 1.0317675e-38
0.093568087 0.82145452 -0.5046643 1.1610555e-38
0.12993884 0.79597896 -0.49520403 9.7652006e-39
0.11424935 0.8030073 -0.51029998 9.765918e-39
0.14568424 0.77202356 -0.49391901 8.4758897e-39
0.15830922 0.7437309 -0.49213421 6.6326946e-39
0.16510367 0.71436691 -0.49235827 5.8951253e-39
0.16757274 0.6844157 -0.49531192 4.9724445e-39
0.16960037 0.65500629 -0.49785697 5.0649975e-39
0.17589009 0.62720197 -0.49751869 4.9720802e-39
0.17212868 0.61453795 -0.51285094 4.6972716e-39
0.17569733 0.60327172 -0.49072412 4.1423125e-39
0.16891968 0.59023798 -0.50523138 3.9590073e-39
0.16305196 0.56280541 -0.50284797 3.8653627e-39
0.1533494 0.54875898 -0.51464897 3.4973047e-39
0.14471757 0.53255719 -0.51197058 3.7731629e-39
0.12763822 0.51131326 -0.51943952 3.7728139e-39
0.11775565 0.49665141 -0.52230376 3.5905793e-39
0.098940849 0.48349369 -0.52748823 4.2348669e-39
0.084657192 0.46969727 -0.53783816 5.0588612e-39
0.075387478 0.83508396 -0.48191097 1.4096941e-38
0.057745576 0.83306694 -0.46884122 1.2710381e-38
0.10840011 0.8124752 -0.47065341 1.1426887e-38
0.091420889 0.82313961 -0.47500131 1.1703465e-38
0.12708378 0.79737079 -0.46675861 1.0504562e-38
0.15324986 0.76561481 -0.45410192 8.5698832e-39
0.14245415 0.77545321 -0.46614924 8.6606509e-39
0.1610831 0.74636447 -0.45881918 7.4624566e-39
0.15863729 0.73867285 -0.47451293 6.9096388e-39
0.16809618 0.71904296 -0.45880416 6.448662e-39
0.16571677 0.7119531 -0.4716987 5.9887615e-39
0.17701375 0.68784082 -0.45421398 5.618537e-39
0.17152452 0.68382096 -0.47083592 4.9745941e-39
0.18408549 0.66030872 -0.45237949 5.9869552e-39
0.17844605 0.65426338 -0.4688246 5.1575505e-39
0.18665004 0.64045429 -0.45169005 5.6181685e-39
0.18232453 0.62651062 -0.46557006 4.6043739e-39
0.17896295 0.59723127 -0.46820277 3.683135e-39
0.17329788 0.58385575 -0.48404822 3.4980067e-39
0.1747086 0.57726067 -0.46233019 3.5891303e-39
0.16521204 0.56067848 -0.47529823 3.5895017e-39
0.1563493 0.5409593 -0.47246429 3.7713692e-39
0.14404631 0.52844334 -0.48345897 3.5891402e-39
0.12711346 0.50844145 -0.48827416 3.6806253e-39
0.11226499 0.49508512 -0.49252731 4.4203372e-39
0.092823148 0.48115125 -0.50005764 4.6929794e-39
0.065217137 0.83618116 -0.44050834 1.271398e-38
0.053728938 0.83281392 -0.46053839 1.3158781e-38
0.10297441 0.81568718 -0.43984938 8.2933075e-39
0.087362528 0.82393515 -0.44775853 1.1150294e-38
0.13759708 0.79029739 -0.42463449 2.1162031e-39
0.12355804 0.79977322 -0.43839955 7.2784423e-39
0.15149355 0.77107656 -0.42925775 3.2254149e-39
0.13639545 0.78129393 -0.44537035 9.9546141e-39
0.16813552 0.7455433 -0.42722869 3.13142e-39
0.18586671 0.71698487 -0.41660321 3.7095874e-40
0.17720783 0.71878517 -0.43128461 3.6838721e-39
0.19423211 0.68990719 -0.4181264 8.2868447e-40
0.18381917 0.69158739 -0.43461472 4.4214302e-39
0.19784188 0.67620015 -0.41660321 2.7694702e-40
0.19286418 0.65954322 -0.42794093 3.3154427e-39
0.19280422 0.63093412 -0.42786819 3.2218052e-39
0.18374109 0.61980605 -0.44417059 4.7884204e-39
0.19337451 0.60798478 -0.4215827 1.8403043e-39
0.17929363 0.59467304 -0.44000161 3.6827791e-39
0.17241907 0.5742346 -0.43878278 3.4043902e-39
0.16081595 0.55705976 -0.44764218 3.4058335e-39
0.15042663 0.53790176 -0.44740614 3.130313e-39
0.13919914 0.52459216 -0.45338872 3.2221555e-39
0.12125182 0.50653893 -0.45946991 4.1408818e-39
0.1080606 0.48800793 -0.46209678 6.9027654e-39
0.096483946 0.48285574 -0.46093082 3.8628418e-39
0.038939834 0.85079908 -0.40898493 1.1786991e-38
0.058910131 0.83949339 -0.41673318 6.9107192e-39
0.042836428 0.84664601 -0.4188202 1.2896916e-38
0.096077919 0.81594765 -0.4131189 2.4875108e-39
0.080409169 0.82701981 -0.41696492 2.9481288e-39
0.13474929 0.78799206 -0.40367565 2.0268871e-39
0.11633062 0.80067712 -0.40822849 2.2109225e-39
0.14575875 0.77118379 -0.40110752 1.5676971e-39
0.17291594 0.7377938 -0.39147007 1.1996376e-39
0.16593206 0.74876785 -0.39941567 1.1992775e-39
0.18358541 0.72153902 -0.39672515 8.3049355e-40
0.19462979 0.69352043 -0.39569935 6.4501348e-40
0.19852567 0.66492712 -0.39541215 4.6097815e-40
0.19851911 0.650859 -0.40758434 1.8546886e-40
0.20161951 0.64052689 -0.38895535 3.6878812e-40
0.20099592 0.62842101 -0.40054119 2.7730996e-40
0.1961062 0.60101151 -0.40071109 4.6062082e-40
0.18585682 0.5867185 -0.41719252 8.2903339e-40
0.19094074 0.58028579 -0.39859045 3.6842098e-40
0.18082297 0.56502473 -0.40968817 7.3648464e-40
0.16681576 0.55178881 -0.42564267 2.3027159e-39
0.16988087 0.54493243 -0.40972045 5.5317098e-40
0.1572659 0.52919972 -0.41526195 1.1967355e-39
0.13839686 0.51140165 -0.42352659 1.9325027e-39
0.11645353 0.50486875 -0.4432776 3.9579241e-39
0.12903953 0.49662435 -0.41906449 7.8229154e-39
0.11013246 0.49286407 -0.44272196 4.4160169e-39
0.050617099 0.85523361 -0.38939312 9.6737098e-39
0.079826236 0.84161842 -0.37516704 7.8352118e-39
0.060672641 0.84413677 -0.39085391 6.360086e-39
0.095859408 0.81919146 -0.38026688 3.0410587e-39
0.076535225 0.82651466 -0.39823061 2.3031153e-39
0.12560642 0.78495312 -0.37670127 6.9136269e-39
0.10913849 0.79725546 -0.38003698 5.0675563e-39
0.13854921 0.76805317 -0.37414229 5.8998239e-39
0.15476274 0.74301255 -0.37097016 6.8192592e-39
0.18176031 0.72112066 -0.36628649 7.9270571e-39
0.19723475 0.69376004 -0.36358926 4.8845831e-39
0.20240641 0.66401809 -0.3646071 3.5949177e-39
0.20094717 0.63293481 -0.36734241 3.6874721e-39
0.20092356 0.61823612 -0.38122711 5.5210179e-40
0.20091867 0.61065233 -0.35719758 8.0191967e-39
0.19868696 0.59985638 -0.37180719 2.1194303e-39
0.1909771 0.57492459 -0.37513325 1.4740609e-39
0.17798114 0.55714059 -0.38092095 1.0137974e-39
0.16858649 0.54326439 -0.3818936 6.4429601e-40
0.1502347 0.52344877 -0.38833979 8.2760407e-40
0.13670778 0.50870651 -0.39914969 4.6061802e-40
0.13000226 0.49859306 -0.39394519 1.8377903e-39
0.0055766106 0.85595345 -0.35924709 9.5789526e-39
0.096057653 0.8428666 -0.33721054 1.2267086e-38
0.085990787 0.84501141 -0.35524485 8.6638935e-39
0.10453224 0.82229686 -0.3390893 6.3637083e-39
0.09916389 0.82038534 -0.35569978 8.1089008e-39
0.11641479 0.78901076 -0.34670934 6.8203438e-39
0.10796916 0.79849833 -0.35289791 7.0058099e-39
0.13414204 0.76629913 -0.34561422 6.176066e-39
0.14504814 0.73913944 -0.3448422 5.4381269e-39
0.17625058 0.71467143 -0.33938378 9.1259591e-39
0.15888643 0.72316152 -0.33997229 5.6214461e-39
0.20193577 0.69000077 -0.33077636 5.9930943e-39
0.1948204 0.69779831 -0.33877021 7.375698e-39
0.20730889 0.67162645 -0.32716084 3.8700641e-39
0.20383692 0.66080457 -0.33841968 4.0559001e-39
0.20503509 0.63307935 -0.3372471 4.1470097e-39
0.20375502 0.60480118 -0.3377142 4.6087011e-39
0.19810081 0.59127814 -0.34771219 3.3165161e-39
0.19248152 0.57036424 -0.34432802 4.6061802e-39
0.17994857 0.55420876 -0.35876837 5.432673e-39
0.16821778 0.54128313 -0.35309708 4.5143447e-39
0.14777768 0.52018881 -0.35980049 3.5913038e-39
0.14031291 0.50300306 -0.35743368 4.4178274e-39
0.13098216 0.49772194 -0.37121132 5.5155332e-39
0.042259336 0.88869298 -0.31167504 1.1702343e-38
0.030058861 0.88128603 -0.32217947 1.3637399e-38
0.013096571 0.87499374 -0.34013817 1.1701286e-38
0.023894191 0.86927515 -0.32643169 9.2152708e-39
0.012784839 0.85500759 -0.34117749 4.8838685e-39
0.10097814 0.8410905 -0.32121718 1.0875861e-38
0.056185365 0.84126401 -0.31167504 6.3639816e-39
0.024604559 0.84509832 -0.32642379 1.0116268e-39
0.10816407 0.82369852 -0.31578302 8.387308e-39
0.11346531 0.79381716 -0.31692445 5.8043786e-39
0.12467241 0.76625252 -0.31584087 8.0195975e-39
0.1422807 0.739609 -0.31319746 6.5444744e-39
0.16406524 0.70973408 -0.30988631 8.8461394e-39
0.15261459 0.71959186 -0.31308031 8.2032671e-39
0.19909608 0.69091862 -0.30512837 9.2188735e-39
0.18124926 0.70037055 -0.302872 8.295132e-39
0.20733893 0.66606987 -0.30310664 4.7012751e-39
0.20805204 0.64043295 -0.29558918 2.2069484e-39
0.20562804 0.63015854 -0.30935848 4.2384921e-39
0.20638824 0.60183907 -0.30785924 3.5009228e-39
0.20037436 0.57946622 -0.30600959 4.0522959e-39
0.18943512 0.56378484 -0.31702816 3.3161658e-39
0.17924964 0.54705411 -0.31632724 3.8660942e-39
0.1630466 0.53068185 -0.32123306 4.8813223e-39
0.14729595 0.5134685 -0.3303996 4.237399e-39
0.14327562 0.50250685 -0.3327651 6.0687112e-39
0.065523386 0.8963384 -0.27611616 1.1527674e-38
0.051262021 0.89574903 -0.29138091 9.3971243e-39
0.066550255 0.88705152 -0.27646628 4.6097479e-39
0.04930234 0.87116826 -0.28918439 2.6722467e-39
0.031585217 0.86160785 -0.30749133 1.9360984e-39
0.011335373 0.85548091 -0.31921408 1.3797017e-39
0.059604287 0.83944464 -0.29061377 3.8707787e-39
0.042695999 0.84691453 -0.30620283 1.1985474e-39
0.11847579 0.8207196 -0.27667567 8.018887e-39
0.1095314 0.82520556 -0.29155576 2.857029e-39
0.12554979 0.80189097 -0.27670085 5.6214349e-39
0.12150788 0.79169601 -0.28803331 3.963717e-39
0.12024403 0.76625937 -0.28460324 4.975327e-39
0.13603508 0.73756987 -0.28362688 6.6363071e-39
0.15436018 0.7077269 -0.28206921 8.2032713e-39
0.14468586 0.71734607 -0.281528 5.4381226e-39
0.19282436 0.68535054 -0.27414614 9.4025501e-39
0.17192149 0.69568241 -0.277612 9.1255919e-39
0.20549762 0.66499764 -0.27063257 7.1905599e-39
0.20777595 0.63513386 -0.2714504 5.2526384e-39
0.20438373 0.62148285 -0.28663313 7.463558e-39
0.20914614 0.61128795 -0.26682705 2.8562863e-39
0.20478606 0.59840143 -0.28046727 5.0689688e-39
0.19636762 0.57620841 -0.27957755 3.2246918e-39
0.18521106 0.55872393 -0.2852729 3.4101551e-39
0.17687535 0.54140639 -0.28474888 3.4076314e-39
0.1602633 0.52030373 -0.29277304 3.5916737e-39
0.14722598 0.50725502 -0.30563125 3.2243303e-39
0.15146494 0.50346255 -0.29732692 1.1942454e-39
0.1458391 0.50159657 -0.3063041 5.3350894e-39
0.077668667 0.46702239 -0.31635219 9.5742554e-39
0.11364543 0.44276118 -0.30264422 1.3529275e-38
0.091508269 0.44998392 -0.31407517 1.2609849e-38
0.11995053 0.43416628 -0.30070779 1.2894327e-38
0.054952502 0.92234397 -0.25214148 8.1884525e-39
0.069852114 0.90541345 -0.25660881 8.292576e-39
0.074540257 0.87859154 -0.25592127 5.0682541e-39
0.053914547 0.86226243 -0.27057981 3.5012759e-39
0.077201843 0.84346318 -0.25161895 3.0421041e-39
0.062844992 0.84241641 -0.26760823 3.0420971e-39
0.12472069 0.82043439 -0.25420007 5.9912852e-39
0.08005774 0.82668012 -0.25107363 1.8424777e-39
0.074980855 0.82357734 -0.25875515 2.5775302e-39
0.1335851 0.79982823 -0.24859269 4.4254169e-39
0.13065434 0.7702738 -0.2474961 3.7771454e-39
0.12570131 0.76194209 -0.26348445 1.7495604e-39
0.1336478 0.73587418 -0.245132 6.8185263e-39
0.130597 0.73955762 -0.26060894 4.3321212e-39
0.14467871 0.7107541 -0.24976529 6.7256119e-39
0.14026725 0.71646017 -0.26433846 6.9132387e-39
0.18482935 0.68084562 -0.24716824 8.2021783e-39
0.16476202 0.69056314 -0.24813841 9.0312229e-39
0.20467043 0.66419947 -0.24057885 7.4675055e-39
0.2073667 0.63451755 -0.24173899 4.6998261e-39
0.2078799 0.60632813 -0.24377096 5.1615231e-39
0.20302749 0.59010363 -0.25000039 3.2246862e-39
0.19439161 0.57133901 -0.24886005 3.5938345e-39
0.18587339 0.55597651 -0.25877234 3.8704242e-39
0.17530966 0.53539836 -0.25712565 3.1332123e-39
0.16270173 0.51557004 -0.26856455 3.040302e-39
0.12630951 0.48469731 -0.26579222 1.3811296e-39
0.10416842 0.46955535 -0.28090057 1.4715231e-39
0.075268269 0.46953171 -0.29421312 1.4718945e-39
0.13235283 0.45679376 -0.26986131 2.8537345e-39
0.11297822 0.44999802 -0.28854278 3.0370412e-39
0.093743086 0.45592487 -0.29517177 2.0232564e-39
0.13716745 0.4367041 -0.27013654 8.0980688e-39
0.124493 0.43423918 -0.28845376 8.8406421e-39
0.071639419 0.92629695 -0.21283887 1.3633405e-38
0.064283848 0.92652839 -0.22874817 9.2958903e-39
0.080049992 0.90727055 -0.21918382 8.111433e-39
0.07466948 0.91115779 -0.23460121 4.1491873e-39
0.083546996 0.88860303 -0.21922275 4.7001891e-39
0.07734251 0.87268615 -0.22857399 2.9499028e-39
0.096217752 0.83925623 -0.21419063 5.8057883e-39
0.076374531 0.8481099 -0.22917898 3.6871077e-39
0.10753953 0.82277155 -0.21776655 4.7909259e-39
0.091426969 0.82459962 -0.22711526 3.0413782e-39
0.14015639 0.79771322 -0.21248436 6.5451933e-39
0.13221896 0.80538905 -0.2255455 1.0230837e-38
0.14510286 0.78110427 -0.20804988 3.4108964e-39
0.13626468 0.76554525 -0.22098905 3.9619038e-39
0.13760793 0.73807865 -0.22061579 4.3317597e-39
0.14738882 0.71138567 -0.22028114 4.6083564e-39
0.17329049 0.67594463 -0.21531896 1.0782927e-38
0.16074204 0.68692589 -0.2195235 5.5292379e-39
0.19690287 0.6620034 -0.21208121 7.7429994e-39
0.20865226 0.6343354 -0.21149562 5.0693163e-39
0.20447361 0.60284686 -0.21371773 4.9771277e-39
0.20021832 0.58267403 -0.20374243 7.3734742e-39
0.19181442 0.56801844 -0.22020781 3.7778614e-39
0.18243837 0.54697871 -0.22061531 3.1332123e-39
0.17349255 0.53085959 -0.22885843 3.4094418e-39
0.134866 0.50377887 -0.23008995 1.6580752e-39
0.12534153 0.50069165 -0.24189384 3.6964025e-39
0.14223874 0.48216319 -0.23303315 2.2083707e-39
0.12566197 0.48874602 -0.24660115 1.4718959e-39
0.15863395 0.46247149 -0.23314425 3.131413e-39
0.14007008 0.45821503 -0.25414234 2.9455728e-39
0.15808237 0.43839437 -0.23067042 3.498762e-39
0.14106655 0.42685476 -0.24574009 9.4795599e-39
0.12551343 0.41007128 -0.25162086 2.2107086e-38
0.12940586 0.4064678 -0.23828997 1.9252611e-38
0.069971442 0.9282372 -0.19231498 9.1201619e-39
0.085008502 0.91024083 -0.19005263 7.1902082e-39
0.088340282 0.88246089 -0.19098563 3.6871091e-39
0.078544378 0.8644526 -0.19721754 3.0388544e-39
0.11704135 0.84477603 -0.1775974 1.1045595e-39
0.10149574 0.84553415 -0.19220655 3.1324836e-39
0.077260733 0.85485899 -0.19822964 2.8541059e-39
0.11839998 0.83877379 -0.17611325 7.3543226e-40
0.10575962 0.82312268 -0.19119488 3.5934674e-39
0.094543457 0.81906873 -0.20704012 4.2377339e-39
0.14292359 0.79865897 -0.18360351 7.7404897e-39
0.12122071 0.80598468 -0.18012744 7.5553613e-39
0.14773464 0.77395302 -0.1830572 4.607992e-39
0.13692641 0.76031548 -0.19845735 4.8845747e-39
0.14172137 0.74853414 -0.17764115 7.3614272e-40
0.13893986 0.73791981 -0.19168377 3.8697011e-39
0.15639687 0.70795816 -0.17987247 4.8838446e-39
0.14848471 0.71270108 -0.19432245 4.5168908e-39
0.16430068 0.68250251 -0.18244015 4.7920148e-39
0.15898657 0.68596393 -0.19456755 3.6889196e-39
0.20499718 0.65066421 -0.17789759 9.9589287e-39
0.18764997 0.66044503 -0.18324484 6.6362917e-39
0.20909452 0.64274031 -0.17607167 6.5462653e-39
0.20582402 0.62858903 -0.18178077 3.5941876e-39
0.20182061 0.60240734 -0.18342747 3.9619024e-39
0.1976738 0.57931352 -0.1869626 4.1455691e-39
0.18828368 0.56245834 -0.19010058 4.0544483e-39
0.18084872 0.54256964 -0.1920317 4.0540882e-39
0.17028081 0.52291489 -0.19748083 2.9484651e-39
0.15250766 0.50948858 -0.20971096 2.2101952e-39
0.16956663 0.49344966 -0.19631535 2.7640752e-39
0.14866412 0.49579412 -0.21124102 8.2760127e-40
0.17925239 0.4699693 -0.19835547 4.6090626e-39
0.16750753 0.46845028 -0.21560358 3.8711333e-39
0.18356109 0.44705838 -0.19591466 4.3313953e-39
0.16382372 0.42892462 -0.20912044 5.1528715e-39
0.14795601 0.41411746 -0.21971481 8.0819062e-39
0.139853 0.40638804 -0.21573965 1.7227539e-38
0.070727468 0.92746907 -0.16128524 1.1801053e-38
0.051800489 0.93489653 -0.17495304 4.1329575e-39
0.093054533 0.90740448 -0.15147652 5.6214405e-39
0.083378553 0.91274059 -0.16459073 8.6671445e-39
0.10020423 0.88487792 -0.15240292 4.0555483e-39
0.088550806 0.87416542 -0.16738203 3.2268583e-39
0.074304581 0.86250228 -0.17953691 3.5955945e-39
0.11880887 0.84793943 -0.1539963 4.1459307e-39
0.07987082 0.85726303 -0.16013108 1.9325111e-39
0.075732231 0.85551506 -0.17724498 2.5793e-39
0.11879814 0.82945645 -0.15433514 4.2395682e-39
0.11077797 0.81761163 -0.16617669 1.9350376e-39
0.15554619 0.7935859 -0.13984032 1.3361521e-38
0.13800788 0.79992634 -0.15364516 5.9887615e-39
0.1135025 0.80729216 -0.16307569 3.1306899e-39
0.1593523 0.78411239 -0.14076334 9.6801866e-39
0.15062809 0.7704308 -0.15560809 3.77823e-39
0.14442933 0.74102777 -0.15628903 4.0548084e-39
0.14182413 0.72750008 -0.17115854 5.5394029e-40
0.1518786 0.71093136 -0.15550765 4.4239679e-39
0.1432209 0.72066444 -0.16891631 4.4236204e-39
0.16423357 0.68432128 -0.15612401 4.1477314e-39
0.19868779 0.64724737 -0.15103175 7.834123e-39
0.17731023 0.65947556 -0.15474097 6.0823962e-39
0.20636511 0.63390553 -0.14776596 5.9916482e-39
0.20337296 0.62230444 -0.161125 7.3576857e-40
0.20538425 0.61636376 -0.14231847 5.3451913e-39
0.20085263 0.60020936 -0.15458949 3.9622555e-39
0.19293571 0.57482028 -0.15552351 3.9611723e-39
0.18460536 0.5586561 -0.16109413 3.4094278e-39
0.18013823 0.53899145 -0.16206384 4.1466467e-39
0.16785979 0.52092278 -0.16916932 2.9491756e-39
0.14391983 0.50697267 -0.17445658 1.6609451e-39
0.18065786 0.48902899 -0.15156263 1.9325139e-39
0.16512418 0.49415874 -0.16947259 2.9473791e-39
0.14286602 0.5015223 -0.17723802 7.3540704e-40
0.190166 0.47141603 -0.16214588 4.7009037e-39
0.18528533 0.47631374 -0.17463371 3.4080153e-39
0.19244766 0.45311219 -0.1561323 7.2802037e-39
0.18505728 0.44284213 -0.17083353 3.3168777e-39
0.16460109 0.42159027 -0.17746095 5.0606773e-39
0.15893292 0.41341916 -0.17674837 1.288828e-38
0.078986168 0.92779875 -0.1339398 8.3008395e-39
0.06797576 0.93208075 -0.1403207 5.3268357e-39
0.092521548 0.91313541 -0.12612395 8.9415678e-39
0.10602105 0.88529336 -0.12427854 5.7154172e-39
0.12824523 0.85182023 -0.11291127 6.4573192e-39
0.11457241 0.85947913 -0.12634461 3.8689809e-39
0.090734243 0.85874391 -0.14482291 2.3899019e-39
0.12996352 0.84293914 -0.10964377 9.5879868e-39
0.12620795 0.82933342 -0.12454264 4.0555371e-39
0.15252054 0.79480898 -0.1181711 7.1873159e-39
0.13001502 0.80502909 -0.12463585 3.5931114e-39
0.16114652 0.77673966 -0.11690954 4.885309e-39
0.1525718 0.76421022 -0.13208693 3.7767684e-39
0.15533447 0.75653177 -0.10964377 6.5412038e-39
0.14873791 0.74245209 -0.12438828 3.8700557e-39
0.15241003 0.71154177 -0.12490045 5.1615203e-39
0.16905105 0.68431628 -0.12378481 5.0711324e-39
0.17786145 0.65610814 -0.12373152 5.4377457e-39
0.20184147 0.63104689 -0.12032926 6.7299335e-39
0.20442975 0.61209083 -0.11936207 3.6863903e-39
0.19765508 0.5953179 -0.12503752 3.6853057e-39
0.18911707 0.56809056 -0.12688942 3.7782174e-39
0.18101454 0.55304474 -0.14014222 1.6584479e-39
0.17654121 0.53579259 -0.13222738 3.6867406e-39
0.16136587 0.51467836 -0.14199233 2.3059585e-39
0.17690182 0.49543828 -0.13298446 3.8711347e-39
0.16221249 0.50191593 -0.14372826 9.198011e-40
0.19011092 0.47263026 -0.13468246 4.7927392e-39
0.18808234 0.45189413 -0.13548249 3.4112411e-39
0.1778909 0.43807629 -0.14079598 3.4101593e-39
0.15972662 0.42043218 -0.14652486 3.9619108e-39
0.1544559 0.41302362 -0.15218526 9.4745685e-39
0.13969529 0.40162551 -0.1640178 1.631646e-38
0.072844386 0.92857641 -0.095065355 6.70831e-39
0.10447359 0.90350091 -0.081325687 3.5005977e-39
0.091672063 0.9142223 -0.096784942 9.9557085e-39
0.11259806 0.88595104 -0.086965136 4.7001975e-39
0.10959041 0.88700187 -0.10211375 1.0323028e-38
0.12777448 0.85940766 -0.091279387 5.4370324e-39
0.11548948 0.86822313 -0.103529 8.1121182e-39
0.13196278 0.83237344 -0.08976201 4.4243168e-39
0.12868202 0.82379919 -0.10407578 7.1001551e-39
0.14377594 0.80215806 -0.088057965 3.7764307e-39
0.1319015 0.80639839 -0.10188221 3.1339606e-39
0.16297853 0.77664644 -0.087146655 5.529591e-39
0.15560067 0.7474485 -0.086312577 4.6072606e-39
0.15081024 0.73747045 -0.098184429 2.8551919e-39
0.15784085 0.71972501 -0.079147376 8.0192373e-39
0.15525305 0.71188492 -0.094579294 4.3324771e-39
0.1734637 0.68059862 -0.087141477 4.4250413e-39
0.16501975 0.68950933 -0.096368216 7.0057931e-39
0.17820024 0.65557885 -0.08376015 1.8432091e-39
0.17562723 0.65490294 -0.096753046 5.5303071e-39
0.197083 0.62981778 -0.091566481 6.4519074e-39
0.20000565 0.60604346 -0.091019861 4.0548141e-39
0.19449306 0.58875859 -0.094176479 3.2246918e-39
0.18663323 0.56649375 -0.097693838 3.5009172e-39
0.1752398 0.55133647 -0.10389178 7.3759026e-40
0.17706954 0.54704314 -0.090152025 5.4333989e-39
0.16949427 0.52916396 -0.10424384 3.3168805e-39
0.17700183 0.50071359 -0.10494206 2.9491826e-39
0.18976963 0.47297254 -0.10455999 4.146295e-39
0.18042433 0.44958189 -0.10815079 3.5005557e-39
0.16926658 0.43543524 -0.11312177 4.5157796e-39
0.15046024 0.42302606 -0.10397236 5.1431479e-39
0.067098737 0.92721832 -0.076448329 1.4660237e-38
0.10058904 0.90573454 -0.060829319 8.2039943e-39
0.085478306 0.91650301 -0.066458263 1.1521252e-38
0.11158526 0.88856846 -0.061846007 6.8210431e-39
0.12837541 0.86124557 -0.059152015 5.5295854e-39
0.13608444 0.83289832 -0.059456512 6.2685882e-39
0.15744603 0.79879928 -0.044273891 1.2028634e-39
0.14783275 0.80641818 -0.058809672 4.4243238e-39
0.16722834 0.77716535 -0.054171987 5.8990938e-39
0.16300142 0.77918643 -0.065293394 4.2421004e-39
0.16862702 0.75973481 -0.043211374 2.7586802e-40
0.15880382 0.74583107 -0.061030924 3.4097936e-39
0.15954852 0.71575963 -0.059233926 3.8707843e-39
0.1546582 0.70672762 -0.073220782 8.0152478e-39
0.1686343 0.68399209 -0.060727041 5.715413e-39
0.15809834 0.6953969 -0.073637389 8.847884e-39
0.17711532 0.65649152 -0.061777167 4.6087053e-39
0.18956494 0.62960786 -0.060975481 5.9909251e-39
0.19578946 0.60212821 -0.060661819 4.3317569e-39
0.18887472 0.58584911 -0.068533942 4.3339191e-39
0.18417275 0.56599164 -0.067193523 3.409802e-39
0.17595792 0.54146725 -0.071959354 3.1321291e-39
0.16700697 0.52193695 -0.07314986 2.1190604e-39
0.1856389 0.49976104 -0.063563846 1.473356e-39
0.17908454 0.5037384 -0.076989867 4.7001849e-39
0.18731499 0.48624966 -0.062212966 1.7484856e-39
0.18483865 0.47099295 -0.074392617 3.8711431e-39
0.17441249 0.4478167 -0.084160075 3.4069153e-39
0.16247654 0.43775052 -0.084853426 4.0569552e-39
0.14025176 0.41998759 -0.0851354 1.0489415e-38
0.094682217 0.90596831 -0.0330646 9.4954408e-39
0.080072165 0.91667211 -0.035813488 1.0878415e-38
0.12522602 0.88128227 -0.014877302 7.4700222e-39
0.11105967 0.88789457 -0.031761356 6.4511858e-39
0.13010526 0.87062407 -0.021307027 7.0036323e-39
0.12801039 0.8586123 -0.029233204 4.2384906e-39
0.14403117 0.82779086 -0.02194667 6.7292216e-39
0.13584852 0.83914196 -0.029449223 5.9894775e-39
0.15786695 0.80672848 -0.025810312 5.5303225e-39
0.16777062 0.77855295 -0.025719652 5.1622462e-39
0.16669273 0.75715744 -0.022772362 4.4235868e-39
0.15933061 0.74106139 -0.029675776 3.2243275e-39
0.15729809 0.71344888 -0.030973513 4.4239525e-39
0.16487527 0.68325377 -0.031004002 5.8065338e-39
0.17576778 0.65590489 -0.030938506 5.1618819e-39
0.18337703 0.62798119 -0.030953437 5.6228628e-39
0.19172585 0.59767413 -0.031929806 4.1480943e-39
0.18885779 0.57606834 -0.032378286 4.3324729e-39
0.17839134 0.56082052 -0.039183509 2.950263e-39
0.17207229 0.53214681 -0.039535571 3.0402964e-39
0.16805041 0.5211702 -0.0528519 1.4729945e-39
0.18133855 0.49992406 -0.042942137 5.4366737e-39
0.16948271 0.50858665 -0.036625028 2.1241064e-39
0.18457437 0.48285013 -0.04451938 4.149895e-39
0.17500389 0.46443573 -0.044420563 3.8704228e-39
0.14494538 0.43405801 -0.059634686 5.7082201e-39
0.13724601 0.42672458 -0.059413675 8.0840418e-39
0.091960549 0.90463549 -0.0031978709 1.1242134e-38
0.078829885 0.91400272 -0.018228568 1.6140028e-38
0.12043905 0.8797242 0.0043898094 7.3753001e-39
0.10645068 0.88995719 -0.00037104849 8.3887429e-39
0.12514067 0.86354047 0.0045766365 5.6224999e-39
0.12492752 0.85181475 -0.0017802216 4.7945371e-39
0.13930988 0.83241117 0.0042446838 7.4653349e-39
0.12721431 0.8450157 -0.0028471805 2.3999955e-39
0.15493906 0.8072899 0.003985493 6.6359428e-39
0.16343749 0.77849203 0.0037677195 5.5295924e-39
0.16422522 0.74849164 0.0049610073 4.3321212e-39
0.15919423 0.7336868 -0.0049931584 1.8439154e-39
0.16423571 0.71953166 0.016290171 5.5138152e-40
0.15569413 0.71214497 -0.00073547231 3.5931072e-39
0.16010725 0.68153226 -0.00072426017 5.3451913e-39
0.17298532 0.65467525 -0.00073061598 5.5299483e-39
0.17951584 0.62659073 -0.00072838698 5.5303057e-39
0.18466306 0.59577674 -0.0013419382 4.6101472e-39
0.18421412 0.57486951 -0.0050814841 4.5161607e-39
0.17367733 0.55760962 -0.0090603828 3.5931184e-39
0.17047572 0.53076971 -0.011137847 3.3183308e-39
0.17432594 0.50087231 -0.013448413 3.6845938e-39
0.17718792 0.48447996 -0.023098292 3.3222965e-39
0.16765237 0.46792188 -0.01745408 4.1470111e-39
0.14740562 0.44928408 -0.012244945 6.4397372e-40
0.14101768 0.4382166 -0.026305806 6.6197311e-39
0.12761641 0.42738524 -0.039588273 9.7493351e-39
0.087304711 0.90078592 0.027364628 1.2996727e-38
0.11460471 0.87740064 0.028332142 1.0234453e-38
0.099078536 0.88614649 0.029972278 7.4664209e-39
0.12013042 0.85828722 0.030005634 6.9136143e-39
0.11057603 0.8654151 0.036274876 7.8297706e-39
0.13167167 0.8300035 0.032917257 7.3727819e-39
0.14631736 0.80349213 0.033007972 6.9125297e-39
0.15667224 0.77603972 0.034192633 5.2533713e-39
0.18164575 0.73765945 0.043580376 7.1891236e-39
0.16768587 0.74830282 0.034402486 4.9782151e-39
0.18789589 0.72280061 0.040963791 5.5313889e-39
0.1786046 0.71723574 0.030692257 3.5956394e-39
0.16072679 0.70571363 0.016385451 2.7589044e-40
0.192523 0.70061415 0.043580376 3.1307166e-39
0.18496263 0.689565 0.035463076 2.3956486e-39
0.16518199 0.68152863 0.018192125 1.7499191e-39
0.18170989 0.66154295 0.040441897 3.1328479e-39
0.1731323 0.65384734 0.02464922 3.4101509e-39
0.17804968 0.62585104 0.029000061 4.792735e-39
0.17942441 0.59384608 0.026950622 4.6083508e-39
0.17907441 0.57206881 0.026800841 3.8725878e-39
0.17082882 0.5564605 0.020334309 3.5934814e-39
0.16687858 0.5299412 0.01852913 3.8711431e-39
0.17094743 0.50220597 0.017001659 3.1324934e-39
0.16243577 0.4847801 0.014946152 4.7920232e-39
0.15600133 0.46936023 0.011981718 4.237762e-39
0.13982224 0.44997853 0.0049719284 9.4799593e-39
0.13546121 0.43992144 -0.0077306214 1.131661e-38
0.075371385 0.89762491 0.047762375 1.3004657e-38
0.090159535 0.88074481 0.055941194 9.4007341e-39
0.11531627 0.85207105 0.053040966 5.1601092e-39
0.10381162 0.8572371 0.062694028 8.2929348e-39
0.12421954 0.82759577 0.061157014 7.2827373e-39
0.10849869 0.83952039 0.071840405 1.0863209e-38
0.13781106 0.80123997 0.062543437 7.0972754e-39
0.15277731 0.77532065 0.063283697 7.925597e-39
0.17363489 0.75468171 0.054648899 1.0047139e-38
0.1581682 0.74457335 0.065146036 5.622137e-39
0.1624583 0.71534204 0.064652264 4.7923679e-39
0.16762364 0.68870395 0.063299447 2.8559037e-39
0.15762591 0.67695212 0.066719018 3.501978e-39
0.17815959 0.65392244 0.059414379 4.1473712e-39
0.16183567 0.6601277 0.069401644 7.0990551e-39
0.17831087 0.63704658 0.058307286 3.9637002e-39
0.17058802 0.62094122 0.058272861 3.5012745e-39
0.17124391 0.59181213 0.05538654 5.0700408e-39
0.17036009 0.56904316 0.052490611 4.6072634e-39
0.16433847 0.55385524 0.051599164 3.7785817e-39
0.16282284 0.52838832 0.048642702 4.700538e-39
0.15888119 0.50081253 0.045218688 3.8700599e-39
0.15289032 0.48500961 0.046170007 4.6076123e-39
0.14699006 0.4702208 0.039415296 4.6972926e-39
0.074297428 0.87394571 0.079889469 1.1244284e-38
0.091489911 0.85004866 0.086074986 8.2965543e-39
0.11680651 0.81959742 0.083915412 6.8138362e-39
0.10518193 0.82717717 0.089426726 7.3742225e-39
0.13175249 0.79893982 0.091667764 8.2014538e-39
0.13992059 0.7720257 0.091961779 5.7139879e-39
0.15178573 0.74323905 0.091699094 5.8072541e-39
0.17551625 0.70530784 0.10099826 2.9481036e-39
0.16319525 0.71529418 0.090755954 5.0689688e-39
0.17943275 0.69328767 0.10183732 2.027578e-39
0.17114031 0.68439651 0.089329742 2.8562639e-39
0.15713704 0.66991276 0.076108269 4.0565825e-39
0.17041004 0.66216815 0.094644375 3.5038011e-39
0.15803754 0.64869249 0.08629255 3.4097992e-39
0.16396844 0.62108123 0.086418517 3.8707773e-39
0.15890992 0.58869147 0.084134936 3.777853e-39
0.1596787 0.57009387 0.075512923 6.0834626e-39
0.15423155 0.55491161 0.080009855 4.516867e-39
0.15300453 0.52566588 0.076630235 4.8845719e-39
0.15334773 0.50272042 0.073041409 5.1618651e-39
0.13988376 0.48421201 0.070919752 4.2316509e-39
0.13254941 0.4677088 0.063023008 1.5387649e-38
0.12687635 0.45824128 0.063408099 2.341769e-38
0.083015561 0.84628963 0.10077833 1.3185062e-38
0.093377829 0.82027513 0.10660126 7.1923521e-39
0.12190568 0.79902989 0.10866329 7.744091e-39
0.13324463 0.78344631 0.10869186 1.05103e-38
0.16520238 0.64850307 0.10518976 1.1971069e-39
0.15205157 0.63902718 0.10436419 5.5425979e-40
0.15038276 0.61819911 0.1049793 2.8566184e-39
0.15215814 0.58754861 0.10316983 5.0685946e-39
0.14463353 0.57364434 0.10717034 1.6595199e-39
0.14318192 0.55365872 0.10273175 4.2388452e-39
0.13805902 0.52324784 0.099897355 4.5147048e-39
0.12578619 0.50914729 0.10973966 7.9284514e-39
0.14220083 0.50316536 0.095178321 5.8944022e-39
0.1312561 0.49189314 0.097847894 6.4443516e-39
