# .PCD v0.7 - Point Cloud Data file format
VERSION 0.7
FIELDS x y z rgb
SIZE 4 4 4 4
TYPE F F F F
COUNT 1 1 1 1
WIDTH 985
HEIGHT 1
VIEWPOINT 0 0 0 1 0 0 0
POINTS 985
DATA ascii
0.85677111 -4.1500597 -1.4724329 2.4831625e-39
0.82849711 -4.2943549 -1.4793643 5.0642282e-39
0.82896006 -4.1702685 -1.4404923 3.868943e-39
0.85221756 -4.1614137 -1.4404923 2.0225375e-39
0.87975609 -4.2118673 -1.4596097 1.3793275e-39
0.89953226 -4.1458035 -1.4325072 5.5173885e-40
0.9004336 -4.2031822 -1.4623067 1.378617e-39
0.91423756 -4.1377997 -1.4404923 1.3782513e-39
0.94178885 -4.185812 -1.4677008 1.1956761e-39
0.93054223 -4.133997 -1.4325072 4.5953761e-40
1.1628886 -4.1670375 -1.4793643 4.2326851e-39
1.1625499 -4.1041956 -1.4596097 4.0475791e-39
1.1947354 -4.154912 -1.4793643 3.7706686e-39
0.80444354 -4.2502894 -1.4272451 5.430138e-39
0.82015431 -4.2443075 -1.4272451 5.5219791e-39
0.83215892 -4.1786704 -1.4085517 3.7727915e-39
0.86316895 -4.1668634 -1.4085517 1.4715217e-39
0.89417899 -4.155057 -1.4085517 1.2875046e-39
0.91743642 -4.1462016 -1.4085517 8.2759706e-40
0.93294144 -4.1402984 -1.4085517 4.6025508e-40
1.1351484 -4.1899486 -1.4383612 5.0563473e-39
1.1552845 -4.1789885 -1.4492953 3.9564709e-39
1.1587464 -4.1178279 -1.419154 2.5739078e-39
1.1812758 -4.1674452 -1.4547623 3.2185486e-39
1.1823125 -4.1088552 -1.419154 1.7470282e-39
1.2059823 -4.1605086 -1.4465618 2.2998349e-39
1.2301124 -4.2129374 -1.4745018 2.6686118e-39
1.265692 -4.2705874 -1.4780143 1.2860571e-39
0.80768472 -4.2588024 -1.3948807 4.6018249e-39
0.81130064 -4.1938272 -1.3845962 5.7971381e-39
0.83455813 -4.1849718 -1.3845962 3.5894793e-39
0.86556816 -4.1731648 -1.3845962 1.6555515e-39
0.88882565 -4.16431 -1.3845962 1.3804051e-39
0.89222866 -4.1038909 -1.3668332 1.1956579e-39
0.91983563 -4.152503 -1.3845962 7.3540284e-40
0.92284083 -4.0922356 -1.3668332 6.4392607e-40
1.1140448 -4.1421576 -1.3948807 4.231976e-39
1.1376109 -4.1331849 -1.3948807 3.5869836e-39
1.1611772 -4.1242123 -1.3948807 1.4718819e-39
1.1847433 -4.1152396 -1.3948807 1.3807764e-39
1.2172292 -4.1661053 -1.4137592 1.194939e-39
1.2682238 -4.2772374 -1.4527342 7.3540284e-40
1.3031735 -4.3322639 -1.4731352 7.350441e-40
0.81011575 -4.2651877 -1.3706074 4.7840568e-39
0.81369984 -4.2001286 -1.3606409 4.3238227e-39
0.83695728 -4.1912732 -1.3606409 2.1158051e-39
0.86796737 -4.1794662 -1.3606409 1.3804037e-39
0.87850153 -4.1138654 -1.3510679 1.2867745e-39
0.89977705 -4.1697598 -1.3526556 1.196374e-39
0.89380759 -4.1080379 -1.3510679 1.1034637e-39
0.92223483 -4.1588044 -1.3606409 8.2759706e-40
0.92441976 -4.0963826 -1.3510679 6.442848e-40
0.93853951 -4.1550012 -1.3526556 4.6025508e-40
1.1164758 -4.1485429 -1.3706074 4.0504532e-39
1.1400419 -4.1395702 -1.3706074 3.7702804e-39
1.1636082 -4.1305976 -1.3706074 2.4827884e-39
1.1871743 -4.1216249 -1.3706074 2.4846129e-39
1.2196932 -4.1725769 -1.3891574 5.5209058e-40
1.2529114 -4.2242832 -1.4080065 1.8403113e-40
0.78588855 -4.2203364 -1.3287002 4.5993096e-39
0.80914605 -4.2114816 -1.3287002 3.9579059e-39
0.84015602 -4.1996746 -1.3287002 2.0236165e-39
0.87116611 -4.1878676 -1.3287002 1.3804037e-39
0.90217614 -4.1760612 -1.3287002 1.47117e-39
0.92543358 -4.1672058 -1.3287002 1.0112681e-39
0.94446266 -4.1029954 -1.3037716 5.5173184e-40
0.94093859 -4.1613026 -1.3287002 9.1907383e-40
1.0653323 -4.0522265 -1.319537 4.3241632e-39
1.0951889 -4.1001678 -1.3366854 4.3227269e-39
1.1217954 -4.1546407 -1.343637 4.4156428e-39
1.142473 -4.1459551 -1.346334 2.7618822e-39
1.1660392 -4.1369824 -1.346334 1.3811268e-39
1.1974608 -4.1250191 -1.346334 1.6566277e-39
0.76802379 -4.1188583 -1.2637743 3.8635494e-39
0.79860896 -4.1648588 -1.2827511 3.8646312e-39
0.82089722 -4.2190318 -1.2887745 3.220345e-39
0.84050429 -4.2083607 -1.2994213 2.5757001e-39
0.84813094 -4.1491694 -1.2722408 1.842451e-39
0.86581278 -4.1971207 -1.3047448 1.6580626e-39
0.87566578 -4.1371031 -1.277496 1.6566319e-39
0.90769267 -4.1827788 -1.2994213 1.5644334e-39
0.92863256 -4.1756077 -1.2967596 9.2050876e-40
0.95718521 -4.2262497 -1.3139695 8.2831453e-40
0.95964259 -4.1638007 -1.2967596 9.1943256e-40
1.0684901 -4.0605206 -1.2880062 4.2319718e-39
1.0914351 -4.1136217 -1.2967596 4.4181581e-39
1.1250368 -4.1631536 -1.3112725 3.4983654e-39
1.1457144 -4.1544681 -1.3139695 2.0257633e-39
1.1692806 -4.1454954 -1.3139695 1.0137792e-39
1.1928468 -4.1365228 -1.3139695 1.0137806e-39
1.2254423 -4.1876764 -1.331753 1.2882095e-39
0.74354857 -4.0245433 -1.2018719 2.2072819e-39
0.76007462 -4.0714135 -1.2246623 3.0338014e-39
0.78703129 -4.1233397 -1.2248641 2.3927466e-39
0.80686891 -4.1712108 -1.2512202 2.6664594e-39
0.8283295 -4.1662049 -1.24071 2.2083777e-39
0.83800179 -4.217329 -1.2728043 1.7506169e-39
0.84821129 -4.157052 -1.2459651 1.9332103e-39
0.86901176 -4.2055225 -1.2728043 1.6584213e-39
0.88111144 -4.143734 -1.2485927 1.3804065e-39
0.91632646 -4.1899123 -1.264819 1.3793275e-39
0.93183142 -4.1840091 -1.264819 1.1956565e-39
0.96042639 -4.2347627 -1.281605 8.2759706e-40
0.97613722 -4.2287807 -1.281605 7.3576157e-40
1.0939679 -4.1839175 -1.281605 4.6029053e-39
1.1253895 -4.1719537 -1.281605 2.8533618e-39
1.1489556 -4.162981 -1.281605 1.5655096e-39
1.1725218 -4.1540084 -1.281605 1.6562745e-39
1.196088 -4.1450357 -1.281605 1.563716e-39
1.2279062 -4.1941481 -1.3071511 1.563716e-39
0.78399014 -4.1878343 -1.2249446 1.8428098e-39
0.80694926 -4.1790929 -1.2249446 2.4849408e-39
0.82990843 -4.1703515 -1.2249446 2.856247e-39
0.8528676 -4.1616096 -1.2249446 2.669688e-39
0.88347977 -4.1499543 -1.2249446 1.6577039e-39
0.91872555 -4.1962137 -1.2408637 1.3818428e-39
0.93423051 -4.1903105 -1.2408637 1.4704455e-39
0.957488 -4.1814551 -1.2408637 6.4392607e-40
1.0963989 -4.1903028 -1.2573316 3.6809546e-39
1.1278205 -4.178339 -1.2573316 2.0257633e-39
1.1513866 -4.1693664 -1.2573316 1.5665858e-39
1.1749529 -4.1603937 -1.2573316 1.0130617e-39
1.198519 -4.1514211 -1.2573316 1.1041797e-39
0.79788446 -4.251843 -1.208923 1.1970914e-39
0.8085283 -4.1832399 -1.2091792 2.4842233e-39
0.82114196 -4.2429881 -1.208923 2.4838646e-39
0.83227688 -4.1765723 -1.2012964 3.4058069e-39
0.83625984 -4.1163149 -1.185954 3.0388292e-39
0.86288911 -4.164917 -1.2012964 2.4856582e-39
0.88584822 -4.1561751 -1.2012964 1.564795e-39
0.91646039 -4.1445198 -1.2012964 1.2871333e-39
0.95133507 -4.1886082 -1.2248933 7.350441e-40
1.09883 -4.1966877 -1.2330583 2.7600885e-39
1.1302515 -4.1847239 -1.2330583 1.4743916e-39
1.1538177 -4.1757512 -1.2330583 1.2889311e-39
1.1773839 -4.1667786 -1.2330583 1.1052559e-39
1.20095 -4.1578059 -1.2330583 1.0119855e-39
0.81142211 -4.3158631 -1.2006938 1.103821e-39
0.82354105 -4.249289 -1.1849676 2.4835059e-39
0.83543485 -4.1848664 -1.1697656 3.7753195e-39
0.84693265 -4.1216264 -1.1548258 3.0391824e-39
0.87037808 -4.1150436 -1.1470438 2.9448371e-39
0.891294 -4.1628065 -1.1723932 2.1168869e-39
0.91961837 -4.1528139 -1.1697656 1.380045e-39
0.94336677 -4.1461453 -1.1618829 8.2759847e-40
1.0785053 -4.2141733 -1.2006938 2.9423246e-39
1.1020714 -4.2052007 -1.2006938 2.4824297e-39
1.1334929 -4.1932368 -1.2006938 1.5647992e-39
1.1570591 -4.1842642 -1.2006938 1.5651551e-39
1.1806253 -4.1752915 -1.2006938 1.1052559e-39
1.221017 -4.2239389 -1.2169442 5.5352551e-40
0.82407594 -4.2010608 -1.1303521 3.586608e-39
0.82594025 -4.2555904 -1.1610122 2.1175988e-39
0.83859259 -4.1931601 -1.1382349 3.4072656e-39
0.85230893 -4.1281729 -1.1262918 3.0384649e-39
0.85468811 -4.1894054 -1.1303521 3.2192702e-39
0.88027143 -4.1183076 -1.1236976 3.1299459e-39
0.91996187 -4.1613874 -1.1408623 1.7481058e-39
0.94382721 -4.2155156 -1.1450418 1.1034637e-39
0.94494569 -4.1502924 -1.1461176 2.7766729e-40
0.95933223 -4.2096124 -1.1450418 6.4393168e-40
1.0601146 -4.1712399 -1.1450418 1.747387e-39
1.0809362 -4.2205582 -1.1764205 1.4718805e-39
1.1053126 -4.2137136 -1.1683294 1.9321341e-39
1.1367341 -4.2017498 -1.1683294 1.7481044e-39
1.1603003 -4.1927772 -1.1683294 2.1147331e-39
1.1838665 -4.1838045 -1.1683294 1.4722406e-39
1.2234809 -4.2304101 -1.1923423 4.6204874e-40
0.82565486 -4.2052078 -1.1145867 2.6664594e-39
0.83849108 -4.2652411 -1.1131012 2.113294e-39
0.84096092 -4.1993804 -1.1145867 2.6700565e-39
0.8539961 -4.2593374 -1.1131012 3.0352405e-39
0.85994375 -4.1330786 -1.1003516 3.3136126e-39
0.86242175 -4.1943746 -1.1040764 3.0391992e-39
0.883389 -4.1264958 -1.0925696 3.2217785e-39
0.92364615 -4.1710639 -1.1040764 1.565511e-39
0.94542652 -4.2197161 -1.1290716 1.1052573e-39
0.96093154 -4.2138128 -1.1290716 6.442848e-40
1.0625138 -4.1775408 -1.1210865 7.350441e-40
1.0857714 -4.1686859 -1.1210865 1.4704455e-39
1.1164094 -4.2192359 -1.1359649 2.1147359e-39
1.117581 -4.1589794 -1.1131012 1.7481044e-39
1.1423239 -4.2085571 -1.1386619 1.8395812e-39
1.1635417 -4.2012906 -1.1359649 1.9314209e-39
1.1871079 -4.192318 -1.1359649 1.196374e-39
0.80417764 -4.1683741 -1.0536594 8.2723833e-40
0.82115948 -4.2164154 -1.0830559 9.2015283e-40
0.81928819 -4.1626205 -1.0536594 1.8370771e-39
0.8456977 -4.2118211 -1.0672904 3.7767376e-39
0.85559553 -4.2635384 -1.097131 2.6704082e-39
0.86306131 -4.1412668 -1.0692235 3.5001535e-39
0.86557949 -4.2026682 -1.0725456 3.5001675e-39
0.88650644 -4.1346836 -1.0614414 2.1168813e-39
0.92909169 -4.1776953 -1.0751731 9.2123183e-40
1.043255 -4.1968985 -1.0811607 9.2554362e-41
1.0649129 -4.1838422 -1.097131 3.6806085e-40
1.0881705 -4.1749873 -1.097131 1.3786114e-39
1.111428 -4.166132 -1.097131 1.5633642e-39
1.150262 -4.2136574 -1.1116915 1.4733154e-39
1.1659727 -4.2076755 -1.1116915 1.2885682e-39
1.189539 -4.1987028 -1.1116915 1.103821e-39
1.2131051 -4.1897302 -1.1116915 4.6133128e-40
0.80651569 -4.1745148 -1.0303134 9.1943396e-40
0.82692283 -4.1675262 -1.0277193 2.8540904e-39
0.84727663 -4.2159681 -1.0515251 3.4054509e-39
0.86695814 -4.1515017 -1.0303134 1.9350068e-39
0.86258274 -4.2101402 -1.0515251 3.1299543e-39
0.889624 -4.1428719 -1.0303134 1.5655096e-39
0.93146014 -4.1839156 -1.0515251 1.473328e-39
1.0371017 -4.2040505 -1.0651904 9.219563e-41
1.0819945 -4.2469602 -1.0874182 5.5352551e-40
1.1134161 -4.2349968 -1.0874182 1.1978089e-39
1.1448376 -4.223033 -1.0874182 1.2889269e-39
1.1684037 -4.2140603 -1.0874182 1.1953062e-39
1.1890813 -4.2053757 -1.0901152 8.2867326e-40
0.80372679 -4.2396712 -1.027877 1.8403393e-40
0.78469777 -4.1360846 -0.97880244 5.5137311e-40
0.80885375 -4.1806555 -1.0069672 1.5630027e-39
0.8239643 -4.174902 -1.0069672 3.1299613e-39
0.85043448 -4.2242622 -1.0199943 3.406167e-39
0.86929619 -4.1576424 -1.0069672 2.208721e-39
0.86495119 -4.2163606 -1.027877 2.4871044e-39
0.87420917 -4.1020036 -0.97880244 1.4704483e-39
0.89196205 -4.1490126 -1.0069672 1.7484632e-39
0.92617553 -4.1930499 -1.027877 1.2896752e-39
0.95422357 -4.2428212 -1.041235 1.0137792e-39
1.0538142 -4.267437 -1.0550537 1.8403113e-40
1.0852357 -4.2554731 -1.0550536 1.1034623e-39
1.1166573 -4.2435098 -1.0550536 9.2158495e-40
1.1451902 -4.2318335 -1.0577507 1.471163e-39
1.1729282 -4.289175 -1.0611323 9.2086749e-40
1.1557885 -4.1660767 -1.041235 1.1038294e-39
1.1704937 -4.1580725 -1.0492201 1.0134205e-39
0.76938576 -4.0924029 -0.94388855 4.6025508e-40
0.78623688 -4.1401272 -0.96343625 6.4320861e-40
0.81041253 -4.1847496 -0.99140316 3.21532e-39
0.80192482 -4.1364675 -0.95575309 2.3923878e-39
0.83385789 -4.1781669 -0.98362112 3.5880443e-39
0.84744996 -4.121448 -0.94806999 2.118675e-39
0.86130077 -4.1669369 -0.98621517 2.1165254e-39
0.86905837 -4.1109071 -0.95575309 1.1970942e-39
0.90107614 -4.1502299 -0.99140316 1.1960152e-39
0.94111782 -4.2550254 -1.0172795 8.290348e-40
0.89143616 -4.102387 -0.95575309 1.196374e-39
0.93012267 -4.2034173 -0.9884634 1.0119855e-39
0.97064644 -4.3088498 -1.0226891 3.6913705e-40
1.0194424 -4.2276087 -1.0092944 3.6806085e-40
1.0403823 -4.2204375 -1.0066327 1.103105e-39
1.0641006 -4.2708311 -1.0307803 1.0116282e-39
1.0884771 -4.2639866 -1.0226892 8.2796561e-40
1.1198987 -4.2520232 -1.0226892 9.2086749e-40
1.1489719 -4.241766 -1.0199921 1.0119855e-39
1.1745708 -4.293489 -1.044731 1.1952978e-39
1.1748863 -4.2310867 -1.0226891 1.104198e-39
0.77439612 -4.1538906 -0.93270373 1.8403113e-40
0.78931463 -4.1482105 -0.93270373 8.268824e-40
0.81169248 -4.1396904 -0.93270373 2.5778539e-39
0.83619595 -4.1843076 -0.96027505 2.9441211e-39
0.84152955 -4.1283302 -0.93270373 2.3012698e-39
0.87136674 -4.1169696 -0.93270373 1.4736755e-39
0.94431657 -4.2634268 -0.98533893 1.0112681e-39
0.89374453 -4.1084495 -0.93270373 8.2759706e-40
0.93328065 -4.2117114 -0.9569326 8.2724674e-40
0.96142107 -4.2617245 -0.96936864 6.4356734e-40
0.97307748 -4.3152347 -0.99841577 8.268796e-40
1.0202097 -4.2972894 -0.99841577 1.8403253e-40
1.0177397 -4.2386785 -0.97469205 1.8403113e-40
1.0458988 -4.2271557 -0.97735375 3.6806786e-40
1.0769088 -4.2153487 -0.97735375 8.279558e-40
1.1152847 -4.2635274 -0.99032468 1.1978299e-39
1.1211063 -4.1993222 -0.97469205 6.4500227e-40
1.1569099 -4.2468667 -0.99302173 2.7622535e-40
0.78798503 -4.2167263 -0.91358286 9.219563e-41
0.791623 -4.1542735 -0.90965438 1.7455989e-39
0.81400084 -4.1457529 -0.90965438 2.8544576e-39
0.84383792 -4.1343927 -0.90965438 2.5760602e-39
0.87367511 -4.1230326 -0.90965438 1.3800492e-39
0.8960529 -4.1145124 -0.90965438 1.1027448e-39
0.9232012 -4.1629 -0.9213649 1.0112723e-39
0.95016569 -4.2100306 -0.94116718 3.6806085e-40
0.99202937 -4.3177662 -0.96605134 1.8374302e-39
0.93909115 -4.1591935 -0.91358286 6.442848e-40
0.98992842 -4.2588868 -0.94275147 1.2882263e-39
1.0180876 -4.247364 -0.94541317 3.6770492e-40
1.0490975 -4.2355571 -0.94541317 3.6841958e-40
1.0801076 -4.2237501 -0.94541317 5.5173184e-40
1.1033652 -4.2148952 -0.94541317 7.3648884e-40
1.1237719 -4.2063236 -0.94807494 8.2867606e-40
1.1648479 -4.2519665 -0.96605134 3.6770212e-40
0.75564492 -4.1227727 -0.86042339 1.8403113e-40
0.7790131 -4.1660166 -0.88660502 5.5137731e-40
0.77037829 -4.1171632 -0.86042339 1.2860627e-39
0.79470098 -4.1623578 -0.87892193 2.4853289e-39
0.81707883 -4.1538372 -0.87892193 3.0391936e-39
0.84404504 -4.0891147 -0.86042339 2.5753428e-39
0.84417295 -4.1427503 -0.88148296 2.2080078e-39
0.87675309 -4.1311169 -0.87892187 1.2885682e-39
0.90659016 -4.1197567 -0.87892193 5.5245631e-40
0.95411295 -4.2203975 -0.90175366 3.6841958e-40
0.98172432 -4.2684236 -0.92145777 1.562281e-39
1.0109816 -4.3202977 -0.93368685 1.2860613e-39
1.0204868 -4.253665 -0.92145777 2.7586662e-40
1.0514967 -4.241858 -0.92145777 2.7622535e-40
1.0825068 -4.230051 -0.92145777 4.6025508e-40
1.1057644 -4.2211962 -0.92145777 3.6985451e-40
1.1212693 -4.2152925 -0.92145777 2.7766028e-40
1.1594235 -4.261342 -0.94177794 6.4428761e-40
0.73429197 -4.0842123 -0.81983179 1.5619475e-39
0.75792456 -4.1287599 -0.83766013 5.5173184e-40
0.77265793 -4.1231503 -0.83766013 1.8392225e-39
0.79777884 -4.1704412 -0.84818941 3.1324528e-39
0.81609821 -4.1043258 -0.84524792 2.6668195e-39
0.81792688 -4.1635413 -0.84562832 2.6693433e-39
0.84556496 -4.0931067 -0.84524792 2.1158051e-39
0.8477639 -4.1521811 -0.84562832 1.8388637e-39
0.87983096 -4.1392002 -0.84818935 1.1045385e-39
0.90220875 -4.1306801 -0.84818941 9.1979129e-40
0.92943621 -4.179276 -0.85910863 5.5173184e-40
0.95648128 -4.2266183 -0.87810552 4.6025508e-40
0.99187595 -4.2717729 -0.8975023 1.1031092e-39
1.0228859 -4.2599664 -0.8975023 1.8403113e-40
1.0538958 -4.2481594 -0.8975023 3.6770212e-40
1.0849059 -4.2363524 -0.8975023 9.1907383e-40
1.1081635 -4.2274976 -0.8975023 1.2864172e-39
1.1285702 -4.218926 -0.90016401 1.1031036e-39
1.1556199 -4.2749748 -0.90132236 1.0112695e-39
0.75283778 -4.1375527 -0.81489688 8.2688941e-40
0.78122187 -4.1867723 -0.81489587 2.300195e-39
0.80085671 -4.178525 -0.8174569 3.5905821e-39
0.82323456 -4.1700048 -0.8174569 2.3016495e-39
0.85012436 -4.1050816 -0.79972142 1.0116394e-39
0.8503288 -4.1589179 -0.82001793 1.932144e-39
0.88290882 -4.147284 -0.8174569 1.1045483e-39
0.90528661 -4.1387639 -0.8174569 9.2086749e-40
0.93255365 -4.1874638 -0.82798052 4.6061661e-40
0.95884973 -4.2328386 -0.85445744 2.7622535e-40
0.96355432 -4.1780043 -0.82019848 2.7623516e-40
0.98180884 -4.2240973 -0.85445744 2.7622535e-40
0.97866493 -4.1722507 -0.82019848 1.8438986e-40
1.0101331 -4.2141047 -0.85182983 1.8403113e-40
1.0330377 -4.2633157 -0.87354684 2.7622535e-40
1.0361695 -4.2057738 -0.84657472 3.6806085e-40
1.056295 -4.2544608 -0.87354684 1.1945803e-39
1.0514756 -4.1999459 -0.84657472 4.6025508e-40
1.0881048 -4.2447543 -0.86556172 6.4356734e-40
1.1113625 -4.2358994 -0.86556172 1.0109093e-39
1.13462 -4.2270441 -0.86556172 7.3540284e-40
0.76324415 -4.1427312 -0.78454596 1.1942384e-39
0.78429985 -4.1948566 -0.78416342 2.3020125e-39
0.80393469 -4.1866093 -0.78672445 3.1292312e-39
0.82631254 -4.1780891 -0.78672445 2.1175988e-39
0.84283525 -4.1154747 -0.77442896 1.8420965e-39
0.8628394 -4.1618676 -0.79440755 2.483866e-39
0.86789739 -4.1074557 -0.76937044 5.5244931e-40
0.88821673 -4.153748 -0.78928548 5.5246192e-40
0.91582388 -4.1440082 -0.78672445 5.5173184e-40
0.96121806 -4.239059 -0.83080935 3.6913705e-40
0.94343102 -4.1342683 -0.78416342 2.7586662e-40
0.9651131 -4.1820984 -0.80463445 3.6986432e-40
0.9934091 -4.2315502 -0.81504393 3.6806085e-40
0.96880811 -4.1261487 -0.77904135 2.7622535e-40
0.99533421 -4.1705918 -0.80463445 6.4356734e-40
1.0178666 -4.2190728 -0.82555419 4.6025648e-40
1.0393273 -4.2140675 -0.81504393 2.7622535e-40
1.0594939 -4.2628627 -0.84160632 8.2759706e-40
1.0546334 -4.2082396 -0.81504393 2.7622676e-40
1.0913036 -4.2531557 -0.83362114 5.5137311e-40
1.0989728 -4.1866097 -0.83080935 3.6807486e-40
1.1153611 -4.2464018 -0.82563597 3.6807486e-40
1.1378187 -4.2354455 -0.83362114 5.5173184e-40
0.75967705 -4.1555157 -0.74660724 1.1942216e-39
0.78694147 -4.1458964 -0.74407798 2.4896113e-39
0.80624306 -4.1926718 -0.76367509 3.4072488e-39
0.81937039 -4.1350732 -0.73901951 2.6693362e-39
0.82862091 -4.1841516 -0.76367509 2.6707712e-39
0.84807718 -4.1218581 -0.74660718 2.3934682e-39
0.87534165 -4.1122389 -0.74407798 8.2759706e-40
0.89575446 -4.1585908 -0.76367509 3.6770212e-40
0.91890162 -4.1520915 -0.755992 5.5137311e-40
0.94873869 -4.1407313 -0.755992 1.8403113e-40
0.97857577 -4.1293712 -0.755992 2.7586662e-40
0.99689299 -4.1746855 -0.78907037 2.7622535e-40
1.0009536 -4.120851 -0.755992 6.4320861e-40
1.0225968 -4.1664615 -0.78388238 6.442848e-40
1.0570018 -4.2144604 -0.79139578 6.4356874e-40
1.0945026 -4.2615576 -0.80168056 5.5173184e-40
1.1177602 -4.2527027 -0.80168056 4.6025508e-40
1.1410177 -4.2438474 -0.80168056 3.6877832e-40
0.76271665 -4.1634989 -0.71625626 1.6537592e-39
0.79218334 -4.1522799 -0.71625626 4.0508147e-39
0.81894118 -4.1413302 -0.71878552 3.3143301e-39
0.81905854 -4.0880504 -0.69992566 3.4061656e-39
0.85111678 -4.1298413 -0.71625626 2.2119454e-39
0.88058352 -4.1186223 -0.71625626 9.2122622e-40
0.90268356 -4.1102076 -0.71625626 8.2831453e-40
0.92258132 -4.1033936 -0.713727 5.5209058e-40
0.9510473 -4.1467948 -0.73294258 4.6025508e-40
0.94764352 -4.0953746 -0.70866847 5.5316677e-40
0.98165375 -4.1374555 -0.72525948 4.6026349e-40
1.0040315 -4.1289353 -0.72525948 5.5209058e-40
1.031011 -4.1734138 -0.75016022 1.1027448e-39
1.0461216 -4.1676602 -0.75016022 9.1943256e-40
1.0754657 -4.2169266 -0.75986499 6.4320861e-40
1.0899825 -4.2090254 -0.7677477 3.6841958e-40
1.1201594 -4.2590041 -0.7777251 4.6025508e-40
1.1434169 -4.2501488 -0.7777251 6.4356734e-40
1.1826754 -4.298789 -0.78804666 2.2994761e-39
1.1983861 -4.2928071 -0.78804666 3.2199905e-39
1.2219523 -4.2838345 -0.78804666 1.4697281e-39
0.76764321 -4.2258801 -0.70221013 4.5953761e-40
0.76846522 -4.1712132 -0.68337601 1.7463122e-39
0.79522306 -4.1602631 -0.68590528 4.1415782e-39
0.82248753 -4.1506443 -0.68337601 3.4983626e-39
0.82055962 -4.0919929 -0.68493736 3.7717139e-39
0.84678978 -4.1406298 -0.68590528 3.5869709e-39
0.85551405 -4.0816936 -0.67494518 2.5775036e-39
0.88582546 -4.1250052 -0.68843448 1.8402986e-39
0.90572327 -4.1181912 -0.68590528 1.1967327e-39
0.92782331 -4.1097765 -0.68590528 8.279558e-40
0.95508772 -4.1001577 -0.68337601 6.4356734e-40
0.98396212 -4.1435184 -0.70221013 7.3576157e-40
1.0063399 -4.1349983 -0.70221013 9.1979129e-40
1.0341284 -4.181602 -0.71903211 1.0112681e-39
1.0567944 -4.1729722 -0.71903211 1.0109121e-39
1.1070534 -4.2712083 -0.75376964 5.5173184e-40
1.1225585 -4.265305 -0.75376964 4.5990475e-40
1.1253313 -4.2098107 -0.72045141 8.2831453e-40
1.145816 -4.2564497 -0.75376964 7.3540284e-40
1.1851064 -4.3051744 -0.76377326 3.2178325e-39
1.2000067 -4.2970638 -0.77186441 4.2316173e-39
1.2214947 -4.2905073 -0.76647031 2.5724715e-39
0.77072108 -4.233964 -0.67147768 3.6807486e-40
0.77616262 -4.176661 -0.65555429 1.9296286e-39
0.79826266 -4.1682467 -0.65555429 4.0508119e-39
0.82772934 -4.1570277 -0.65555429 3.4983823e-39
0.85719609 -4.1458082 -0.65555429 3.0391992e-39
0.88446063 -4.1361895 -0.65302503 2.1183275e-39
0.90498805 -4.1828427 -0.67147768 2.7586536e-39
0.90952283 -4.1281705 -0.64796656 1.8399399e-39
0.91990656 -4.1771626 -0.67147768 1.3789688e-39
0.92815423 -4.1180301 -0.65808356 1.0123513e-39
0.95956987 -4.1045451 -0.66314203 4.6025508e-40
0.99372977 -4.1467409 -0.67916077 8.279558e-40
1.0161076 -4.1382208 -0.67916077 7.361217e-40
1.0384854 -4.1297002 -0.67916077 8.279614e-40
1.0674672 -4.1782832 -0.687904 5.5137311e-40
1.1094526 -4.2775097 -0.72981423 8.2759706e-40
1.0984679 -4.1688242 -0.68012196 6.4357435e-40
1.1039511 -4.2226992 -0.70468599 7.3540284e-40
1.1249577 -4.2716064 -0.72981423 6.442848e-40
1.1269102 -4.2139578 -0.70468599 4.6061381e-40
1.1567672 -4.2618999 -0.72182906 1.3782513e-39
1.1875372 -4.3115587 -0.73949993 2.4827898e-39
1.1730721 -4.2580967 -0.71384388 1.9310622e-39
1.2040583 -4.3077049 -0.73140877 1.471163e-39
1.2184184 -4.3607674 -0.76590967 2.3909543e-39
1.2276245 -4.2987323 -0.73140877 2.3884418e-39
1.2502651 -4.3486419 -0.76590967 3.0338028e-39
1.2670097 -4.3447361 -0.75770903 3.67701e-39
0.77225995 -4.2380056 -0.65611142 3.6771613e-40
0.7718358 -4.1874495 -0.62520337 5.5137591e-40
0.80130249 -4.1762304 -0.62520337 2.4863799e-39
0.83076918 -4.1650114 -0.62520337 3.4065369e-39
0.86023593 -4.1537919 -0.62520337 2.947019e-39
0.88970268 -4.1425729 -0.62520337 1.9350124e-39
0.91180271 -4.1341581 -0.62520337 2.3001936e-39
0.93390274 -4.1257439 -0.62520337 1.7499037e-39
0.96174127 -4.1674051 -0.65098935 1.1978089e-39
0.96607834 -4.1142554 -0.62267411 1.2889353e-39
0.9915784 -4.1560445 -0.65098935 1.1038294e-39
1.0191855 -4.1463051 -0.64842826 8.2867747e-40
1.0415634 -4.1377845 -0.64842826 5.5280804e-40
1.0705848 -4.1864715 -0.65677583 3.6841958e-40
1.0856954 -4.1807179 -0.65677583 5.5210038e-40
1.097877 -4.2297602 -0.68892062 5.5209058e-40
1.1361423 -4.2151909 -0.68892062 1.4700868e-39
1.1606802 -4.2105961 -0.67315525 2.3009293e-39
1.1832237 -4.2614465 -0.68988854 2.9423274e-39
1.2064893 -4.3140903 -0.7071355 2.4806374e-39
1.2150334 -4.25174 -0.68190336 4.2255104e-39
1.2300556 -4.3051176 -0.7071355 2.939096e-39
0.77563536 -4.1974292 -0.5872646 1.1963894e-39
0.79179549 -4.2444515 -0.61001271 2.7730155e-40
0.80434209 -4.1842141 -0.59485239 5.5209058e-40
0.81501454 -4.1211886 -0.59500778 1.6537578e-39
0.83380878 -4.1729951 -0.59485239 2.3041439e-39
0.8310672 -4.1195903 -0.58001953 8.268852e-40
0.86107332 -4.1633759 -0.59232312 2.1194107e-39
0.86594504 -4.1017971 -0.59500778 2.4888924e-39
0.89350224 -4.1525526 -0.5872646 1.8403113e-40
0.8877725 -4.0934863 -0.59500778 1.0119855e-39
0.91484231 -4.1421418 -0.59485239 5.5173324e-40
0.93694228 -4.1337276 -0.59485239 2.7622535e-40
0.95904231 -4.1253128 -0.59485239 2.7623236e-40
0.99516934 -4.1654758 -0.61513472 6.4356874e-40
1.0222634 -4.1543889 -0.61769575 7.3613011e-40
1.0446413 -4.1458683 -0.61769575 3.6841958e-40
1.0729228 -4.1926122 -0.63342977 3.6877832e-40
1.0677885 -4.139369 -0.61001271 9.219563e-41
1.0880334 -4.1868587 -0.63342977 3.684392e-40
1.1630486 -4.2168169 -0.64950716 2.6722215e-39
1.194175 -4.2668962 -0.6579479 3.6805959e-39
1.2097563 -4.201407 -0.64162439 5.6091595e-39
1.2145817 -4.2583246 -0.66060966 5.2407287e-39
0.77715516 -4.2014208 -0.57208914 2.3020083e-39
0.80662185 -4.1902018 -0.57208914 1.012703e-39
0.81224197 -4.1357861 -0.55004299 5.5173184e-40
0.83608854 -4.1789827 -0.57208914 7.3504691e-40
0.84134513 -4.1247053 -0.55004299 4.6025788e-40
0.86555529 -4.1677632 -0.57208914 3.6806225e-40
0.86317253 -4.1163945 -0.55004299 1.8475139e-40
0.89502203 -4.1565442 -0.57208914 2.7586802e-40
0.91712207 -4.1481295 -0.57208914 4.5954182e-40
0.93185538 -4.14252 -0.57208914 4.5989635e-40
0.95897728 -4.1900539 -0.5792802 2.7586662e-40
0.96132213 -4.1313004 -0.57208914 2.7588344e-40
0.9955042 -4.1738329 -0.5869633 1.8403113e-40
1.0253413 -4.1624727 -0.5869633 9.2198432e-41
1.0477191 -4.1539521 -0.5869633 1.8403393e-40
1.0700969 -4.145432 -0.5869633 1.8403113e-40
1.1364828 -4.1777868 -0.60230166 1.2868082e-39
1.1888218 -4.2761493 -0.63399243 3.4998158e-39
1.2113353 -4.205554 -0.62585902 3.6770212e-39
1.2120793 -4.2672944 -0.63399243 3.861397e-39
0.7395398 -4.1154556 -0.52121943 2.2083581e-39
0.76431376 -4.163063 -0.52006638 2.6700495e-39
0.77943504 -4.2074084 -0.54932588 2.3916928e-39
0.7861411 -4.1547523 -0.52006638 1.4729581e-39
0.80153507 -4.1989942 -0.54932588 1.0119925e-39
0.81216455 -4.090034 -0.51381534 6.4429461e-40
0.81181824 -4.1419668 -0.53005862 6.4392607e-40
0.82654124 -4.0845604 -0.51381534 8.2723833e-40
0.84577191 -4.1290388 -0.53005862 3.6806225e-40
0.870525 -4.121119 -0.5250625 2.7586662e-40
0.89509964 -4.1641316 -0.54679662 1.8403113e-40
0.91576076 -4.2111363 -0.563914 1.8403253e-40
0.92016166 -4.1561127 -0.54173815 1.8403393e-40
0.93813854 -4.2026162 -0.563914 1.8403113e-40
0.9422617 -4.1476984 -0.54173815 3.6770212e-40
0.96797556 -4.191256 -0.563914 2.7586662e-40
0.96436173 -4.1392837 -0.54173815 1.8403673e-40
0.99858218 -4.1819167 -0.55623084 1.8403113e-40
1.0284193 -4.1705565 -0.55623084 1.8403113e-40
1.0507971 -4.1620359 -0.55623084 1.8403113e-40
1.0724053 -4.151495 -0.563914 9.219563e-41
1.1770172 -4.2304902 -0.58644551 3.955029e-39
1.1904211 -4.2803497 -0.6180222 3.4969403e-39
1.2144784 -4.2735958 -0.61003703 3.0334552e-39
0.76731592 -4.170948 -0.49008986 3.0374153e-39
0.77586794 -4.2201934 -0.51138711 1.8417336e-39
0.7883926 -4.160666 -0.49758399 1.1960152e-39
0.80645931 -4.0966663 -0.49900723 3.6842379e-40
0.81824642 -4.1515565 -0.49008986 4.5953902e-40
0.84659892 -4.138504 -0.49758399 2.7586662e-40
0.87570208 -4.1274233 -0.49758399 1.8403113e-40
0.90694821 -4.1657143 -0.52656263 2.7622535e-40
0.89752954 -4.1191125 -0.49758399 1.8403113e-40
0.92244154 -4.1621008 -0.5189749 1.8439126e-40
0.94454157 -4.1536865 -0.5189749 9.219563e-41
0.97400826 -4.142467 -0.5189749 9.2197031e-41
1.0091192 -4.1871605 -0.52549827 1.8474859e-40
1.031497 -4.1786404 -0.52549827 1.8403113e-40
1.0538749 -4.1701198 -0.52549827 1.8403113e-40
1.0814961 -4.2151294 -0.54782748 9.2198432e-41
1.1254469 -4.3195176 -0.57011127 1.8474859e-40
1.0770221 -4.1636205 -0.51781517 9.219563e-41
1.1120872 -4.2670827 -0.54703194 1.8403113e-40
1.1088327 -4.1499667 -0.5229373 1.0119855e-39
1.1411591 -4.1900687 -0.55560952 2.5757001e-39
1.1359268 -4.1388793 -0.52549827 3.4940663e-39
1.1562697 -4.1843157 -0.55560952 3.5891303e-39
1.1583047 -4.1303592 -0.52549827 3.4018608e-39
1.179715 -4.1777329 -0.54782748 2.6657419e-39
1.2023448 -4.2279696 -0.56279737 1.7473912e-39
1.2168776 -4.2798967 -0.58608162 2.6650525e-39
0.77031809 -4.178833 -0.46011335 2.5796545e-39
0.75251865 -4.0810432 -0.4345293 2.1204827e-39
0.77877039 -4.1176147 -0.46445501 1.1967327e-39
0.79942119 -4.1677523 -0.46011335 4.5989635e-40
0.82049793 -4.1574702 -0.46760747 1.8403113e-40
0.8468501 -4.094667 -0.4545829 1.8403113e-40
0.84692574 -4.1466556 -0.47010547 1.8403113e-40
0.87870425 -4.1353083 -0.46760747 9.219563e-41
0.90563244 -4.1258082 -0.46510941 9.219563e-41
0.92548114 -4.170084 -0.48862386 9.219563e-41
0.93766135 -4.115118 -0.46011335 1.8403113e-40
0.94758117 -4.1616697 -0.48862386 9.219563e-41
0.97704786 -4.1504502 -0.48862386 1.8403113e-40
0.99914783 -4.142036 -0.48862386 1.8403113e-40
1.0345749 -4.1867242 -0.49476585 1.8403253e-40
1.0569527 -4.1782036 -0.49476585 9.219563e-41
1.0654479 -4.1167927 -0.48862386 9.219563e-41
1.0883079 -4.1103745 -0.48103613 5.5137311e-40
1.1113976 -4.1567035 -0.49732685 1.4708043e-39
1.1367748 -4.1485834 -0.49220484 3.7720839e-39
1.160946 -4.1965981 -0.50891727 4.3231123e-39
1.1770706 -4.1347842 -0.48708272 1.6548354e-39
1.1836119 -4.1879678 -0.50891727 2.389518e-39
0.73602062 -4.0946689 -0.41014349 1.9314251e-39
0.76181912 -4.0841117 -0.4125821 1.287862e-39
0.78652877 -4.1235809 -0.4348388 7.3540284e-40
0.79096228 -4.0752192 -0.40526637 2.7586942e-40
0.81098413 -4.1157556 -0.42990273 3.6770352e-40
0.83002549 -4.160614 -0.44512507 2.7587363e-40
0.84452975 -4.1029835 -0.42990273 2.7586802e-40
0.84457707 -4.1550732 -0.44512507 2.7622535e-40
0.87782806 -4.0895619 -0.43237072 9.219563e-41
0.87443078 -4.1459637 -0.43763092 9.2202636e-41
0.90813428 -4.1323791 -0.44012895 9.219563e-41
0.907323 -4.0805621 -0.42496669 9.219563e-41
0.93723744 -4.1212983 -0.44012895 9.219563e-41
0.9360764 -4.0696144 -0.42496669 1.8403113e-40
0.9663406 -4.1102176 -0.44012895 9.2197031e-41
0.97932762 -4.1564379 -0.46586066 9.2197031e-41
1.0095543 -4.1472149 -0.45827287 9.2558566e-41
1.0390209 -4.1359954 -0.45827287 9.219563e-41
1.0657787 -4.1250458 -0.46080217 1.8403113e-40
1.0898277 -4.1143661 -0.46586066 4.5953761e-40
1.1189353 -4.1615462 -0.47171646 2.38809e-39
1.1413132 -4.1530261 -0.47171646 3.9568353e-39
1.163691 -4.144506 -0.47171646 2.4810017e-39
1.18595 -4.194109 -0.48557121 2.0232522e-39
0.73633945 -4.1026263 -0.38331911 1.6580808e-39
0.75764728 -4.0945134 -0.38331911 7.361217e-40
0.78089893 -4.1376166 -0.39535046 1.8403253e-40
0.79528362 -4.0794492 -0.38575771 1.8403253e-40
0.82254589 -4.1173 -0.41015857 1.8403113e-40
0.82157063 -4.0701752 -0.38331911 1.8403113e-40
0.84270364 -4.1125984 -0.40028653 1.8403393e-40
0.8621307 -4.1574178 -0.41514859 3.6770212e-40
0.86715901 -4.1047735 -0.39535046 1.8403253e-40
0.8868838 -4.149498 -0.41015247 1.8403113e-40
0.89442933 -4.089931 -0.41015857 9.219563e-41
0.91456234 -4.1419687 -0.40016031 1.8403113e-40
0.90880597 -4.0844569 -0.41015857 9.2197031e-41
0.93563932 -4.1316872 -0.40765446 1.8403813e-40
0.94334042 -4.0742817 -0.40028653 1.8403113e-40
0.97419327 -4.1162558 -0.41015247 9.2199834e-41
0.98973411 -4.1616168 -0.43550968 9.219563e-41
0.99459606 -4.1114964 -0.40016031 9.219563e-41
1.0125939 -4.1551981 -0.42792198 1.8403533e-40
1.0474205 -4.1980309 -0.44098401 9.219563e-41
1.0447694 -4.1437097 -0.42539272 9.219563e-41
1.0866903 -4.1815367 -0.44610608 1.8403113e-40
1.1137844 -4.1704493 -0.44866714 2.1151087e-39
1.1436216 -4.1590891 -0.44866714 4.3227283e-39
1.1659994 -4.150569 -0.44866714 2.5749854e-39
1.1958435 -4.1973734 -0.46222508 1.2871347e-39
0.7321676 -4.1130276 -0.35405615 1.936474e-39
0.76230007 -4.1536179 -0.36573425 5.5209058e-40
0.79031187 -4.1407223 -0.37313831 1.8438986e-40
0.82170856 -4.1295118 -0.37067032 9.219563e-41
0.831604 -4.0751681 -0.35405615 1.8403813e-40
0.85426539 -4.1141429 -0.38054237 9.220684e-41
0.84580922 -4.0697594 -0.35405615 9.2197031e-41
0.87657195 -4.1078796 -0.37313831 9.219563e-41
0.89813697 -4.099669 -0.37313831 9.219563e-41
0.91970199 -4.0914578 -0.37313831 9.219563e-41
0.94845533 -4.0805106 -0.37313831 9.219563e-41
0.97002035 -4.0722995 -0.37313831 9.2197031e-41
1.0019484 -4.1162205 -0.37517986 9.2201235e-41
1.0230002 -4.1603775 -0.39757097 9.2204038e-41
1.0267013 -4.1083007 -0.3701838 9.219563e-41
1.0451003 -4.1519628 -0.39757097 9.219563e-41
1.0723648 -4.142344 -0.39504167 1.8403113e-40
1.0892552 -4.1882734 -0.42049563 9.219563e-41
1.1121603 -4.128715 -0.38998324 6.3427491e-39
1.1168623 -4.1785331 -0.41793463 3.7684881e-39
1.1439565 -4.1674461 -0.42049563 3.7692042e-39
1.1683078 -4.1566319 -0.42561775 1.5644334e-39
0.72162569 -4.128058 -0.31747743 1.2871333e-39
0.72858298 -4.1731448 -0.3435221 2.0239696e-39
0.74220085 -4.118021 -0.32479319 7.361203e-40
0.76378304 -4.1575127 -0.35092613 6.4392607e-40
0.77061129 -4.107204 -0.32479319 4.5954042e-40
0.79253644 -4.146565 -0.35092613 2.7586662e-40
0.79689842 -4.09793 -0.32235461 2.7586662e-40
0.82203138 -4.1375651 -0.3435221 1.8403113e-40
0.8281647 -4.0874939 -0.31747743 1.8403393e-40
0.84433788 -4.1313019 -0.33611804 1.8403113e-40
0.84873986 -4.077457 -0.32479319 2.7586662e-40
0.87953812 -4.1156697 -0.3435221 1.8403113e-40
0.90110314 -4.1074591 -0.3435221 2.7586662e-40
0.90556067 -4.0558228 -0.32479319 2.7586802e-40
0.92481697 -4.0976868 -0.34599015 1.8403393e-40
0.94877815 -4.0885639 -0.34599015 1.8403113e-40
0.98454779 -4.1288643 -0.35519552 9.2199834e-41
1.0063751 -4.120554 -0.35519552 9.219563e-41
1.0282024 -4.1122432 -0.35519552 1.8403113e-40
1.0555066 -4.1571412 -0.36721998 9.219563e-41
1.0776067 -4.1487269 -0.36722004 1.3782513e-39
1.1070733 -4.1375074 -0.36722004 5.242521e-39
1.1117115 -4.1874361 -0.3948853 3.122767e-39
1.1423181 -4.1780972 -0.38720217 4.5053259e-39
0.64533782 -4.1124754 -0.284805 2.7622535e-40
0.67341208 -4.1017861 -0.284805 4.5953761e-40
0.67892987 -4.0473342 -0.28146484 5.5210879e-40
0.70568269 -4.0880475 -0.28962445 9.1943817e-40
0.72309113 -4.131907 -0.30284593 1.5658796e-39
0.74359781 -4.0750632 -0.284805 2.7586662e-40
0.74251997 -4.1259785 -0.29796875 8.279558e-40
0.75691104 -4.0678172 -0.29203418 3.6806505e-40
0.78064466 -4.1121969 -0.29553017 1.8403113e-40
0.80195236 -4.104084 -0.29553017 1.8403113e-40
0.8303628 -4.093267 -0.29553017 9.2197031e-41
0.85877323 -4.0824499 -0.29553023 9.219563e-41
0.88465315 -4.1218987 -0.31637394 1.8403113e-40
0.88791633 -4.0735574 -0.28821447 1.8403113e-40
0.90406919 -4.1152492 -0.31390586 1.8403113e-40
0.90849143 -4.06352 -0.29553017 9.219563e-41
0.93282253 -4.1043015 -0.31390586 1.8403533e-40
0.95223856 -4.0976524 -0.31143788 1.8403113e-40
0.97952372 -4.1375484 -0.33271313 1.8403113e-40
1.0086268 -4.1264677 -0.33271313 9.219563e-41
1.03773 -4.115387 -0.33271313 1.8403113e-40
1.0748595 -4.1035075 -0.32521901 4.5942915e-39
1.0779375 -4.15698 -0.33939832 1.746315e-39
1.110113 -4.1454911 -0.33686903 5.3347222e-39
1.1329731 -4.1390729 -0.32928133 2.7579403e-39
1.145396 -4.1861806 -0.35646966 3.3100253e-39
0.61311281 -4.1847968 -0.26626715 3.3139798e-39
0.63442057 -4.1766839 -0.26626715 2.022899e-39
0.65380454 -4.1136065 -0.27034652 1.8403113e-40
0.66356367 -4.1677909 -0.25895146 7.361203e-40
0.68187886 -4.1029172 -0.27034652 4.6025508e-40
0.6919741 -4.1569738 -0.25895146 1.8403113e-40
0.71067709 -4.0941296 -0.26311737 5.5173324e-40
0.74133211 -4.0831833 -0.26070759 3.6770212e-40
0.7402271 -4.1341953 -0.27358291 3.6841958e-40
0.76682568 -4.0727515 -0.26311731 2.7586802e-40
0.78860533 -4.0666361 -0.25588813 1.8404514e-40
0.80700642 -4.1102386 -0.26870573 1.8403673e-40
0.83329344 -4.1009645 -0.26626715 1.8403113e-40
0.86170387 -4.0901475 -0.26626715 9.219563e-41
0.89011431 -4.0793304 -0.26626715 2.7586662e-40
0.91852468 -4.0685134 -0.26626715 1.8403113e-40
0.93504697 -4.1101441 -0.29169372 1.8403253e-40
0.93909997 -4.058476 -0.27358291 1.8403113e-40
0.95950258 -4.1023197 -0.28675771 1.8403113e-40
0.9898017 -4.142663 -0.30273661 9.219563e-41
0.99403685 -4.092144 -0.27688554 9.219563e-41
1.011629 -4.1343527 -0.30273661 9.219563e-41
1.0227902 -4.0811968 -0.27688554 9.2209643e-41
1.0407321 -4.1232719 -0.30273661 9.2198432e-41
1.083686 -4.1646938 -0.30651808 3.494418e-39
1.1131526 -4.1534743 -0.30651808 5.0581395e-39
0.57155836 -4.3131919 -0.26526588 3.6770212e-40
0.57859629 -4.2547803 -0.26207745 2.2962475e-39
0.59188467 -4.3009391 -0.28025413 9.187151e-40
0.62186527 -4.3473849 -0.28375483 2.2058596e-39
0.60305172 -4.2469559 -0.25714138 6.166271e-39
0.61604357 -4.1924939 -0.23700421 7.3597947e-39
0.63947475 -4.1828384 -0.23944278 5.9793728e-39
0.66576183 -4.173564 -0.23700415 2.2098014e-39
0.6941722 -4.1627469 -0.23700415 2.7586942e-40
0.71357304 -4.1017356 -0.23420049 1.8403113e-40
0.7416473 -4.0910468 -0.23420055 2.7586662e-40
0.76972163 -4.0803576 -0.23420049 2.7586942e-40
0.79569781 -4.0711932 -0.23179074 1.8403113e-40
0.81418377 -4.11485 -0.24431996 1.8403393e-40
0.8362242 -4.1086617 -0.23700421 1.8403673e-40
0.86463463 -4.0978446 -0.23700421 1.8403113e-40
0.89304507 -4.0870275 -0.23700415 9.219563e-41
0.92145544 -4.0762105 -0.23700421 1.8403113e-40
0.94349593 -4.0700221 -0.22968845 1.8438986e-40
0.96031964 -4.1116714 -0.25467339 9.219563e-41
0.99205333 -4.1485772 -0.28025413 9.2197031e-41
0.98188466 -4.1034603 -0.25467339 1.8404094e-40
1.0173066 -4.1419716 -0.27026194 1.8403113e-40
1.0464098 -4.1308908 -0.27026194 1.8403113e-40
1.0701619 -4.1203427 -0.275258 3.6759338e-39
1.1154325 -4.1594625 -0.28375483 4.7804905e-39
0.58070481 -4.3721972 -0.25340381 4.5953902e-40
0.5830453 -4.2664657 -0.21765313 4.1329589e-39
0.5956375 -4.3107953 -0.24278347 6.0780046e-39
0.61105716 -4.2535706 -0.22505717 7.9133034e-39
0.63526547 -4.2450967 -0.22258918 8.096987e-39
0.6473847 -4.1893744 -0.20774126 7.9158005e-39
0.66869253 -4.1812615 -0.20774126 2.0247039e-39
0.69541335 -4.1173592 -0.20528375 2.7586662e-40
0.69000036 -4.1731486 -0.20774126 2.7622535e-40
0.71646911 -4.1093421 -0.20528379 1.8438986e-40
0.74454337 -4.0986533 -0.20528379 1.8403113e-40
0.77003682 -4.0882211 -0.2076935 1.8403533e-40
0.79016936 -4.1372132 -0.20042551 4.5953761e-40
0.79859376 -4.0787992 -0.20287403 2.7586662e-40
0.81711453 -4.1225476 -0.215057 1.8438986e-40
0.82247168 -4.0711594 -0.19805457 1.8403113e-40
0.84127831 -4.1148162 -0.21017988 9.219563e-41
0.86756539 -4.1055422 -0.20774126 9.219563e-41
0.89597583 -4.0947251 -0.20774126 9.219563e-41
0.9243862 -4.0839081 -0.20774126 1.8403113e-40
0.95279658 -4.0730906 -0.20774126 9.219563e-41
0.96973258 -4.1147771 -0.23246123 1.8403113e-40
0.98989028 -4.110076 -0.22258918 9.2202636e-41
1.0176334 -4.1501231 -0.24278347 9.2197031e-41
1.0440609 -4.1393085 -0.24528149 9.219563e-41
1.0678133 -4.1287603 -0.25027761 2.9390974e-39
1.0956122 -4.1738644 -0.26099157 5.7967612e-39
1.1103455 -4.1682549 -0.26099157 4.8759217e-39
1.139711 -4.2161126 -0.26427218 2.6686146e-39
0.58222461 -4.3761888 -0.23822832 9.187165e-40
0.60591531 -4.3159099 -0.21280694 7.7245863e-39
0.61328173 -4.2594132 -0.20284501 8.3764045e-39
0.63294512 -4.2534132 -0.19790895 8.2806244e-39
0.64248019 -4.1978517 -0.185794 6.9974385e-39
0.67162323 -4.1889586 -0.17847824 7.3541124e-40
0.693389 -4.1261129 -0.17877664 3.6770212e-40
0.69366366 -4.1827703 -0.17116255 2.7622535e-40
0.70568192 -4.0758796 -0.15286528 2.7586942e-40
0.71936518 -4.1169486 -0.17636693 2.7586662e-40
0.73342699 -4.0653157 -0.15286528 1.8403113e-40
0.74743944 -4.1062593 -0.17636693 5.5137311e-40
0.77551377 -4.0955701 -0.17636693 1.8438986e-40
0.80358809 -4.0848813 -0.17636693 1.8439266e-40
0.83166242 -4.074192 -0.17636693 1.8403113e-40
0.85199404 -4.0642734 -0.18359616 9.219563e-41
0.87310791 -4.1129799 -0.17603973 9.219563e-41
0.89890647 -4.1024222 -0.17847824 9.219563e-41
0.92731684 -4.0916052 -0.17847824 9.219563e-41
0.95572722 -4.0807881 -0.1784783 9.219563e-41
0.97703511 -4.0726752 -0.17847824 9.2554362e-41
0.99500519 -4.1163044 -0.19544096 9.219563e-41
1.0233108 -4.1577415 -0.21030888 9.219563e-41
1.0173117 -4.1100416 -0.1880369 9.2205439e-41
1.0519137 -4.1453466 -0.21530496 9.219563e-41
1.0684252 -4.191071 -0.23822832 9.2197031e-41
1.071566 -4.1386166 -0.21280694 9.219563e-41
1.0934874 -4.1830525 -0.23316982 5.5137311e-40
1.1133852 -4.1762385 -0.23064061 1.6541291e-39
1.1420195 -4.2221756 -0.24122287 2.7568628e-39
1.1436119 -4.1670151 -0.22305284 3.3154385e-39
0.63074487 -4.3154845 -0.18283041 6.1623067e-39
0.63855439 -4.2609406 -0.16582474 5.053825e-39
0.66011935 -4.2527299 -0.16582474 3.9557437e-39
0.67382127 -4.1947317 -0.15653104 1.0130617e-39
0.69346291 -4.1333423 -0.15467936 1.8474859e-40
0.69659442 -4.1904678 -0.14189953 6.442848e-40
0.70017666 -4.0822787 -0.13857648 4.5954322e-40
0.72855568 -4.1199808 -0.15467936 1.8403113e-40
0.73071074 -4.0720873 -0.13381346 3.6770212e-40
0.75735396 -4.1111932 -0.14745012 4.5953761e-40
0.77840972 -4.1031761 -0.14745018 2.7586662e-40
0.80648404 -4.0924873 -0.14745018 1.8403113e-40
0.83455831 -4.0817981 -0.14745012 1.8403113e-40
0.8734268 -4.1209369 -0.14921522 9.219563e-41
0.90183723 -4.1101198 -0.14921522 9.219563e-41
0.92763597 -4.0995626 -0.1516538 1.8403113e-40
0.9607814 -4.0869431 -0.1516538 1.8403113e-40
0.98494524 -4.0792117 -0.14677666 2.7586662e-40
1.0051596 -4.1213579 -0.16582474 9.219563e-41
1.0187947 -4.1139364 -0.1732288 9.2205439e-41
1.0527408 -4.1548123 -0.18283041 2.7587223e-40
1.0567317 -4.2046652 -0.20787735 2.7694282e-40
1.0745682 -4.1465015 -0.18283041 9.219563e-41
1.1016915 -4.1898313 -0.20028964 9.2197031e-41
1.1044221 -4.1373925 -0.17533627 3.6770212e-40
1.1210827 -4.1816864 -0.20281892 6.4320861e-40
0.66067529 -4.313869 -0.15035576 5.1514114e-39
0.68542832 -4.3059492 -0.14535974 2.8504891e-39
0.69902718 -4.2468352 -0.13620852 1.2864172e-39
0.71226507 -4.1889081 -0.12726803 6.4321701e-40
0.72725552 -4.1306367 -0.12094307 2.7587643e-40
0.75581223 -4.1212149 -0.11612366 2.7586662e-40
0.78130591 -4.1107826 -0.11853343 1.8403253e-40
0.81953675 -4.1502681 -0.11995222 2.7586662e-40
0.84794712 -4.139451 -0.11995233 1.8438986e-40
0.87635756 -4.128634 -0.11995222 9.2554362e-41
0.90476799 -4.1178169 -0.11995222 1.8403113e-40
0.9253431 -4.10778 -0.12726803 1.8403113e-40
0.95061904 -4.1510434 -0.13620852 1.8403113e-40
0.97003525 -4.1443944 -0.13374047 1.8403113e-40
1.0016789 -4.1338329 -0.12880448 1.8403113e-40
1.0331652 -4.1690364 -0.16034801 2.7586662e-40
1.0105742 -4.0753288 -0.12726803 2.7586662e-40
1.0217608 -4.121727 -0.14361258 1.8438986e-40
1.055743 -4.1626973 -0.15285388 1.8403113e-40
1.0775703 -4.1543865 -0.15285388 9.219563e-41
1.1047312 -4.1978149 -0.16993868 9.219563e-41
1.1202245 -4.1942015 -0.16235091 4.5989635e-40
0.68126357 -4.3704734 -0.13199995 4.4153177e-39
0.70148098 -4.3043513 -0.13037148 3.0341615e-39
0.695997 -4.3648634 -0.13199995 4.5046042e-39
0.73208523 -4.2972126 -0.11538322 1.1945999e-39
0.73719341 -4.2389932 -0.11399625 4.6026209e-40
0.75305319 -4.2374148 -0.099188261 3.6770492e-40
0.75540346 -4.1271763 -0.096845791 2.7586802e-40
0.78347778 -4.116487 -0.096845791 1.8403113e-40
0.82173473 -4.1560416 -0.098005131 1.8439126e-40
0.8501451 -4.1452246 -0.098005131 1.8474999e-40
0.87145293 -4.1371117 -0.098005131 9.2559967e-41
0.89681995 -4.1826763 -0.099188261 1.8403253e-40
0.89986336 -4.1262946 -0.098005131 2.7586802e-40
0.92557335 -4.1717291 -0.099188261 1.8403113e-40
0.94639689 -4.1615705 -0.10659219 9.219563e-41
0.97440857 -4.1486754 -0.11399625 1.8403113e-40
1.0031619 -4.1377277 -0.11399625 1.8403113e-40
1.0319153 -4.12678 -0.11399625 1.8403113e-40
1.0579947 -4.168611 -0.13037148 1.8403113e-40
1.0534803 -4.1185694 -0.11399625 1.8403113e-40
1.0798221 -4.1603003 -0.13037148 1.8403113e-40
1.1070111 -4.2038031 -0.14717549 1.8403113e-40
1.1217444 -4.1981936 -0.14717549 5.5173184e-40
0.68354344 -4.3764615 -0.10923664 1.5615636e-39
0.70677459 -4.4249148 -0.11829284 6.0676013e-39
0.71301019 -4.365242 -0.10923664 5.1492674e-39
0.72781157 -4.307868 -0.085406683 4.4195931e-39
0.73290789 -4.358428 -0.10670742 3.0359692e-39
0.74888843 -4.2975864 -0.092900813 1.6544921e-39
0.76172459 -4.2385731 -0.084380038 6.4357014e-40
0.79047793 -4.2276254 -0.084380038 4.5953761e-40
0.82967263 -4.2690849 -0.085406683 2.7622535e-40
0.84872615 -4.2076778 -0.076975979 3.6806365e-40
0.87747949 -4.1967301 -0.076975979 6.4393028e-40
0.90623289 -4.1857824 -0.076976098 2.2994803e-39
0.92779791 -4.1775718 -0.076975979 1.3800534e-39
0.94143307 -4.1701503 -0.084380038 2.7622535e-40
0.98096329 -4.2069683 -0.10039495 1.8403113e-40
0.70831358 -4.428957 -0.10292669 2.6635895e-39
0.70792311 -4.3740344 -0.086473443 2.1129367e-39
0.74627644 -4.3640022 -0.071298018 5.3300489e-39
0.7518906 -4.3054714 -0.062924281 4.8762846e-39
0.77104247 -4.2974267 -0.065422289 3.4951326e-39
0.80520982 -4.3415637 -0.071298018 1.2867787e-39
0.82730985 -4.333149 -0.071298018 8.2759847e-40
0.83920002 -4.2722292 -0.062924281 1.1056161e-39
0.85888064 -4.2127314 -0.047359768 5.1550001e-39
0.85450208 -4.2686596 -0.055430152 2.2108748e-39
0.88044566 -4.2045207 -0.047359768 6.904901e-39
0.90201068 -4.1963096 -0.047359768 5.7038509e-39
0.92726004 -4.2409573 -0.055430152 5.1478114e-39
0.93076408 -4.1853623 -0.047359768 3.677726e-39
0.77878284 -4.3607664 -0.040947057 7.0831742e-39
0.7979207 -4.3519564 -0.046005495 5.7060103e-39
0.81736028 -4.4013219 -0.056827933 4.1430062e-39
0.82958961 -4.3391366 -0.048534714 2.6664622e-39
0.83760172 -4.2826176 -0.030449631 5.1528491e-39
0.84746999 -4.2259946 -0.017743552 6.3445442e-39
0.85600317 -4.2726021 -0.040441886 1.6541165e-39
0.85110211 -4.169096 -0.0175319 7.269715e-39
0.88076836 -4.2125735 -0.020211607 6.8091236e-39
0.90423524 -4.2021518 -0.025147606 5.4322862e-39
0.92951179 -4.2468715 -0.032947753 3.861397e-39
0.93373013 -4.193152 -0.017743552 1.0105506e-39
0.79806036 -4.4179263 -0.026095424 7.5441579e-39
0.80587137 -4.3580699 -0.01565453 6.992775e-39
0.80957615 -4.3038211 0.0045229141 5.7960549e-39
0.82526255 -4.349925 -0.018183865 4.7837008e-39
0.83792859 -4.2907691 -0.0029712191 2.2980412e-39
0.83533663 -4.1846466 0.014169678 6.9917016e-39
0.86113524 -4.174089 0.011730998 4.0515588e-39
0.89356619 -4.2173638 0.011872663 1.8403113e-40
0.90266007 -4.2638655 -0.010465352 4.31699e-39
0.90794289 -4.2118897 0.011872663 9.219563e-41
0.92448741 -4.2555552 -0.010465352 1.3778926e-39
0.91583288 -4.1539979 0.014169563 9.219563e-41
0.93595457 -4.1989946 0.0044686096 9.219563e-41
0.95181429 -4.1974158 0.019276602 9.219563e-41
0.81835288 -4.3049936 0.01951118 3.6774065e-39
0.82390738 -4.2505755 0.034084827 2.1125807e-39
0.8329044 -4.2994533 0.01951118 3.3993497e-39
0.82603246 -4.1438298 0.04773815 4.1397734e-39
0.83492297 -4.1906791 0.033678316 4.2326921e-39
0.86112529 -4.1304684 0.04773815 2.7586662e-40
0.86145419 -4.1820469 0.038555447 1.1942328e-39
0.88218105 -4.1224518 0.04773815 9.219563e-41
0.89174378 -4.169045 0.033678316 9.219563e-41
0.92088675 -4.1601524 0.040994011 9.219563e-41
0.94219452 -4.1520395 0.040994011 9.219563e-41
0.82965237 -4.1533375 0.083884135 1.5622852e-39
0.84070963 -4.1987581 0.067818455 2.5728302e-39
0.86699665 -4.1894836 0.070257023 3.6770212e-40
0.87950659 -4.1365333 0.091113418 1.8403113e-40
0.89540708 -4.1786666 0.070257023 9.219563e-41
0.92120588 -4.1681094 0.067818455 1.8403113e-40
0.94439262 -4.1578126 0.062941328 9.219563e-41
0.96989864 -4.2016802 0.056296986 9.219563e-41
0.8351292 -4.160687 0.1152107 2.7586662e-40
0.83441442 -4.2107024 0.099520035 3.6770772e-40
0.86992741 -4.1971812 0.099520035 9.219563e-41
0.88167858 -4.1422377 0.11280106 1.8403113e-40
0.90544039 -4.18366 0.099520035 9.219563e-41
0.84518057 -4.2176199 0.13609874 3.6770352e-40
0.87024635 -4.2051387 0.12634437 3.6770212e-40
0.87505615 -4.2106514 0.15073025 1.8403113e-40
