# .PCD v0.7 - Point Cloud Data file format
VERSION 0.7
FIELDS x y z rgb
SIZE 4 4 4 4
TYPE F F F F
COUNT 1 1 1 1
WIDTH 1020
HEIGHT 1
VIEWPOINT 0 0 0 1 0 0 0
POINTS 1020
DATA ascii
1.8665668 0.28026775 -1.0853957 8.6631718e-39
1.8792034 0.28972378 -1.0884349 8.294748e-39
1.8940285 0.31494471 -1.093271 8.2010993e-39
1.913727 0.32782313 -1.1099017 8.1096071e-39
1.9167024 0.34484142 -1.0989599 9.3024064e-39
2.033875 0.02682755 -1.0962464 9.0315816e-39
2.0600872 0.01880238 -1.110363 9.5836512e-39
1.9912374 0.056010611 -1.0852486 8.0196003e-39
2.0099697 0.049008243 -1.0935436 8.1110798e-39
2.0316846 0.037155636 -1.1042178 8.2943991e-39
1.9862347 0.07785856 -1.087133 8.2018307e-39
1.9827442 0.10695423 -1.0866344 7.7422903e-39
1.9908096 0.12758453 -1.0865512 7.3724246e-39
2.0074856 0.14296177 -1.0956488 6.5426709e-39
2.0349603 0.16091458 -1.1024021 6.0805998e-39
1.8753663 0.23941045 -1.0533681 9.2177707e-39
1.8888376 0.23085327 -1.0616354 9.5847708e-39
1.876701 0.25218242 -1.0484407 9.125952e-39
1.8854631 0.26165742 -1.0656471 9.1245073e-39
1.8859853 0.28716052 -1.0636449 8.7557262e-39
1.8944938 0.31522357 -1.065284 8.3851318e-39
1.9235531 0.3415761 -1.0739201 8.2007307e-39
2.0471299 0.022760067 -1.0743281 8.5695062e-39
1.9983593 0.058718652 -1.059196 8.0181583e-39
2.019372 0.047016729 -1.0658028 8.01925e-39
2.0404065 0.035098307 -1.0723318 8.3869563e-39
1.9749343 0.090016343 -1.0423838 8.0181654e-39
1.9874451 0.077642404 -1.0582118 8.1100065e-39
1.9734453 0.10122 -1.0477879 8.1099924e-39
1.9841137 0.11010364 -1.0580275 7.8337699e-39
1.9916909 0.12820652 -1.0567902 7.3717141e-39
2.0122135 0.14613439 -1.0650802 6.634498e-39
2.0288477 0.16210881 -1.0572708 6.8167257e-39
2.0391884 0.16319257 -1.0763175 6.9060416e-39
1.9112977 0.23424555 -1.0369889 9.6758874e-39
1.8828231 0.2608726 -1.0260214 9.1241514e-39
1.8999431 0.25185135 -1.0346384 9.2159925e-39
1.8840762 0.28794762 -1.0213404 9.3063776e-39
1.8918818 0.28870842 -1.0420775 9.1230752e-39
1.8940145 0.31504351 -1.0341828 8.5698916e-39
1.9107299 0.33618104 -1.0386928 8.4769687e-39
2.0469568 0.024774576 -1.0484172 9.2141946e-39
2.0060556 0.057105798 -1.0310593 8.4787778e-39
2.029413 0.04434175 -1.0379416 7.9259669e-39
2.0458562 0.035103757 -1.052403 8.6646026e-39
1.9799187 0.08201766 -1.0241863 8.3865849e-39
1.9931022 0.071772732 -1.0252985 8.4791463e-39
1.9951857 0.10678401 -1.0263971 8.1092722e-39
2.0053415 0.13002989 -1.033404 7.5571774e-39
2.0236647 0.14629997 -1.0320514 7.0961964e-39
2.0331826 0.15800856 -1.0414339 6.1756807e-39
2.0446343 0.16733013 -1.0563887 7.9133875e-39
1.919039 0.2312523 -1.0086915 1.0228334e-38
1.890065 0.26679084 -0.99951935 9.2170645e-39
1.9057467 0.25092709 -1.0038371 9.5844079e-39
1.8896924 0.28625047 -1.0008099 9.0312285e-39
1.9032705 0.2891053 -1.0004302 8.7539213e-39
1.9024312 0.31493333 -1.0034051 8.9383056e-39
1.9103084 0.33467627 -1.0040984 8.5695146e-39
2.0115645 0.047163043 -0.99768293 8.8482834e-39
2.0255897 0.040096335 -1.0165555 8.4766338e-39
1.9868711 0.080749802 -0.99468571 8.4787848e-39
1.9994792 0.066411525 -1.0019997 8.0196129e-39
1.9886452 0.10203557 -0.99220258 8.6617355e-39
2.0004928 0.11472081 -0.99811667 8.1103498e-39
2.0099638 0.13063355 -0.99720055 7.4646202e-39
2.0279937 0.14682999 -1.0073752 6.3604321e-39
2.0652113 0.15957455 -1.0077088 7.2686809e-39
1.928539 0.23409422 -0.98215503 9.5836946e-39
1.9515435 0.22671179 -0.98606831 1.0318346e-38
1.9715551 0.2246369 -1.0011748 1.123524e-38
1.9163371 0.2570971 -0.97740829 9.4003781e-39
1.8955287 0.28923613 -0.97945809 9.1234213e-39
1.9110018 0.28641456 -0.97216964 9.3996523e-39
1.9118407 0.31442219 -0.97516012 8.570958e-39
1.9275128 0.33944726 -0.9805966 8.38368e-39
1.9499596 0.34749246 -0.97733802 9.392444e-39
2.0197656 0.026329037 -0.98103833 1.2162985e-38
2.0750408 0.027022844 -0.9987874 1.2805114e-38
1.9971343 0.058023851 -0.96132177 8.7539325e-39
2.0130665 0.04638657 -0.97229058 9.6780398e-39
2.0420692 0.03474278 -0.9740057 1.2720113e-38
1.9907235 0.078648888 -0.96345913 8.2025566e-39
1.9970877 0.10444511 -0.96132177 8.1096253e-39
2.0071745 0.10782631 -0.97370863 7.9255858e-39
2.0181592 0.13304749 -0.97059971 7.0965594e-39
2.0344472 0.14887589 -0.98376864 5.3470018e-39
2.0505061 0.15802588 -0.97808653 6.0651463e-39
2.0620821 0.15908334 -0.99261653 6.7176721e-39
1.9446561 0.23123249 -0.94787264 9.0312341e-39
1.9585282 0.22491255 -0.96288145 9.6744119e-39
1.9086856 0.27009332 -0.93141657 8.7542744e-39
1.9209722 0.25497046 -0.94677788 9.0308711e-39
1.9049519 0.29818496 -0.94496673 8.6620872e-39
1.918619 0.28649223 -0.9443146 9.0308725e-39
1.9076365 0.30840418 -0.93511212 9.1227136e-39
1.9186661 0.31674859 -0.94403285 8.9386671e-39
1.9370623 0.34142771 -0.95059687 8.844661e-39
1.9540949 0.35534981 -0.96218789 1.087007e-38
2.003716 0.050982259 -0.93064713 8.8461141e-39
2.0161388 0.043615941 -0.94116449 9.5833148e-39
2.042093 0.034674305 -0.9562276 1.1335372e-38
2.0026824 0.077284023 -0.9347192 8.4791351e-39
2.0041871 0.10678055 -0.93535388 7.27988e-39
2.0076265 0.12206374 -0.92272079 7.4674929e-39
2.019618 0.13591672 -0.94225591 6.0816886e-39
2.0300505 0.16104762 -0.94293648 6.7234244e-39
2.044106 0.17335898 -0.94835877 8.4747406e-39
1.9498283 0.22729486 -0.92349857 9.2141778e-39
1.9656178 0.22578324 -0.92052501 8.2929544e-39
1.914953 0.26856709 -0.90850449 8.2943781e-39
1.9298097 0.25213227 -0.9166621 8.2951082e-39
1.9152411 0.28350908 -0.90739584 8.8464771e-39
1.9264059 0.28816473 -0.91583419 8.9383168e-39
1.9303662 0.31480446 -0.91665787 8.7546304e-39
1.9448446 0.34499714 -0.92212594 8.5688e-39
1.9675599 0.35536328 -0.91294992 8.3883828e-39
1.9708451 0.3665849 -0.91732365 4.9696167e-39
2.0250053 0.026180148 -0.90880525 5.3387117e-39
2.0091782 0.041999191 -0.90975708 7.8341258e-39
2.0260429 0.050335322 -0.90492219 8.2021923e-39
2.0107162 0.079086646 -0.90675551 7.4646174e-39
2.0239031 0.066435948 -0.91268837 7.7419428e-39
1.9880917 0.12050292 -0.88801157 7.6486458e-39
2.001647 0.10753329 -0.90483433 6.8192648e-39
2.0072494 0.13675556 -0.90414381 6.7241909e-39
2.0216987 0.14694755 -0.92045456 5.4377569e-39
2.0331905 0.16520292 -0.91214037 5.1597169e-39
2.0516336 0.17744541 -0.92081773 3.2246848e-39
1.9488217 0.23005292 -0.89260304 7.925611e-39
1.9739081 0.22186492 -0.89022475 7.6501059e-39
1.9223373 0.2614868 -0.88152736 8.2032629e-39
1.9338135 0.25328395 -0.88887507 8.2029125e-39
1.9218119 0.28160006 -0.88337511 7.7408484e-39
1.9337717 0.29491839 -0.88887501 7.3706323e-39
1.9369577 0.31536543 -0.8870064 7.7401141e-39
1.9557037 0.34098348 -0.89475262 8.2932795e-39
1.9717029 0.35536742 -0.89779985 8.6624361e-39
1.9825586 0.36849859 -0.90029711 9.1244919e-39
2.0007715 0.37575978 -0.89378595 9.8584514e-39
2.0214455 0.026033469 -0.87253952 7.0976342e-39
2.0428298 0.018218517 -0.88611406 5.711118e-39
2.0186737 0.053243186 -0.88257575 7.5557355e-39
2.0324225 0.042290326 -0.88162351 7.3727847e-39
1.9937892 0.079875298 -0.86732578 6.8192508e-39
2.0105255 0.072622314 -0.88197261 6.9107332e-39
1.9892597 0.10849765 -0.87146342 6.6344994e-39
1.9957231 0.13104513 -0.86006755 5.7121746e-39
2.009757 0.13927527 -0.87948406 6.0831207e-39
2.0165462 0.15837464 -0.87480634 4.6079906e-39
2.0315833 0.17379537 -0.88421226 5.8965462e-39
1.967193 0.23278826 -0.86545646 8.0192416e-39
1.9788781 0.22344054 -0.87204456 7.466058e-39
1.9289051 0.26245111 -0.85750657 7.8337741e-39
1.9489883 0.24555747 -0.85805494 8.570979e-39
1.9288784 0.28926948 -0.85750651 7.9241634e-39
1.9298699 0.30842641 -0.85381109 7.3717029e-39
1.9428968 0.32191288 -0.85540849 7.462458e-39
1.9605057 0.33977142 -0.86135632 7.5539208e-39
1.9783334 0.3538034 -0.87355959 8.2925676e-39
1.9940953 0.36938795 -0.86514831 8.5702419e-39
2.004967 0.37576398 -0.87844461 9.5786191e-39
2.0299606 0.38044584 -0.88938969 9.9434471e-39
2.0256679 0.026037691 -0.85709912 7.4678712e-39
2.0476635 0.015265686 -0.85494006 7.7397638e-39
2.0020518 0.054675866 -0.83720434 7.2798688e-39
2.0230689 0.042834688 -0.84885103 7.3727861e-39
2.0377362 0.038269944 -0.86220795 7.2798688e-39
1.9914131 0.077832296 -0.84081995 7.2784283e-39
1.9784995 0.10345112 -0.82458448 7.278071e-39
1.9872792 0.10826846 -0.84174424 6.90965e-39
1.9908755 0.13850404 -0.83744365 5.6192643e-39
1.9980534 0.15977897 -0.83911985 4.9746067e-39
2.0165827 0.1708221 -0.84733325 5.6170923e-39
2.0375953 0.17916897 -0.86220795 8.0187973e-39
2.0494723 0.18811846 -0.85854948 1.0692529e-38
1.9647835 0.22766656 -0.83204347 7.7415813e-39
1.9863452 0.21402416 -0.84477437 9.0366319e-39
1.9367136 0.26315552 -0.82895046 8.2951152e-39
1.9525003 0.24897236 -0.83041453 8.2036412e-39
1.9355688 0.28906423 -0.82735574 8.0174311e-39
1.9353124 0.31497133 -0.82478637 7.6464892e-39
1.9600674 0.34286442 -0.83087611 7.4617251e-39
1.9841323 0.35537985 -0.8523494 7.6475583e-39
1.9936287 0.37209758 -0.83946472 8.75355e-39
2.0221343 -0.0099053113 -0.81707954 1.382791e-38
2.0111358 0.0020121366 -0.80417967 1.0970233e-38
2.036768 0.010041443 -0.81656814 9.1216402e-39
2.0542719 0.018199136 -0.82835108 8.478768e-39
2.005949 0.050925877 -0.81311131 7.5568187e-39
2.0313668 0.035983764 -0.82295626 7.9256012e-39
1.9810135 0.07989832 -0.80203784 7.4642545e-39
1.994363 0.067962378 -0.81598914 7.6479283e-39
1.9735146 0.10686784 -0.80583864 6.9100003e-39
1.9720846 0.13805363 -0.80191839 6.1735185e-39
1.9866807 0.15809786 -0.79446828 5.0675072e-39
2.0005636 0.16732937 -0.81266564 4.4217861e-39
1.9795326 0.2081825 -0.79578191 1.0415626e-38
2.009908 0.18768257 -0.80799019 9.4914541e-39
2.0284593 0.19347543 -0.81974369 1.078329e-38
2.0450127 0.19527915 -0.83502626 1.1703805e-38
1.9649067 0.22898991 -0.80135638 6.9114563e-39
1.9946314 0.21403244 -0.81447411 9.034146e-39
1.9455774 0.26534122 -0.7965309 8.110354e-39
1.9566934 0.2534996 -0.80520862 7.7415715e-39
1.9223369 0.2956644 -0.78662872 8.4791407e-39
1.9407099 0.28414902 -0.79771793 8.6635362e-39
1.923722 0.30853587 -0.78151697 8.2943823e-39
1.9350232 0.32095271 -0.79701155 7.4631741e-39
1.946009 0.33909217 -0.79468316 7.5524858e-39
1.966197 0.35269189 -0.80529642 7.4624426e-39
1.98647 0.36884642 -0.79446828 6.4497228e-39
1.9950616 0.37558466 -0.8123098 7.5503054e-39
2.0332465 0.021927837 -0.78959715 9.5858288e-39
2.0562367 0.014939445 -0.79464191 1.3644594e-38
1.9925488 0.055071015 -0.77338696 7.7415588e-39
2.0096536 0.042244721 -0.78207237 8.0181457e-39
2.0273347 0.033837527 -0.79790294 8.2032432e-39
1.9766755 0.075569466 -0.77386028 7.5564627e-39
1.9654844 0.10605276 -0.77360129 7.1880375e-39
1.9708374 0.13694325 -0.77286977 6.172801e-39
1.9869922 0.16651562 -0.77481771 4.7909386e-39
2.0008893 0.17084602 -0.79174888 4.1473474e-39
1.9948777 0.1971336 -0.76435208 1.2071462e-38
2.0081801 0.19688115 -0.78552747 1.0413066e-38
1.9562148 0.2394913 -0.7577281 7.2776996e-39
1.9715207 0.227718 -0.77408296 7.1884089e-39
2.0039535 0.21404177 -0.78038627 8.9423063e-39
1.9533941 0.26129681 -0.76796174 7.7426533e-39
1.964325 0.2486884 -0.77731979 7.6497472e-39
1.9307266 0.2934016 -0.7559582 8.4791421e-39
1.9435505 0.28337881 -0.76748443 8.2951138e-39
1.9299787 0.3150804 -0.75861365 8.9404664e-39
1.9412665 0.32038945 -0.76660067 8.2940264e-39
1.9316835 0.33504114 -0.75230694 8.3865653e-39
1.9496684 0.34482789 -0.7661171 7.1873047e-39
1.9637107 0.35470161 -0.7791791 7.3709687e-39
1.9824657 0.37390399 -0.77388918 8.3844003e-39
2.0006812 0.37895602 -0.79174888 8.0044284e-39
2.0267432 0.025730511 -0.74702156 9.0294236e-39
2.0411298 0.021948565 -0.76077032 1.0602158e-38
2.0607672 0.015480735 -0.77807403 1.1888201e-38
1.9887007 0.049518168 -0.74435717 8.018873e-39
2.0166843 0.03507752 -0.75419962 8.7549975e-39
1.9567961 0.078348294 -0.73344576 7.1887522e-39
1.9760287 0.068933032 -0.75160795 7.6493856e-39
1.957876 0.10523324 -0.7379269 7.0951174e-39
1.9585779 0.13473658 -0.73647112 6.4508312e-39
1.9705305 0.14460829 -0.75500876 6.2667875e-39
1.9604975 0.16498986 -0.73323995 5.7143312e-39
1.9732156 0.17049421 -0.7533083 4.7920091e-39
1.9643457 0.19352508 -0.72816414 5.5267001e-39
1.9783626 0.19711249 -0.74465823 5.8954644e-39
2.0091403 0.20619373 -0.76144862 9.8591857e-39
1.9605964 0.23694155 -0.7417143 6.8188977e-39
1.9782195 0.22324541 -0.74452525 6.6352337e-39
1.938078 0.26438811 -0.72918236 7.467137e-39
1.9525015 0.25544578 -0.73625368 6.9132499e-39
1.9366741 0.28492346 -0.72665924 7.2806017e-39
1.9474268 0.28954121 -0.74418771 7.9256152e-39
1.9318726 0.31588829 -0.72742313 7.1887452e-39
1.9469072 0.30668199 -0.74602485 8.1096351e-39
1.9376746 0.33504713 -0.73039943 7.6457647e-39
1.9512914 0.34884056 -0.73552519 6.9110765e-39
1.9583275 0.37225237 -0.73738414 8.6635151e-39
1.9631357 0.392746 -0.73185962 1.1987244e-38
1.9244033 -0.069159031 -0.68942338 1.7412659e-38
2.023766 0.025632117 -0.72505385 9.2105723e-39
2.0430832 0.01794868 -0.74037313 1.3559987e-38
1.967972 0.048824046 -0.70405817 8.2021769e-39
1.9930731 0.042036299 -0.72223461 8.5709706e-39
2.0175991 0.033431463 -0.73114836 9.3074524e-39
1.940999 0.079309933 -0.69643295 7.1873117e-39
1.9588579 0.068664476 -0.7088815 7.465709e-39
1.9242163 0.1179051 -0.68942338 6.3568265e-39
1.938166 0.099948026 -0.69761902 7.0014883e-39
1.9551437 0.10861307 -0.71663076 6.6366672e-39
1.9241939 0.14035279 -0.68942338 5.988044e-39
1.9382069 0.13404018 -0.70644194 5.9894789e-39
1.9241564 0.17776562 -0.68942338 6.1717122e-39
1.9363446 0.16210349 -0.70177644 6.1731499e-39
1.9550788 0.17336902 -0.71663076 7.4620643e-39
1.9241452 0.18898946 -0.68942338 5.7139612e-39
1.9368135 0.19227095 -0.69995075 5.5267113e-39
1.9588934 0.19652514 -0.71397084 5.527426e-39
1.979617 0.21015321 -0.72154218 4.1441482e-39
1.967279 0.2300905 -0.70489615 4.4218127e-39
1.9793998 0.22403115 -0.72228593 4.7909484e-39
1.9424863 0.25783765 -0.69602728 5.6228712e-39
1.9596676 0.25268063 -0.71255928 6.1756989e-39
1.923046 0.30122694 -0.69303215 6.910743e-39
1.934338 0.28431529 -0.70108604 6.634519e-39
1.9230295 0.3174392 -0.69303209 6.7245483e-39
1.9321721 0.31654549 -0.70509684 6.6344938e-39
1.9362189 0.34222674 -0.69778705 5.8025653e-39
1.956506 0.35392541 -0.71075195 5.7114361e-39
1.9372873 0.36321557 -0.68622077 5.1586337e-39
1.9644854 0.37427393 -0.7087943 5.986951e-39
1.9794396 0.38748527 -0.72154218 6.8217732e-39
1.990664 0.39703134 -0.71742487 5.8944359e-39
1.9076178 -0.094219871 -0.65991074 1.7228654e-38
1.8949161 -0.068595864 -0.65243196 1.3803425e-38
1.9098659 -0.077110574 -0.66679192 1.5658468e-38
1.8892651 -0.05669814 -0.65359199 1.5104574e-38
1.9036798 -0.057251319 -0.67417592 1.6210181e-38
2.0156391 0.025433166 -0.68906158 9.7594188e-39
2.0331016 0.021714848 -0.69914329 1.2075474e-38
2.0535715 0.017959168 -0.70201993 1.4758523e-38
1.9499782 0.053308066 -0.66824222 7.8333957e-39
1.9723294 0.043455921 -0.68002218 8.016715e-39
2.0022826 0.033034492 -0.68859166 8.6617243e-39
1.9316497 0.086111598 -0.66235751 7.5568004e-39
1.9425828 0.071083575 -0.67206192 7.5571732e-39
1.8979771 0.11950638 -0.64889061 7.2805639e-39
1.9226609 0.1100435 -0.66914278 7.2794975e-39
1.9395437 0.092259862 -0.67896074 7.5560886e-39
1.8913162 0.13521056 -0.64817053 6.5422814e-39
1.9176335 0.14061396 -0.67205626 6.8181564e-39
1.8656887 0.17167047 -0.63787597 6.3553832e-39
1.8893566 0.16670056 -0.65370321 6.3561021e-39
1.9192331 0.16712336 -0.67713749 6.0816676e-39
1.8615885 0.20282102 -0.64084053 4.052649e-39
1.8832352 0.19071947 -0.65379632 3.7771482e-39
1.9072089 0.19456151 -0.67551422 3.9611821e-39
1.8607674 0.2289917 -0.64002448 4.1444901e-39
1.8832742 0.22116514 -0.65931904 4.2352663e-39
1.9053346 0.23853032 -0.66704333 3.5967324e-39
1.8631374 0.25593397 -0.6385572 4.6061774e-39
1.8741096 0.26345322 -0.64844823 3.4094545e-39
1.9179006 0.26127747 -0.67408371 4.4232505e-39
1.8655694 0.29089424 -0.63787597 4.1459335e-39
1.8817703 0.28464529 -0.65305567 3.5002292e-39
1.9218693 0.29154208 -0.67917329 5.2523119e-39
1.8655549 0.30534562 -0.63787597 4.0537154e-39
1.885834 0.31723118 -0.65032834 3.6842295e-39
1.9138614 0.31936982 -0.67456043 5.7125445e-39
1.88985 0.34398535 -0.65238822 5.2504523e-39
1.9127576 0.34726623 -0.67362082 5.6196062e-39
1.8902316 0.37821436 -0.65020353 6.0813327e-39
1.9071521 0.37163314 -0.65991074 4.1423195e-39
1.9506097 0.38048393 -0.68293315 5.7139654e-39
1.9629077 0.38288155 -0.68723667 3.7721189e-39
1.886463 0.40514085 -0.64761633 7.6504534e-39
1.8976685 0.42822552 -0.64889061 7.6511765e-39
2.0408542 0.50375038 -0.69367397 5.514471e-39
2.0370688 0.52375829 -0.6910153 6.8098649e-39
1.8943497 -0.096342713 -0.62665844 1.6767328e-38
1.8735583 -0.07399521 -0.60999691 1.5099219e-38
1.8871251 -0.074664205 -0.62754452 1.3535121e-38
1.8996644 -0.047258627 -0.63082087 1.6574654e-38
1.9173262 -0.049843166 -0.62424773 1.3808799e-38
2.019757 0.025437286 -0.67400348 9.4842809e-39
2.0465424 0.025750309 -0.67462128 1.0403059e-38
1.9390757 0.061800659 -0.6352917 6.4472327e-39
1.9544247 0.048029661 -0.63987118 7.1883809e-39
1.9800134 0.036362685 -0.64869988 8.4762526e-39
2.0084219 0.033040632 -0.66614252 8.4780533e-39
1.9043099 0.088273257 -0.6258477 5.2537188e-39
1.9242357 0.076868087 -0.64021903 6.2667959e-39
1.9475155 0.062161397 -0.64992064 7.6472066e-39
1.8969523 0.10813402 -0.62922412 5.0675311e-39
1.8866438 0.13670607 -0.62582439 4.423249e-39
1.8659551 0.17417531 -0.61793798 3.8715004e-39
1.8823467 0.1582192 -0.62439835 3.9633387e-39
1.8610318 0.19852288 -0.61801153 3.8700655e-39
1.8605943 0.22827755 -0.61720318 3.77823e-39
1.8644854 0.25758281 -0.61850548 3.9619038e-39
1.8702661 0.28589651 -0.62071961 4.1462936e-39
1.8811059 0.29494646 -0.62274963 3.5938471e-39
1.867461 0.30534753 -0.63090622 3.9629842e-39
1.8832346 0.31907487 -0.6239745 3.9619136e-39
1.8864366 0.34804907 -0.62580842 3.8696941e-39
1.8892586 0.37780973 -0.62675375 4.3303163e-39
1.894694 0.40818125 -0.62856561 4.7898582e-39
1.9025159 0.42823038 -0.63116533 6.0791733e-39
1.9301044 0.44167081 -0.6363796 7.0976005e-39
2.0635989 0.47920245 -0.66366678 7.5553459e-39
2.0254538 0.50548172 -0.65141636 1.3165561e-38
2.03988 0.50223076 -0.67259991 8.0926976e-39
2.0729866 0.497675 -0.67172897 8.4686954e-39
2.0247414 0.53149951 -0.65392601 8.6555824e-39
2.033493 0.52320242 -0.6712364 8.0098697e-39
2.0164654 0.5487628 -0.65127182 8.0116087e-39
2.0336571 0.54783309 -0.67054784 8.56733e-39
1.8802475 -0.092052735 -0.5856027 1.408684e-38
1.8955077 -0.096646652 -0.60563737 1.5661687e-38
1.8719776 -0.073728628 -0.58896881 1.4918058e-38
1.8859475 -0.074406669 -0.60639602 1.3254592e-38
1.8802114 -0.055924322 -0.5856027 1.1043336e-38
1.9018866 -0.04929452 -0.59838468 1.1682181e-38
1.9231236 -0.040029418 -0.61059511 1.556265e-38
1.9450005 0.058065295 -0.613639 4.5150593e-39
1.9647139 0.041383881 -0.61237884 5.8040143e-39
1.9813406 0.03626493 -0.62109995 6.9067745e-39
1.9101974 0.086966559 -0.60432416 4.4232308e-39
1.9274945 0.073584802 -0.6068325 4.3321212e-39
1.9027179 0.10803131 -0.60032195 4.3314051e-39
1.876353 0.14384806 -0.59203047 4.0548141e-39
1.8931975 0.13152951 -0.59732741 4.2381347e-39
1.8702059 0.16735163 -0.59009844 3.8711431e-39
1.8675514 0.19946498 -0.58926201 3.8689977e-39
1.8589103 0.22692609 -0.57905978 3.779302e-39
1.8656274 0.22820435 -0.59619284 3.6846008e-39
1.8579499 0.24478751 -0.58250564 3.9633485e-39
1.869532 0.2579641 -0.59014606 4.1459391e-39
1.8758686 0.28337204 -0.59190255 3.8693466e-39
1.888453 0.29495385 -0.59588289 3.6860469e-39
1.8792075 0.31258497 -0.58792597 3.3183294e-39
1.887661 0.32014206 -0.5986864 3.2239856e-39
1.8801268 0.34630576 -0.58444113 3.59311e-39
1.889644 0.34706402 -0.59833521 3.2250436e-39
1.8969601 0.37781742 -0.59859151 3.6860301e-39
1.9004487 0.40775552 -0.59970498 3.9604576e-39
1.9108517 0.42970881 -0.60067779 5.8915324e-39
1.9359909 0.44167668 -0.61485434 7.1854704e-39
2.0511198 0.47653314 -0.63652116 7.4545239e-39
1.9913292 0.49621648 -0.62838566 5.6077512e-39
2.0198936 0.50236738 -0.62247622 8.4675982e-39
2.0508032 0.49041817 -0.63270044 7.3573018e-39
2.0711799 0.496185 -0.65357345 8.559784e-39
1.9922976 0.5383606 -0.62469018 2.8580575e-39
2.0169959 0.52823734 -0.62718016 1.1138385e-38
1.9922824 0.55368537 -0.62469018 1.1519406e-38
2.0131767 0.55561739 -0.62494057 8.7481466e-39
1.8744761 -0.09153375 -0.56500405 1.5471931e-38
1.875406 -0.073569499 -0.5615387 1.6024396e-38
1.8676735 -0.05529099 -0.54804617 1.7407327e-38
1.8806578 -0.052149564 -0.5631063 1.4640388e-38
1.9036908 -0.039419286 -0.57129222 1.2791054e-38
1.9089056 -0.027330473 -0.56776398 1.787367e-38
1.9519464 0.056786004 -0.58319056 4.4232336e-39
1.9679091 0.044693094 -0.59057462 4.3292542e-39
1.9170507 0.086387828 -0.57405245 4.2395795e-39
1.9356322 0.072382532 -0.57960653 4.2402927e-39
1.9048061 0.10772008 -0.57041419 4.0555343e-39
1.8810891 0.13769217 -0.5624392 4.1473796e-39
1.895331 0.12541933 -0.57135248 4.0555581e-39
1.8660334 0.1715598 -0.55321515 3.961545e-39
1.8742212 0.16354503 -0.56500411 3.7796621e-39
1.8653767 0.20013897 -0.55551243 3.869348e-39
1.8727691 0.1940812 -0.57020217 3.4108922e-39
1.8645647 0.22693174 -0.55838406 3.7782328e-39
1.8645464 0.24479412 -0.558384 3.5945506e-39
1.8768266 0.26079845 -0.56207097 3.962631e-39
1.8843697 0.28733653 -0.56358099 4.0544553e-39
1.8932545 0.28527051 -0.57836121 3.962987e-39
1.8822615 0.31563821 -0.56371605 3.5938457e-39
1.8800945 0.34335896 -0.56232953 3.4090817e-39
1.8931818 0.35793105 -0.57836121 3.4994655e-39
1.8883693 0.36317396 -0.55423874 3.3165329e-39
1.9012104 0.37791121 -0.57015926 3.5012857e-39
1.9075069 0.40761876 -0.57128972 3.5938373e-39
1.9174441 0.42971542 -0.5765714 5.8011318e-39
1.930492 0.438207 -0.5743196 7.6496967e-39
2.0378349 0.4781749 -0.60624206 7.1793887e-39
2.0482247 0.48109537 -0.61752242 7.3619737e-39
2.0270598 0.49867317 -0.59902412 8.2785238e-39
2.0016756 0.5314042 -0.59042275 1.3532594e-38
2.0170159 0.51965195 -0.60008186 7.2625964e-39
2.0019906 0.54756522 -0.58921337 1.0036688e-38
2.0154295 0.55994153 -0.60162854 1.1507892e-38
1.8722526 -0.069520824 -0.52614146 1.6390293e-38
1.8805227 -0.072845854 -0.5428254 1.7222929e-38
1.8723854 -0.055286277 -0.53081644 1.7683176e-38
1.888625 -0.042780489 -0.53393841 1.4731844e-38
1.9021991 -0.034427095 -0.54682201 1.3976283e-38
1.9127623 -0.027326619 -0.55366164 1.7595292e-38
1.9489778 0.054671947 -0.55361712 4.23992e-39
1.9753259 0.047135986 -0.54828024 3.3121861e-39
1.9266686 0.081149325 -0.54411441 4.2388508e-39
1.9369836 0.076939337 -0.55190283 4.4232406e-39
1.8930624 0.11750513 -0.53797597 4.2388382e-39
1.9076027 0.10492743 -0.54055035 4.14736e-39
1.8750124 0.14477518 -0.52047861 3.9626408e-39
1.8854123 0.1342794 -0.53530818 3.8711473e-39
1.8726003 0.17001829 -0.52920836 3.6874609e-39
1.8814315 0.1556484 -0.5386669 3.5956422e-39
1.868826 0.1979979 -0.52987564 3.7778712e-39
1.8721036 0.22693926 -0.5308165 3.7778586e-39
1.8727113 0.24718395 -0.52851915 3.8696941e-39
1.8822727 0.26199198 -0.53520149 3.961552e-39
1.8826282 0.28570393 -0.53381538 3.9615478e-39
1.8825995 0.31444526 -0.53381538 3.7771552e-39
1.8748124 0.34483379 -0.52047861 3.4072586e-39
1.8826245 0.34508857 -0.53361148 3.3168763e-39
1.8922929 0.37114173 -0.53390503 3.4094418e-39
1.9024673 0.38181454 -0.54431885 3.5927499e-39
1.9072824 0.40595615 -0.54083961 3.7764167e-39
1.9230803 0.4292528 -0.5476228 5.9844539e-39
1.9363437 0.43821287 -0.55292177 7.65041e-39
2.0105193 0.50772923 -0.55817115 9.8458649e-39
2.0265894 0.50601137 -0.57333845 8.924975e-39
2.006552 0.52637851 -0.56502742 1.3992118e-38
2.008456 0.54987037 -0.56556219 8.0984373e-39
1.87439 -0.065794833 -0.5026741 1.4643961e-38
1.8777628 -0.045098916 -0.49639916 1.307521e-38
1.8876934 -0.04122325 -0.51648825 1.3720188e-38
1.8710837 -0.019441687 -0.48778707 1.2709658e-38
1.8905221 -0.026849777 -0.50609201 1.500834e-38
1.9612525 0.054626238 -0.52172881 4.2359711e-39
1.9832675 0.047143929 -0.51924014 5.6023562e-39
1.9311405 0.078750715 -0.51240808 3.5927611e-39
1.9425503 0.083283052 -0.531524 4.2381333e-39
1.9019573 0.11751402 -0.50545037 4.5125538e-39
1.917241 0.10387499 -0.50950909 4.3303318e-39
1.879382 0.1410481 -0.49669635 3.7782384e-39
1.8905047 0.12609497 -0.505597 4.2377802e-39
1.8534126 0.17754258 -0.47803113 4.1466327e-39
1.8715849 0.16679867 -0.49917465 3.6867504e-39
1.8533986 0.19159763 -0.47803113 3.7775083e-39
1.8699384 0.19794056 -0.49959147 3.8686319e-39
1.8757951 0.22637984 -0.49855366 3.9608234e-39
1.8794649 0.25267303 -0.49859095 3.8686193e-39
1.8902276 0.26774821 -0.50609201 4.1434336e-39
1.8820274 0.29196832 -0.4942894 3.9629898e-39
1.8906546 0.28307736 -0.50447488 3.9615506e-39
1.8823802 0.31626156 -0.49291107 3.6860399e-39
1.8882856 0.31445092 -0.5130229 3.8697067e-39
1.8804642 0.34743756 -0.49980298 3.499834e-39
1.8905782 0.3480936 -0.5045169 3.5920296e-39
1.8981539 0.37694886 -0.50450915 3.6838805e-39
1.903967 0.39498258 -0.49708667 3.8664865e-39
1.9138485 0.40834728 -0.51170212 3.7757118e-39
1.9238751 0.42956543 -0.51135457 6.632326e-39
1.9939216 0.50355029 -0.5241037 8.4668849e-39
2.0082636 0.50435811 -0.54368609 8.3736019e-39
1.991467 0.5238533 -0.52542293 1.1600775e-38
2.0034006 0.52423036 -0.5443362 1.2519859e-38
2.0126321 0.54526168 -0.53893417 7.2816401e-39
1.8699961 -0.042601898 -0.46504018 1.3261754e-38
1.8679489 -0.01579161 -0.46349221 1.1234898e-38
1.868863 0.0018698638 -0.46008527 1.3444691e-38
1.9436009 0.060748301 -0.4822728 4.0548183e-39
1.968188 0.051596131 -0.49096355 4.2381333e-39
1.9321114 0.078648515 -0.4794403 3.4083586e-39
1.9089684 0.11594673 -0.47147745 4.0544483e-39
1.9230829 0.10309245 -0.47822371 3.4090859e-39
1.8855482 0.13987042 -0.46725348 3.8700669e-39
1.8989003 0.12405042 -0.47490329 3.96371e-39
1.8582367 0.17333089 -0.46040672 3.7774943e-39
1.8676835 0.16498803 -0.46380201 3.8700585e-39
1.8578134 0.19754842 -0.46186677 3.6849539e-39
1.8686793 0.1855395 -0.46008527 3.5949177e-39
1.8584061 0.21569699 -0.45963201 3.6849553e-39
1.8685808 0.2304275 -0.46491581 3.5938415e-39
1.8857 0.25510126 -0.46796298 3.7767852e-39
1.8901577 0.2868956 -0.46457773 3.778223e-39
1.8982009 0.28212684 -0.47688356 3.8686333e-39
1.8889765 0.31626809 -0.4687894 3.6856756e-39
1.8878213 0.34814245 -0.46693978 3.5009018e-39
1.8967788 0.35038602 -0.48183411 3.6845658e-39
1.890811 0.36628467 -0.46189749 3.4101565e-39
1.9034829 0.37782609 -0.47389904 3.5012703e-39
1.9089141 0.40265831 -0.47375533 3.5923912e-39
1.9130789 0.43184277 -0.46363178 1.0971948e-38
1.9226524 0.43041855 -0.47942808 7.2755304e-39
1.980106 0.48086581 -0.48372316 7.2755164e-39
1.9791002 0.49957123 -0.48733187 9.1140326e-39
1.9895412 0.49743304 -0.5076502 8.2857055e-39
1.9800686 0.5182786 -0.48372316 1.0862853e-38
1.992268 0.52763879 -0.50352699 9.392046e-39
2.0206826 0.55155593 -0.5117479 3.7717377e-39
1.8594595 -0.035478398 -0.43016139 1.3445062e-38
1.8735676 -0.044042885 -0.44305024 1.3812773e-38
1.8656557 -0.015702158 -0.43397018 1.2432361e-38
1.8667411 0.011003526 -0.42990297 1.3260291e-38
1.8749068 0.0142383 -0.4379397 1.5108841e-38
1.9459952 0.056919046 -0.45268053 5.1611868e-39
1.9204156 0.083812594 -0.43807596 3.2243191e-39
1.9311031 0.076919861 -0.45121953 3.3172406e-39
1.9128052 0.10638106 -0.44497311 2.9491713e-39
1.8667907 0.14663483 -0.42922506 3.6874721e-39
1.8855389 0.13304698 -0.440328 3.7793076e-39
1.8651021 0.16795348 -0.43234372 3.7782146e-39
1.872431 0.16081846 -0.44645724 3.503085e-39
1.8654449 0.19512342 -0.43397021 3.6853099e-39
1.86601 0.21972033 -0.4318133 3.7771426e-39
1.8738503 0.23216857 -0.44100603 3.6860273e-39
1.8885323 0.25448853 -0.43936446 3.7778614e-39
1.8967365 0.28388536 -0.44053268 3.8697095e-39
1.9044213 0.28931838 -0.45411077 3.9626408e-39
1.8927604 0.31563815 -0.44036007 3.6856798e-39
1.8931321 0.34781659 -0.44044653 3.4090747e-39
1.8968663 0.36935288 -0.43974504 3.5927597e-39
1.9064931 0.38375619 -0.44618988 3.5012661e-39
1.9124714 0.40621027 -0.44387072 3.5916695e-39
1.9154258 0.43023714 -0.44810539 1.0880494e-38
1.9288845 0.43304941 -0.44753203 1.0133982e-38
1.9538583 0.46748421 -0.44327715 9.0268844e-39
1.9684805 0.47662663 -0.45801264 7.0889882e-39
1.9686551 0.49600521 -0.4588179 9.9427171e-39
1.9791635 0.51974821 -0.46103209 9.3923991e-39
1.9976107 0.53340626 -0.4763864 6.5383115e-39
2.0252879 0.54876864 -0.47672099 2.7622788e-39
1.8561119 -0.034114771 -0.40196127 1.4087566e-38
1.8614091 -0.01558604 -0.4007827 1.3814578e-38
1.8462938 0.0018472947 -0.38339359 1.3999328e-38
1.8633579 0.01641513 -0.40181789 1.2890439e-38
1.8462454 0.050217912 -0.38339359 2.0278693e-38
1.8653834 0.039597046 -0.3930611 1.5192801e-38
1.922356 0.059567425 -0.41021919 1.0892461e-38
1.934688 0.060064163 -0.42767403 6.1663943e-39
1.9061675 0.087646663 -0.40676236 3.222873e-39
1.9177459 0.077468932 -0.41658685 3.2232457e-39
1.9346807 0.067330219 -0.42767403 2.2119706e-39
1.905378 0.10648257 -0.40958184 2.9466644e-39
1.9125671 0.10394519 -0.42500129 2.9473861e-39
1.8731925 0.14490314 -0.40203017 3.7796579e-39
1.8943715 0.12981501 -0.41151679 3.9601157e-39
1.8651952 0.16625823 -0.40162578 3.8707647e-39
1.8637036 0.19489339 -0.40062085 3.7771426e-39
1.873644 0.22192407 -0.40389007 3.5938205e-39
1.8829161 0.23500331 -0.40784448 3.961517e-39
1.8913342 0.2538707 -0.41087529 3.7771398e-39
1.9040867 0.28413087 -0.4136543 3.778223e-39
1.8938276 0.31455129 -0.41144088 3.777867e-39
1.8932544 0.34646946 -0.41133425 3.6842211e-39
1.9022207 0.37160033 -0.41181621 3.592038e-39
1.9141159 0.38752753 -0.41830155 3.5905961e-39
1.9067919 0.40559793 -0.40331641 3.2243373e-39
1.9155717 0.4082776 -0.4198527 3.4101635e-39
1.9254717 0.4282423 -0.41832829 7.0911111e-39
1.9477247 0.4441646 -0.4231413 1.1895058e-38
1.9559925 0.47008798 -0.42584115 8.9303588e-39
1.9714288 0.46289626 -0.42453504 7.0849847e-39
1.9535669 0.49517763 -0.42339134 1.1600424e-38
1.9605955 0.51649392 -0.41846171 7.7419092e-39
1.9840826 0.52373213 -0.43869692 7.5506614e-39
2.0006471 0.53639096 -0.45389989 3.8668144e-39
2.0367491 0.55372983 -0.4620882 1.9350264e-39
1.879576 -0.033257052 -0.38313043 1.5661726e-38
1.8698615 -0.015608962 -0.37049076 1.491876e-38
1.8500547 0.014841024 -0.3651329 1.4088641e-38
1.8595114 0.02039508 -0.37669423 1.3626585e-38
1.8477145 0.036307447 -0.35911763 1.3073755e-38
1.8664178 0.048677925 -0.37083355 1.5198201e-38
1.9198142 0.059403412 -0.39866415 1.6051061e-38
1.8850387 0.065133773 -0.36279455 1.6336597e-38
1.9089072 0.078307323 -0.38188535 4.608341e-39
1.9197997 0.073774055 -0.39866415 3.6824526e-39
1.9073317 0.10522161 -0.38159099 2.8551835e-39
1.875739 0.14083688 -0.37086195 3.7771482e-39
1.8990883 0.12566976 -0.3815431 3.2243401e-39
1.8651891 0.16552088 -0.36961842 3.8707689e-39
1.8708156 0.1974646 -0.37072358 3.8686123e-39
1.8802918 0.22655359 -0.37261191 3.7782089e-39
1.9004512 0.25626087 -0.37990922 3.8689767e-39
1.9077545 0.28698042 -0.38169727 3.9622555e-39
1.8838519 0.32515109 -0.36618388 3.7775055e-39
1.9006706 0.31438833 -0.38234693 3.961901e-39
1.8847682 0.3356933 -0.36279455 3.867885e-39
1.8964708 0.34639838 -0.38104105 3.5930974e-39
1.908304 0.37401226 -0.38226569 3.4090733e-39
1.9204313 0.38992894 -0.3951987 3.4079957e-39
1.9117208 0.40642723 -0.38529149 3.5934688e-39
1.9213645 0.40430054 -0.39173332 3.4087048e-39
1.924988 0.42645559 -0.3888278 6.1634011e-39
1.9511319 0.44319966 -0.39410016 8.943716e-39
1.9507844 0.46781123 -0.39346087 9.7590419e-39
1.9490527 0.49631315 -0.39454722 1.2520575e-38
1.9610047 0.51508147 -0.39612016 8.4798203e-39
1.8584583 -0.010809049 -0.33895794 1.60269e-38
1.8683332 -0.016375631 -0.34456953 1.4918752e-38
1.8562746 0.015636364 -0.33623111 1.5009871e-38
1.8525678 0.045188941 -0.33353209 1.270605e-38
1.8733824 0.055344753 -0.35111645 1.3993877e-38
1.8572187 0.066681005 -0.32804364 1.2436651e-38
1.8854047 0.073996544 -0.34355241 9.5944538e-39
1.9026188 0.080705032 -0.35721356 3.6813568e-39
1.8918849 0.10429399 -0.33761683 2.8537541e-39
1.902541 0.1059979 -0.35323396 2.855175e-39
1.883333 0.13913111 -0.34399372 3.5012871e-39
1.9008011 0.12393121 -0.35327572 2.6711663e-39
1.86045 0.16721016 -0.33102292 3.9622457e-39
1.8671402 0.16172878 -0.34828082 3.9633135e-39
1.8606894 0.18843426 -0.33007076 3.5938345e-39
1.8718927 0.19761901 -0.34340826 3.6849441e-39
1.883176 0.22880635 -0.34398726 3.7778544e-39
1.8918023 0.25312686 -0.33737475 3.8682592e-39
1.9017588 0.26048127 -0.35168126 3.8689837e-39
1.9079863 0.28913438 -0.350315 3.9622653e-39
1.8898844 0.31754395 -0.3441534 3.777874e-39
1.8979064 0.3074266 -0.35276449 3.9615492e-39
1.888502 0.33665299 -0.344504 3.5012605e-39
1.9004092 0.35237339 -0.34940633 3.5005445e-39
1.9107766 0.37595013 -0.35178658 3.5009144e-39
1.9199851 0.40561113 -0.35507318 3.6838721e-39
1.9205942 0.42466491 -0.35277584 5.1521471e-39
1.9373571 0.43908766 -0.35918957 7.6454003e-39
1.9486779 0.44517931 -0.37510872 7.633167e-39
1.9418422 0.47080997 -0.35831085 1.2981214e-38
1.9501936 0.46261933 -0.36950168 1.0955794e-38
1.9390512 0.48838541 -0.35653743 1.2888653e-38
1.9505399 0.49967659 -0.36809996 1.2796802e-38
1.9657696 0.51658779 -0.36478922 7.0032483e-39
1.8681762 -0.0073442836 -0.30340937 1.4918047e-38
1.8750626 -0.0078545846 -0.31993127 1.5655235e-38
1.8627764 0.015621582 -0.30601165 1.5930388e-38
1.8492256 0.046332363 -0.30379954 1.3443263e-38
1.8572662 0.067160137 -0.3051219 1.1323489e-38
1.8811711 0.081622072 -0.31411573 7.3745742e-39
1.8938513 0.10801904 -0.31590822 2.4867625e-39
1.868022 0.14698103 -0.30340937 3.8693592e-39
1.8867247 0.13754131 -0.31386688 3.2239744e-39
1.8591529 0.16698319 -0.30543879 3.7782188e-39
1.8664345 0.19386899 -0.30525136 3.9611681e-39
1.8804313 0.20701918 -0.31636229 3.8686333e-39
1.8891218 0.22924326 -0.3139028 3.5005571e-39
1.8950351 0.25661671 -0.31572929 3.407644e-39
1.9039997 0.27034551 -0.33061892 3.1332165e-39
1.8990376 0.27831608 -0.31082511 3.408709e-39
1.9071108 0.29003835 -0.32237771 3.8704214e-39
1.8962785 0.31883872 -0.32076716 3.8707731e-39
1.9076878 0.30920246 -0.31699097 4.0530232e-39
1.8921674 0.34043413 -0.31486946 3.5920366e-39
1.9048467 0.35511702 -0.32721192 3.8675361e-39
1.9135065 0.37412849 -0.32153982 3.4076454e-39
1.9223303 0.40433934 -0.32304564 3.5923954e-39
1.9293803 0.43420032 -0.32061377 6.2592191e-39
1.9394858 0.43987525 -0.33923972 7.0882609e-39
1.9309208 0.46397248 -0.31487045 1.2152171e-38
1.9423014 0.46733966 -0.33440381 1.2428745e-38
1.9445982 0.49047589 -0.32962671 1.3902429e-38
1.9585835 0.50622404 -0.3386634 1.2063554e-38
1.9670976 0.51654816 -0.34161097 5.6156588e-39
1.8721151 0.017196262 -0.28049067 1.565343e-38
1.847752 0.054548778 -0.26413989 1.5467249e-38
1.8549221 0.044158008 -0.27586949 1.5006274e-38
1.847295 0.063048333 -0.26577964 1.4639624e-38
1.8620775 0.075655788 -0.2756522 1.0405462e-38
1.8971584 0.085986272 -0.29755035 5.8147749e-39
1.8964901 0.10645448 -0.28556794 2.6693517e-39
1.8719884 0.14672811 -0.27626988 3.4115998e-39
1.8912877 0.13543817 -0.28340578 2.7640682e-39
1.8630959 0.16606635 -0.27554527 3.6863791e-39
1.872444 0.19283254 -0.27864712 3.3186895e-39
1.8849049 0.20742102 -0.28315347 3.685663e-39
1.894613 0.2289072 -0.28311455 3.2254051e-39
1.8966793 0.25798529 -0.28540426 3.1314228e-39
1.9046605 0.28644177 -0.28815097 3.5927541e-39
1.9051811 0.3146311 -0.28822985 4.054098e-39
1.8991809 0.34475708 -0.28541687 3.6845896e-39
1.9069816 0.36733937 -0.28145111 3.2250632e-39
1.9185207 0.37730318 -0.29608372 3.407288e-39
1.9257815 0.40625957 -0.29436928 3.5002025e-39
1.9332285 0.43611228 -0.29691124 8.0077033e-39
1.9337878 0.4650569 -0.29560345 1.4546004e-38
1.9506714 0.49021468 -0.30093193 1.3257777e-38
1.9675438 0.50605136 -0.30589771 1.197532e-38
1.9777828 0.51368546 -0.31392142 3.7660373e-39
1.8740557 0.02248791 -0.24894497 1.2433431e-38
1.9055936 0.0088937543 -0.24613599 1.6687347e-38
1.8477902 0.047269646 -0.23949704 7.4599231e-39
1.8609036 0.036045406 -0.25402489 1.4174739e-38
1.8455814 0.0708097 -0.23884627 4.9728061e-39
1.8657238 0.088354386 -0.25042352 3.9608065e-39
1.874693 0.10597385 -0.24630949 2.4867569e-39
1.8954337 0.11752365 -0.26014519 2.3030887e-39
1.8750755 0.1423789 -0.24513943 3.3179637e-39
1.8985385 0.13435894 -0.25568029 2.303816e-39
1.8661202 0.16686817 -0.24530263 3.6867406e-39
1.8774778 0.19773567 -0.24869338 3.5931184e-39
1.8898783 0.21040475 -0.26495612 4.142356e-39
1.8838944 0.22397003 -0.23876815 3.1332137e-39
1.8964978 0.22929944 -0.25692827 3.4090719e-39
1.8861529 0.2437405 -0.23675589 3.3147099e-39
1.8994564 0.25652128 -0.25582603 3.1314172e-39
1.9080485 0.28571904 -0.25699791 3.0402936e-39
1.9119291 0.31711236 -0.2569603 3.9622667e-39
1.8976823 0.345893 -0.25621721 3.4090831e-39
1.9091486 0.36945373 -0.25564727 3.1328479e-39
1.9257696 0.38412142 -0.26449728 3.2239772e-39
1.9324516 0.40792713 -0.26415133 3.6842267e-39
1.9334576 0.43886679 -0.26398653 1.1967413e-38
1.9355601 0.46670642 -0.26546282 1.5374317e-38
1.9544491 0.48876119 -0.27044377 1.3168861e-38
1.8808801 0.025920425 -0.21892372 5.8969302e-39
1.9087559 0.010264991 -0.227744 7.8305147e-39
1.858642 0.045758206 -0.21097103 4.9760501e-39
1.8699206 0.036054421 -0.22105213 5.3441137e-39
1.8505732 0.077109359 -0.21088597 4.2392011e-39
1.8643013 0.097065359 -0.20346767 3.4104886e-39
1.8732488 0.10869315 -0.21872601 2.7636983e-39
1.864247 0.15146534 -0.20346767 3.5037745e-39
1.8782582 0.13571787 -0.2186314 2.4874771e-39
1.8972884 0.13395707 -0.23813899 2.2105385e-39
1.8633393 0.16215014 -0.2067472 3.6863749e-39
1.8701495 0.16823086 -0.21973334 3.9608051e-39
1.8819619 0.19791014 -0.21907634 3.5009256e-39
1.8819344 0.22541745 -0.21907634 3.4087188e-39
1.8886939 0.24901423 -0.21986227 4.0551588e-39
1.9009345 0.26184976 -0.22907774 3.5931142e-39
1.9099252 0.28489089 -0.22928676 3.2232443e-39
1.9132051 0.31686121 -0.22968607 3.8700613e-39
1.9031904 0.34588426 -0.22575966 3.7767796e-39
1.915823 0.37156928 -0.22825441 3.4079887e-39
1.9331959 0.38571328 -0.23386011 3.223603e-39
1.93226 0.4084087 -0.23198611 3.7764335e-39
1.9329208 0.436858 -0.2320725 6.9957037e-39
1.9434627 0.46780232 -0.23511294 1.0769951e-38
1.9538277 0.48781198 -0.23101906 1.4107662e-38
1.962974 0.49296117 -0.23925501 1.3367292e-38
1.984078 0.50334316 -0.24544768 1.3275104e-38
1.9989939 0.51370662 -0.23635846 1.520291e-38
1.8886346 0.026312074 -0.19056617 5.8047332e-39
1.9099301 0.013507267 -0.20498946 6.544466e-39
1.8622636 0.047321215 -0.18402393 5.3448368e-39
1.8816428 0.036066145 -0.17818749 6.0813355e-39
1.853195 0.075701162 -0.17939597 4.3310408e-39
1.8641396 0.10229187 -0.17991649 3.1339241e-39
1.8798971 0.11368565 -0.19271186 2.6718726e-39
1.8701676 0.15011127 -0.18182246 3.3190371e-39
1.8834243 0.13499063 -0.18926843 2.2119678e-39
1.8670864 0.16825029 -0.18354671 3.9618827e-39
1.8751874 0.17963041 -0.20126845 3.7778684e-39
1.8709378 0.18717204 -0.17887083 3.9608023e-39
1.8851452 0.19960712 -0.19084522 3.6845826e-39
1.8893446 0.22533818 -0.18913755 3.594545e-39
1.8966873 0.24751617 -0.1928058 4.1469943e-39
1.9135684 0.26186407 -0.19709493 4.237769e-39
1.9182191 0.28489915 -0.19895804 3.4087216e-39
1.9177837 0.31627351 -0.19891906 3.7775055e-39
1.9122815 0.347222 -0.19591382 4.1448489e-39
1.9176121 0.37037417 -0.19833896 3.5916709e-39
1.9377344 0.38811633 -0.20683098 3.4991249e-39
1.9283651 0.40848044 -0.19847356 3.5942058e-39
1.9366086 0.40459836 -0.21088693 3.8682662e-39
1.928853 0.43178022 -0.20123743 3.87042e-39
1.93805 0.43927872 -0.20548876 4.0537308e-39
1.9510101 0.46856216 -0.2080325 4.6976597e-39
1.9756838 0.49367085 -0.21779719 8.2896781e-39
1.991743 0.50516731 -0.21741284 1.1892879e-38
1.8751317 0.029076148 -0.16411275 5.2497307e-39
1.899914 0.029394509 -0.14930919 8.3844494e-39
1.8713168 0.047186788 -0.15667313 5.4366723e-39
1.8897581 0.036074258 -0.14851201 5.1618567e-39
1.858654 0.076193623 -0.15018024 4.5147076e-39
1.8688588 0.10730652 -0.15284611 3.4087146e-39
1.8760234 0.14392547 -0.15353926 3.1335528e-39
1.8867109 0.13240655 -0.15930317 1.935025e-39
1.8740686 0.16762692 -0.15634422 3.870043e-39
1.8748318 0.19245529 -0.15450351 3.7771398e-39
1.8859804 0.20698802 -0.16170111 3.4105349e-39
1.8785356 0.21267965 -0.15099443 3.6856714e-39
1.8887751 0.2258123 -0.15953699 3.8700528e-39
1.9032559 0.25198928 -0.16233698 3.870413e-39
1.9154923 0.26429644 -0.17109612 3.7789502e-39
1.9052573 0.27831009 -0.16676973 3.9604758e-39
1.9185938 0.28719682 -0.16725431 3.593473e-39
1.9251499 0.31771758 -0.16928196 3.7775041e-39
1.9188583 0.3464081 -0.16796552 4.2388438e-39
1.9269214 0.37611145 -0.16970301 3.5923926e-39
1.9430115 0.39047632 -0.18752453 3.4080111e-39
1.9367129 0.40540045 -0.17259458 3.776788e-39
1.9460959 0.41167206 -0.17616782 3.868971e-39
1.9368777 0.43998703 -0.17186336 4.0544413e-39
1.9452971 0.43404135 -0.17900702 3.7785635e-39
1.9577843 0.46822444 -0.17770289 5.1586365e-39
1.9799012 0.48836282 -0.19822533 6.9089283e-39
1.8806856 0.052783854 -0.13108076 5.4370352e-39
1.8992302 0.043681171 -0.12901179 5.621058e-39
1.9285537 0.036681868 -0.1241661 5.6152706e-39
1.8685393 0.07596866 -0.12360092 4.7923735e-39
1.8679935 0.10627592 -0.12359075 3.5005473e-39
1.8754586 0.13717289 -0.12626025 2.6718628e-39
1.8711116 0.16779223 -0.12642935 3.9618911e-39
1.8840984 0.19633067 -0.12650111 4.0519386e-39
1.8848137 0.21268594 -0.12803738 3.8697067e-39
1.8965627 0.22491378 -0.1296304 3.8696983e-39
1.9100231 0.2494591 -0.13221677 4.0526561e-39
1.9243531 0.2648845 -0.13869205 4.1448419e-39
1.9170915 0.29214212 -0.12344496 4.0515714e-39
1.9249343 0.285382 -0.13821733 4.0537351e-39
1.9166083 0.31978202 -0.1251113 4.1459223e-39
1.9295386 0.31638092 -0.14060313 3.8689865e-39
1.9158304 0.33820817 -0.12788852 4.6983618e-39
1.9247425 0.34709933 -0.13919921 4.5143419e-39
1.9275656 0.37386307 -0.13851918 3.7774957e-39
1.9421476 0.40543559 -0.14229453 4.0526589e-39
1.9453213 0.42660969 -0.14103681 3.9622541e-39
1.955538 0.44212833 -0.14848036 4.2384654e-39
1.9647887 0.4642486 -0.14932406 5.1575533e-39
1.9396701 0.029889312 -0.12145183 1.2731675e-38
1.9123529 0.049456075 -0.10083354 5.7128977e-39
1.9313039 0.036684617 -0.11410964 6.8995845e-39
1.8793786 0.076964267 -0.095664166 5.343755e-39
1.8659877 0.11565787 -0.087294534 3.2264869e-39
1.8733426 0.10560574 -0.094555162 3.6856616e-39
1.8770825 0.13668181 -0.094412692 3.3175965e-39
1.879508 0.16724758 -0.094530873 4.1469957e-39
1.8894559 0.19347307 -0.096552178 4.3310436e-39
1.9026688 0.20016798 -0.10070146 4.1462922e-39
1.9058348 0.22506982 -0.10018436 3.9626184e-39
1.9144864 0.24797587 -0.10470023 3.9622457e-39
1.9352224 0.26396939 -0.10526805 4.3296101e-39
1.9209193 0.29214594 -0.10944767 4.1459209e-39
1.9377135 0.28053334 -0.10494336 4.4218001e-39
1.9157392 0.30488452 -0.10307086 4.1455958e-39
1.9326422 0.32058561 -0.10817902 4.1466383e-39
1.9228733 0.34328258 -0.1021158 4.6079766e-39
1.9322445 0.34629706 -0.10953862 4.698373e-39
1.9355315 0.37499318 -0.10856327 4.1448503e-39
1.942057 0.40719834 -0.11134207 4.1459251e-39
1.9503326 0.43329048 -0.11672995 4.2370417e-39
1.9653287 0.44610819 -0.11405396 4.6987317e-39
1.9717745 0.46354374 -0.11999046 7.5560662e-39
1.9150074 0.054465275 -0.075070828 5.7128949e-39
1.8962128 0.080835395 -0.06788183 4.9749669e-39
1.9113683 0.066861019 -0.069377355 5.5288609e-39
1.8814201 0.10614487 -0.065016009 4.3299534e-39
1.8712646 0.13574389 -0.067925036 4.8842118e-39
1.8836015 0.13656743 -0.064908788 4.3321212e-39
1.8890642 0.16738465 -0.065273166 4.6072564e-39
1.9012724 0.19645795 -0.067911789 4.7905868e-39
1.9094384 0.19333807 -0.075971924 4.6998219e-39
1.9018542 0.21270297 -0.065725394 4.7901959e-39
1.9107836 0.2256587 -0.073643439 4.4228623e-39
1.9256766 0.25003877 -0.073250867 4.3292331e-39
1.939693 0.26466817 -0.082599521 4.421433e-39
1.9268107 0.29445517 -0.087896407 4.6983758e-39
1.9442177 0.28579473 -0.079358183 4.698387e-39
1.9298338 0.30943006 -0.076787494 4.7905896e-39
1.9401029 0.32166237 -0.080893032 4.7912959e-39
1.9279764 0.34397867 -0.083452843 4.6990975e-39
1.940712 0.34598958 -0.078577019 4.8827684e-39
1.9427062 0.37529045 -0.080096819 4.6980269e-39
1.9512964 0.40746549 -0.082188934 4.5147062e-39
1.9602152 0.42888343 -0.086565748 4.2356054e-39
1.9778918 0.44276917 -0.089572906 4.605813e-39
1.9913127 0.46194896 -0.094042726 7.3670114e-39
1.9228449 0.056764245 -0.046402983 5.4359548e-39
1.8933293 0.087403856 -0.04680977 4.607978e-39
1.9194442 0.075008325 -0.042187132 5.3444669e-39
1.8949672 0.10650016 -0.03917145 4.9763892e-39
1.8988005 0.13719161 -0.039257973 5.1615077e-39
1.9033997 0.16735478 -0.04002165 4.9771137e-39
1.922076 0.17967731 -0.029810024 4.9756899e-39
1.9084476 0.19627625 -0.041675117 4.9746025e-39
1.9211589 0.19505897 -0.033107311 4.8827741e-39
1.9081322 0.21270926 -0.042768326 4.7920035e-39
1.9206352 0.22501124 -0.043833561 4.7912903e-39
1.9325831 0.24866545 -0.0480005 4.5129041e-39
1.9492798 0.26408201 -0.047545642 4.1448461e-39
1.9553998 0.28762189 -0.051618055 4.6065445e-39
1.9491951 0.31626895 -0.051456615 4.6994646e-39
1.9482191 0.34654582 -0.051124763 5.1593539e-39
1.9533548 0.37599191 -0.054533772 5.0668108e-39
1.9617722 0.40455776 -0.054154057 5.2504734e-39
1.967172 0.42361975 -0.061145913 4.9742452e-39
1.9849743 0.439877 -0.061699301 4.3285185e-39
1.9958615 0.45649463 -0.065513261 8.100629e-39
1.9428452 0.057224609 -0.030130062 4.9667174e-39
1.9348012 0.079222552 -0.019184059 5.8047275e-39
1.9596871 0.071465313 -0.010193194 4.5186649e-39
1.9136119 0.11411468 -0.023090839 5.7135997e-39
1.930743 0.10712577 -0.011922276 5.8965504e-39
1.9135882 0.13791467 -0.02309081 5.6203377e-39
1.9283943 0.1353001 -0.010027954 5.7132522e-39
1.9135643 0.16171466 -0.023090839 5.2544054e-39
1.9282936 0.16731808 -0.011580325 5.4366583e-39
1.9145538 0.19717281 -0.019342747 5.157926e-39
1.9301735 0.19587825 -0.0085650403 5.5281463e-39
1.9135133 0.21271464 -0.023090839 5.0682611e-39
1.9328943 0.22616772 -0.013773843 5.1611476e-39
1.9400125 0.25526339 -0.017362164 4.0533595e-39
1.9619564 0.28607905 -0.026383113 4.514702e-39
1.9668627 0.31753817 -0.024213158 5.1597169e-39
1.966777 0.34598863 -0.024692977 5.4355709e-39
1.9665301 0.37539062 -0.027781835 5.6199705e-39
1.9895972 0.3905229 -0.017174061 5.9869762e-39
1.9751683 0.39832869 -0.03199783 5.803287e-39
1.9898163 0.41242629 -0.028802866 5.5277707e-39
2.0038142 0.43703654 -0.034518674 4.6069046e-39
2.0047474 0.45571056 -0.044937935 1.0406907e-38
2.0246027 0.45597261 -0.034883529 6.4360658e-39
1.9438021 0.084547907 -0.0012582435 5.7146913e-39
1.9438683 0.11087153 0.0053984094 5.6199944e-39
1.936928 0.13332944 0.005375287 5.8040059e-39
1.9444603 0.16709049 0.0065052086 5.6196174e-39
1.9459618 0.19618781 0.0045195813 6.2635421e-39
1.968803 0.19945982 0.014131713 6.079511e-39
1.9504979 0.22963235 0.0098569691 5.6199705e-39
1.9697248 0.2201311 0.014418409 5.8958484e-39
1.952225 0.25900942 0.0091196178 4.8834915e-39
1.9549261 0.28008726 0.014861064 3.9611751e-39
1.9648612 0.29008469 0.003206348 4.0533665e-39
1.9776661 0.3128362 0.00027968769 5.3433823e-39
1.9971144 0.3269524 0.010082027 6.3568013e-39
1.9803602 0.34382224 -0.0048715016 5.4370156e-39
1.9957654 0.34511617 0.0052147922 5.8965546e-39
1.9811314 0.36741352 -0.010306226 5.8969288e-39
2.0016937 0.3757647 -0.0021857917 5.8040017e-39
2.0039041 0.40595159 -0.0065033464 5.1597365e-39
2.0016787 0.43395379 -0.014538817 4.791684e-39
1.9855431 0.17499581 0.019022668 5.7132508e-39
1.9841141 0.19804943 0.026044087 5.9887517e-39
1.9801512 0.22863336 0.03226155 5.1579288e-39
2.0104084 0.21807574 0.037444722 5.1579106e-39
1.9596459 0.269151 0.032079868 5.5256183e-39
1.9748563 0.25411841 0.030780543 5.2497573e-39
1.9599404 0.27836475 0.033190761 5.6188803e-39
1.9783677 0.28728029 0.034437254 4.514702e-39
1.9840589 0.31002557 0.027989641 3.9586752e-39
2.0170631 0.32975769 0.020486794 5.6203209e-39
1.9885674 0.34633836 0.016808255 5.9851826e-39
2.0113299 0.34418988 0.020425551 4.9714118e-39
2.0199108 0.36998627 0.010197185 5.8036387e-39
2.0313177 0.38285452 0.010254825 5.6196258e-39
2.0984979 0.17956749 0.03908373 9.3012755e-39
2.0276141 0.20565993 0.037764773 3.8711585e-39
2.0509131 0.20704356 0.047906552 1.0777528e-38
2.0788195 0.19716004 0.048063807 1.2433417e-38
2.0984905 0.18696198 0.03908373 8.9354007e-39
2.0251498 0.23180516 0.049699504 9.6694106e-39
2.0450311 0.22393763 0.053861596 1.5746705e-38
2.0196846 0.25778228 0.050659113 9.7626544e-39
2.0447218 0.24634674 0.058770653 1.8873793e-38
2.0313122 0.2771132 0.051548567 1.837894e-39
2.0478849 0.2828013 0.056570381 1.2156871e-38
2.0950456 0.17605701 0.071938194 1.2154695e-38
