# .PCD v0.7 - Point Cloud Data file format
VERSION 0.7
FIELDS x y z rgb
SIZE 4 4 4 4
TYPE F F F F
COUNT 1 1 1 1
WIDTH 1007
HEIGHT 1
VIEWPOINT 0 0 0 1 0 0 0
POINTS 1007
DATA ascii
2.3895411 -0.75780129 -1.139291 9.3957146e-39
2.3925786 -0.73482877 -1.1407367 9.1237898e-39
2.39255 -0.70610589 -1.1407367 9.2156267e-39
2.4140625 -0.69463211 -1.1378487 8.6635362e-39
2.3928697 -0.66507274 -1.1394173 8.5706175e-39
2.4108694 -0.68257564 -1.1494813 8.4795036e-39
2.4123614 -0.64784241 -1.1438977 8.9361546e-39
2.4388196 -0.63912749 -1.1445992 1.0130343e-38
2.4732721 -0.6293059 -1.1523476 1.6208766e-38
2.3924637 -0.61993712 -1.1407366 1.4923e-38
2.653434 -0.91332036 -1.1731725 1.2814793e-38
2.6761842 -0.90609688 -1.1809382 7.1858781e-39
2.6949987 -0.90719444 -1.2031257 5.990572e-39
2.6776993 -0.88114649 -1.175306 6.3575342e-39
2.6961048 -0.88364315 -1.1989956 6.4486536e-39
2.6741698 -0.85195458 -1.1881065 6.9067535e-39
2.6996586 -0.86080319 -1.1859167 6.3557349e-39
2.3989165 -0.75875819 -1.1176486 8.8421681e-39
2.4219711 -0.75653034 -1.1091552 9.307465e-39
2.3997326 -0.73322594 -1.1145703 9.0323215e-39
2.4219487 -0.73401898 -1.1091553 8.939037e-39
2.4013941 -0.71088421 -1.1084135 9.1223619e-39
2.4215734 -0.69800127 -1.110396 9.12415e-39
2.4013531 -0.67019343 -1.1084132 8.7553745e-39
2.3964622 -0.65015948 -1.1009517 9.030881e-39
2.4216466 -0.64397407 -1.1099308 8.2943907e-39
2.4387848 -0.63915318 -1.1230628 8.9339826e-39
2.4771879 -0.63917357 -1.1380647 1.1690459e-38
2.4965243 -0.6342147 -1.1469492 1.6581464e-38
2.7077374 -0.93929553 -1.1566613 1.3729189e-38
2.6840296 -0.91033566 -1.1522648 7.3720659e-39
2.6836462 -0.87715936 -1.1535449 6.3564748e-39
2.6858399 -0.85371238 -1.1454378 5.9887545e-39
2.7043612 -0.85723019 -1.1687076 5.8951127e-39
2.4281173 -0.75250429 -1.0866657 9.3078154e-39
2.4472485 -0.76875949 -1.0925883 8.567358e-39
2.4287367 -0.73562014 -1.0843393 8.4795008e-39
2.4102299 -0.70728499 -1.0760901 8.109998e-39
2.4278481 -0.69542223 -1.0874412 8.2958298e-39
2.4101903 -0.66779101 -1.0760901 8.6631718e-39
2.4101713 -0.64864236 -1.0760902 8.9401231e-39
2.4281323 -0.64010847 -1.0862005 8.1107183e-39
2.4532733 -0.63424814 -1.095338 1.0216428e-38
2.6924524 -0.93156022 -1.1215433 9.6762083e-39
2.6477528 -0.90566361 -1.102935 8.2032559e-39
2.6682458 -0.91330558 -1.1190096 8.2028929e-39
2.6477318 -0.88478291 -1.102935 6.5419647e-39
2.6665938 -0.88172191 -1.1249336 6.1738856e-39
2.6895881 -0.86786389 -1.1317838 5.8079645e-39
2.6477005 -0.85346186 -1.102935 5.8980134e-39
2.6895723 -0.85193914 -1.1317838 6.0813313e-39
2.433841 -0.75008661 -1.0657272 7.6500835e-39
2.4523737 -0.76551402 -1.0738347 7.4595643e-39
2.4067254 -0.73105925 -1.0384445 7.4656964e-39
2.4338267 -0.73561507 -1.0657272 7.5579061e-39
2.3816528 -0.70024157 -1.0327129 7.0032974e-39
2.4029312 -0.70249915 -1.0522147 7.3738749e-39
2.381634 -0.6813792 -1.0327129 6.7285097e-39
2.407562 -0.67354727 -1.0478116 7.4649874e-39
2.4362991 -0.6632548 -1.0564212 7.5568089e-39
2.4573953 -0.65857679 -1.0550811 7.55895e-39
2.4345896 -0.65039295 -1.0626252 8.0163507e-39
2.4590366 -0.64399016 -1.0641899 8.0159835e-39
2.6784499 -0.93435216 -1.0817726 1.2166969e-38
2.6461005 -0.90321755 -1.0799031 8.2965459e-39
2.6770506 -0.9238252 -1.0868503 9.8617108e-39
2.6389363 -0.88521492 -1.0769717 7.189855e-39
2.6341805 -0.85552257 -1.0739086 5.8980274e-39
2.6303747 -0.83620209 -1.0790347 5.4384674e-39
2.3834832 -0.72717369 -1.0081118 7.5589809e-39
2.3869431 -0.70377296 -1.0133816 8.2029055e-39
2.3881888 -0.67751437 -1.0087296 7.0940398e-39
2.4160388 -0.66042924 -1.0167668 6.6323428e-39
2.4265873 -0.64862591 -1.0160613 7.2773521e-39
2.4432807 -0.64636433 -1.0308297 6.6312568e-39
2.4637911 -0.64398867 -1.0316391 7.0904427e-39
2.6494143 -0.93318498 -1.0533626 1.0413445e-38
2.6469727 -0.91373634 -1.0535024 8.9408545e-39
2.6184628 -0.88073522 -1.0355631 6.4468768e-39
2.6372507 -0.88279706 -1.0540618 7.7444441e-39
2.618432 -0.84992051 -1.0355631 5.990223e-39
2.6425951 -0.85343307 -1.0562094 6.5448275e-39
2.6184115 -0.82937735 -1.0355631 5.9923628e-39
2.3562691 -0.73169082 -0.98159277 7.0882973e-39
2.3769147 -0.73062539 -0.97812277 7.4628168e-39
2.3763902 -0.69973314 -0.97992879 7.1873117e-39
2.3965561 -0.67664862 -0.97813004 7.1862383e-39
2.4235864 -0.66042167 -0.98916733 7.1876746e-39
2.4702168 -0.65856397 -1.0081971 7.369189e-39
2.4515588 -0.65359181 -1.0005852 7.5557256e-39
2.471489 -0.64884156 -1.0035087 7.37134e-39
2.6046553 -0.93495077 -1.002849 9.0268466e-39
2.6212287 -0.93722594 -1.0256554 9.950626e-39
2.5843873 -0.90699309 -0.98966879 9.1255443e-39
2.6039658 -0.91711754 -1.0053064 9.2156015e-39
2.6212029 -0.91154706 -1.0256554 9.4968771e-39
2.5834751 -0.8834123 -0.99291825 6.3582685e-39
2.6027229 -0.88399857 -1.0097299 5.896954e-39
2.5843468 -0.86656743 -0.98966879 6.633803e-39
2.6028953 -0.85469973 -1.0089927 5.6200014e-39
2.6265604 -0.84991235 -1.0058398 5.9877119e-39
2.5619373 -0.80981547 -0.99179643 5.0700282e-39
2.6032054 -0.82896751 -1.0077639 5.4366765e-39
2.4028511 -0.75209194 -0.95538718 7.6392767e-39
2.4243822 -0.75764835 -0.94870377 7.8243882e-39
2.3875132 -0.73221207 -0.95246923 9.3996649e-39
2.3685009 -0.70844924 -0.9367795 9.0308908e-39
2.3840706 -0.69764513 -0.95183575 8.2025524e-39
2.3977749 -0.67137337 -0.94746149 7.5553795e-39
2.4192746 -0.66264427 -0.96703261 6.7249014e-39
2.4270792 -0.65200806 -0.9574092 7.0007512e-39
2.4598188 -0.64272982 -0.97034073 7.7393896e-39
2.5924153 -0.93730426 -0.96042335 2.1165352e-39
2.587532 -0.91632575 -0.96935803 4.7891421e-39
2.5787199 -0.88303548 -0.96607846 5.9884069e-39
2.5819597 -0.8550778 -0.96423733 5.0660891e-39
2.6106198 -0.85087049 -0.98073173 5.1604455e-39
2.6292698 -0.84990966 -0.9959321 5.4373954e-39
2.5923042 -0.82613361 -0.96042335 4.7934819e-39
2.6099298 -0.83303714 -0.98318917 4.9774738e-39
2.5465548 -0.80329138 -0.96462017 4.69948e-39
2.414046 -0.75208074 -0.91444993 7.4609825e-39
2.4281414 -0.75764459 -0.93495715 7.4541693e-39
2.4017034 -0.7328276 -0.91835558 9.8606388e-39
2.3577354 -0.69879389 -0.90787256 9.3089028e-39
2.3742142 -0.70276523 -0.91586661 9.2167071e-39
2.391197 -0.69035685 -0.9257493 8.2032727e-39
2.3770564 -0.6852113 -0.90541023 8.2029069e-39
2.3995864 -0.66857737 -0.91900092 7.4638916e-39
2.4126983 -0.64833891 -0.91899854 7.2776828e-39
2.443876 -0.64110857 -0.93596494 7.2783989e-39
2.4480257 -0.61988157 -0.93756205 1.0679545e-38
2.4693441 -0.62463087 -0.93544316 1.0026966e-38
2.583544 -0.93444526 -0.9331454 2.3934977e-39
2.5799844 -0.91253668 -0.93755126 7.3684659e-39
2.5773561 -0.88401735 -0.93568647 5.9884126e-39
2.5562332 -0.85965729 -0.92943382 5.1589896e-39
2.5802684 -0.84765035 -0.9381721 4.883825e-39
2.5852196 -0.82839763 -0.93857121 4.7916588e-39
2.4130673 -0.75963032 -0.89404696 5.5281252e-39
2.4011216 -0.73715425 -0.88962972 9.3078154e-39
2.3832021 -0.70378864 -0.88300359 1.0046109e-38
2.3834817 -0.67707455 -0.8818832 8.203623e-39
2.3985817 -0.66694582 -0.89865959 7.0972586e-39
2.3843815 -0.65732872 -0.87852228 7.3731617e-39
2.4110072 -0.64270526 -0.89242291 7.3698911e-39
2.4436846 -0.63178861 -0.91556883 7.0025168e-39
2.4213774 -0.62003666 -0.88715845 6.4494019e-39
2.442209 -0.61987388 -0.90828496 8.7384188e-39
2.5624297 -0.93260771 -0.90704256 7.3657852e-40
2.5451622 -0.9105736 -0.89049453 7.1898424e-39
2.5617514 -0.91022396 -0.90944165 6.7256189e-39
2.52527 -0.8887732 -0.88354272 6.908187e-39
2.5438306 -0.88096029 -0.89525551 6.5412332e-39
2.5606303 -0.88286638 -0.91344005 6.4493823e-39
2.5226474 -0.84959787 -0.89299029 5.3433767e-39
2.5444546 -0.85381281 -0.89287502 4.9749753e-39
2.5612965 -0.84904033 -0.9108811 4.7909372e-39
2.5831323 -0.83988243 -0.91440338 4.7902099e-39
2.562974 -0.82068503 -0.90464354 4.4239497e-39
2.583122 -0.829853 -0.91440338 4.51686e-39
2.4205062 -0.75962287 -0.86684519 6.7191056e-39
2.4494631 -0.77662516 -0.8570596 4.5154363e-39
2.3930252 -0.72236228 -0.84715301 8.111412e-39
2.4082224 -0.73831731 -0.8636688 8.6649627e-39
2.3750119 -0.69693148 -0.8446902 9.1241444e-39
2.3887196 -0.70610601 -0.86283767 9.4925668e-39
2.3749843 -0.66925448 -0.84469014 9.0323103e-39
2.3886917 -0.67823082 -0.86283767 9.03196e-39
2.3905089 -0.65732265 -0.8561157 7.832335e-39
2.4144115 -0.64040852 -0.86468703 7.186583e-39
2.4143836 -0.61697584 -0.86470383 6.5437443e-39
2.5199826 -0.9086228 -0.85962588 1.0139389e-38
2.5220387 -0.8795011 -0.86086291 5.8958456e-39
2.5307226 -0.85081404 -0.86346662 5.0664464e-39
2.5477021 -0.84640592 -0.88097262 5.3426914e-39
2.5329623 -0.82999855 -0.85519993 3.4134005e-39
2.5502882 -0.8286345 -0.87145072 4.5150565e-39
2.5675738 -0.82814193 -0.88785005 4.8834453e-39
2.5139549 -0.80433679 -0.84879154 4.3303177e-39
2.421963 -0.75773901 -0.837502 6.998205e-39
2.4544754 -0.77662015 -0.83873081 4.6058256e-39
2.3979301 -0.72545469 -0.82922775 8.8500854e-39
2.4164371 -0.74275577 -0.83364427 9.3103391e-39
2.3756385 -0.70393151 -0.82292885 7.9259655e-39
2.3708806 -0.67285967 -0.81990469 8.2025384e-39
2.3990779 -0.64802229 -0.82474637 8.0188702e-39
2.4146097 -0.64352602 -0.83996528 7.4638859e-39
2.4180348 -0.61876029 -0.83763885 7.4606335e-39
2.5336206 -0.93865353 -0.8279174 1.1707784e-38
2.502708 -0.90438116 -0.81446517 9.857364e-39
2.5183389 -0.914505 -0.83316356 1.0968071e-38
2.5008693 -0.88370937 -0.82111233 7.0958363e-39
2.5185153 -0.87724054 -0.83238214 5.894782e-39
2.5211887 -0.85495764 -0.83200222 5.0671541e-39
2.5026259 -0.82237566 -0.81446517 4.698359e-39
2.5211594 -0.82575756 -0.83200222 4.5136244e-39
2.4835556 -0.79218376 -0.80826914 5.1586421e-39
2.500057 -0.79825896 -0.82377112 4.5161467e-39
2.5165191 -0.80433422 -0.83941478 4.6065263e-39
2.4102099 -0.75022042 -0.78441453 8.1150231e-39
2.4320841 -0.76187778 -0.80531061 6.6305253e-39
2.4594877 -0.77661514 -0.82040197 5.1568064e-39
2.3906209 -0.73105097 -0.78773701 8.3873234e-39
2.4044662 -0.72544819 -0.80532736 8.4780715e-39
2.421706 -0.74337465 -0.81438047 8.8483058e-39
2.3563418 -0.68875486 -0.77645677 8.3880325e-39
2.3739049 -0.70223838 -0.79189342 8.2947508e-39
2.3563328 -0.67966133 -0.77645677 8.0185213e-39
2.3723893 -0.67291504 -0.79353642 7.7412015e-39
2.3814685 -0.65061295 -0.79166716 7.4638874e-39
2.405195 -0.63739717 -0.80233973 7.8330286e-39
2.4269471 -0.63415223 -0.79481566 7.3724106e-39
2.4289844 -0.62125844 -0.80532551 7.6410815e-39
2.5340223 -0.9393568 -0.80623305 1.1706341e-38
2.4912472 -0.90706784 -0.78056353 8.6617271e-39
2.5078073 -0.91402382 -0.79585314 9.4918283e-39
2.5243285 -0.92097968 -0.81128436 1.0131486e-38
2.4848766 -0.88178062 -0.78860199 7.4649804e-39
2.4810154 -0.85588545 -0.77988046 5.6214237e-39
2.507113 -0.85613823 -0.79817963 5.0678884e-39
2.5255427 -0.85293078 -0.80659598 5.1586351e-39
2.4911513 -0.81132478 -0.78056353 3.7803683e-39
2.507154 -0.826123 -0.79792112 4.4214302e-39
2.4513912 -0.78033698 -0.77799261 5.1579288e-39
2.4822578 -0.7965374 -0.78775698 4.790933e-39
2.4175723 -0.75950474 -0.75752658 6.9089409e-39
2.4332547 -0.768327 -0.77224094 6.1688423e-39
2.3861136 -0.73149079 -0.76079714 8.1117945e-39
2.3625164 -0.69524407 -0.75390148 8.9404804e-39
2.379277 -0.70657569 -0.76089239 8.9397545e-39
2.3599308 -0.67965776 -0.76329952 8.4787806e-39
2.3799689 -0.67360032 -0.75824183 8.7557206e-39
2.3854194 -0.64581209 -0.76095438 8.0185059e-39
2.4162166 -0.62942171 -0.76200789 7.5578949e-39
2.4306512 -0.63414854 -0.78127086 7.6482842e-39
2.4391465 -0.62163174 -0.77416933 7.4588469e-39
2.5359068 -0.95985258 -0.76908875 1.2533588e-38
2.5154645 -0.93652737 -0.76793516 1.1062765e-38
2.5333328 -0.9501341 -0.77846557 1.2534291e-38
2.4884555 -0.91091079 -0.75829017 8.7539171e-39
2.4792604 -0.88187218 -0.756908 7.6493688e-39
2.4803548 -0.85032117 -0.7581529 5.437024e-39
2.4536505 -0.81289375 -0.74584115 4.8827684e-39
2.4826176 -0.82622516 -0.76127678 4.4235924e-39
2.4249439 -0.77808094 -0.73063862 5.8944092e-39
2.4484508 -0.79376018 -0.74557871 5.5277903e-39
2.4745533 -0.80510283 -0.76541549 4.7912833e-39
2.4015448 -0.75505656 -0.73082018 7.0979999e-39
2.4212582 -0.76879287 -0.74408257 6.2602939e-39
2.3879988 -0.73038197 -0.72908562 8.0188758e-39
2.3707433 -0.69783413 -0.72382778 9.0319403e-39
2.3715184 -0.67358381 -0.72090393 9.2156099e-39
2.386327 -0.66931945 -0.73497576 9.4921982e-39
2.3879118 -0.64336556 -0.72908562 8.6631564e-39
2.4051163 -0.62494099 -0.73434341 8.1099882e-39
2.4223349 -0.6201238 -0.73960125 8.0163184e-39
2.44051 -0.61541569 -0.74515122 7.7368701e-39
2.4896369 -0.61824965 -0.76012212 1.2708547e-38
2.5164154 -0.61493611 -0.76328212 1.7612213e-38
2.5397532 -0.9598487 -0.75502354 1.2536818e-38
2.4689662 -0.94064975 -0.71431249 1.253465e-38
2.4928832 -0.93528861 -0.72919095 1.0878735e-38
2.4676843 -0.90292627 -0.71886104 7.7422721e-39
2.4870648 -0.91061753 -0.73088139 7.9248795e-39
2.4680741 -0.87777609 -0.71734488 7.4646244e-39
2.4827769 -0.88347721 -0.73563117 7.6490143e-39
2.4667034 -0.85459238 -0.72227252 6.2653624e-39
2.4559407 -0.82533956 -0.7203632 5.894754e-39
2.4821005 -0.83359808 -0.73792225 5.1604287e-39
2.4150121 -0.78638071 -0.69874769 6.8153034e-39
2.4310901 -0.79665822 -0.70823199 6.447946e-39
2.4464562 -0.79951876 -0.72408146 6.17278e-39
2.4048734 -0.760912 -0.7054019 6.637026e-39
2.3949466 -0.73152 -0.70368433 7.556097e-39
2.3785412 -0.70009971 -0.69532037 8.1103526e-39
2.3940117 -0.70289713 -0.70699757 8.3854975e-39
2.3774378 -0.67600274 -0.69926757 8.6635222e-39
2.3957896 -0.66854674 -0.70037115 8.5713125e-39
2.3966019 -0.64373666 -0.70299691 8.8464687e-39
2.4118066 -0.62262785 -0.70987135 8.7546472e-39
2.4309134 -0.62011522 -0.70823199 8.9372238e-39
2.455708 -0.61346877 -0.7183814 8.4780393e-39
2.4958982 -0.60836577 -0.73213565 1.0221787e-38
2.5214953 -0.60528332 -0.74467015 1.4466755e-38
2.4308019 -0.50861436 -0.70823199 1.3083478e-38
2.4551136 -0.49491048 -0.71531802 1.2710389e-38
2.4765472 -1.0585322 -0.68702102 1.2350256e-38
2.4722304 -1.0336801 -0.6907118 1.2063236e-38
2.4557197 -1.0085824 -0.69097179 1.243453e-38
2.4623101 -0.93245465 -0.70260853 1.1708479e-38
2.4897139 -0.92859966 -0.71042901 8.4812679e-39
2.4158487 -0.91487533 -0.67341328 1.1063101e-38
2.4397755 -0.90350461 -0.67686272 7.1894837e-39
2.4697583 -0.91286111 -0.6969083 8.0174269e-39
2.4897044 -0.91909873 -0.71042901 7.6472206e-39
2.4397614 -0.88956708 -0.67686272 6.8185278e-39
2.4650793 -0.88334507 -0.69950449 7.0969223e-39
2.3790178 -0.85382587 -0.66002131 6.2667959e-39
2.419944 -0.85095567 -0.68094987 6.4519102e-39
2.4348128 -0.84311324 -0.69478804 5.8965743e-39
2.4530911 -0.84943998 -0.70000172 5.9887811e-39
2.3746529 -0.82516235 -0.65881842 5.2533614e-39
2.4149745 -0.8217808 -0.6819557 5.1608057e-39
2.4347944 -0.82452977 -0.69478804 5.804359e-39
2.3831992 -0.79124546 -0.6649735 5.2511908e-39
2.4009492 -0.79448658 -0.68196446 5.8043772e-39
2.3810194 -0.76414317 -0.66374713 5.343748e-39
2.400594 -0.76151222 -0.68314248 6.7277811e-39
2.3858562 -0.73289418 -0.66869265 5.4373926e-39
2.400089 -0.73952961 -0.68490952 6.7267077e-39
2.3836944 -0.70193303 -0.67079788 6.0820431e-39
2.3854094 -0.67167538 -0.67010236 6.7266881e-39
2.4000158 -0.66625261 -0.68490952 8.4791015e-39
2.3874843 -0.64780265 -0.66242725 6.079525e-39
2.4053886 -0.64242768 -0.67882288 8.0174171e-39
2.419718 -0.62492639 -0.68094987 8.0181387e-39
2.4370408 -0.62010908 -0.68582541 8.2025104e-39
2.4654808 -0.60852385 -0.69383091 8.0170471e-39
2.5509326 -0.60015666 -0.71282798 1.3087447e-38
2.4735928 -0.59169084 -0.69611818 1.0409768e-38
2.4918878 -0.59606522 -0.70126462 1.059487e-38
2.4196074 -0.51421821 -0.68094987 1.3082387e-38
2.4369385 -0.51789993 -0.68582541 1.3082029e-38
2.4577117 -0.53114522 -0.68194193 1.2622876e-38
2.4195981 -0.50499249 -0.68094987 1.3541942e-38
2.4381411 -0.49466932 -0.68134403 1.3722752e-38
2.4570098 -0.48805174 -0.6963557 1.1413193e-38
2.4629331 -0.4730128 -0.68664497 1.0952894e-38
2.4223917 -1.0547332 -0.63862622 1.2349551e-38
2.4448307 -1.0568134 -0.65893745 1.2529985e-38
2.4728682 -1.0580775 -0.66118592 1.2709689e-38
2.4833663 -1.0361261 -0.66200382 1.077104e-38
2.4998505 -1.0402254 -0.67377138 9.749712e-39
2.4864562 -1.0160818 -0.65063238 1.3250583e-38
2.3895345 -0.90382791 -0.64221859 8.8500462e-39
2.3634548 -0.88518465 -0.61848056 5.5292337e-39
2.3761938 -0.88131756 -0.63632977 5.6217936e-39
2.3602667 -0.85007435 -0.63001072 4.5161635e-39
2.3727372 -0.86426896 -0.64890766 6.2646393e-39
2.3598447 -0.82243222 -0.63145202 3.8707871e-39
2.360708 -0.79889792 -0.62820911 3.3172434e-39
2.3744533 -0.79430383 -0.64237684 3.87005e-39
2.3453231 -0.76625836 -0.61990178 3.6863819e-39
2.3583062 -0.76191908 -0.63685673 3.9615352e-39
2.3813081 -0.75415754 -0.65128165 4.1459251e-39
2.346868 -0.74548382 -0.61417675 3.8718437e-39
2.3617227 -0.72979057 -0.62424558 4.0555525e-39
2.3754647 -0.73426974 -0.63845825 4.0551868e-39
2.3611202 -0.70017904 -0.62634206 3.9626268e-39
2.3725746 -0.70177358 -0.64890766 4.0515799e-39
2.3608837 -0.67898893 -0.62712812 3.8696955e-39
2.3813102 -0.66952449 -0.63958961 3.7782202e-39
2.391947 -0.64877802 -0.63853025 4.0515799e-39
2.4108562 -0.63418299 -0.64515108 4.2366998e-39
2.4238896 -0.62379926 -0.64863247 4.3296073e-39
2.4456193 -0.6201005 -0.65445614 4.2366788e-39
2.4737477 -0.6116516 -0.66361159 4.9720844e-39
2.5083733 -0.60711539 -0.66629469 4.7898399e-39
2.5405822 -0.60526425 -0.67487508 5.2468874e-39
2.5586255 -0.60014892 -0.68469757 8.2770819e-39
2.5065432 -0.59357536 -0.68557358 1.207322e-38
2.4462488 -0.51417398 -0.65176731 1.3902813e-38
2.462641 -0.52177888 -0.66388208 1.2619992e-38
2.4277039 -0.49883392 -0.65128672 1.4181547e-38
2.4453778 -0.49001622 -0.65486342 1.4179776e-38
2.4691601 -0.467399 -0.65949047 1.2335482e-38
2.4552543 -1.0637718 -0.62084621 1.2896237e-38
2.4725623 -1.0591176 -0.62956846 1.3997182e-38
2.4822421 -1.035777 -0.63010025 1.1782688e-38
2.5111115 -1.0235875 -0.63253152 1.1776584e-38
2.3958023 -0.90820551 -0.59884381 8.7614547e-39
2.3678877 -0.88405955 -0.60226625 5.2544475e-39
2.3534305 -0.85008454 -0.59056133 4.4236064e-39
2.367265 -0.85268217 -0.60442817 4.2410102e-39
2.3516448 -0.82560372 -0.59700191 4.0544875e-39
2.3681207 -0.82130337 -0.60118532 3.9619052e-39
2.3680949 -0.79552871 -0.60118532 3.5019864e-39
2.3515825 -0.76328456 -0.59700197 3.6878224e-39
2.3656852 -0.7507053 -0.60983294 4.0569594e-39
2.3529646 -0.73657495 -0.59184945 4.0551714e-39
2.3672421 -0.73127931 -0.60406786 4.0555301e-39
2.3515246 -0.70541668 -0.59700197 4.0541078e-39
2.3679917 -0.69242954 -0.60118532 4.0548141e-39
2.3703432 -0.67897946 -0.5925377 3.8675473e-39
2.3879418 -0.67112631 -0.6062482 3.8686235e-39
2.3974342 -0.65137511 -0.61240822 4.4207113e-39
2.4217999 -0.63817662 -0.61367708 3.9618883e-39
2.4542072 -0.62938368 -0.62308687 3.9629645e-39
2.436753 -0.62490934 -0.61865735 4.3299548e-39
2.4541979 -0.62009192 -0.62308687 4.2388172e-39
2.4783375 -0.61532837 -0.63083732 4.5132544e-39
2.5167415 -0.60549903 -0.63568765 4.7894812e-39
2.5456719 -0.60525912 -0.65626311 4.423235e-39
2.4540908 -0.51323694 -0.62308681 1.3721662e-38
2.4712932 -0.53113168 -0.63227743 1.2899083e-38
2.4382403 -0.48959768 -0.61272472 1.362191e-38
2.4532492 -0.48845977 -0.62607431 1.399106e-38
2.4540493 -0.47142413 -0.62308687 1.5189249e-38
2.4721098 -0.46560055 -0.62905252 1.4177235e-38
2.500205 -1.0820866 -0.60059804 1.2992045e-38
2.4827576 -1.063185 -0.60259235 1.4640019e-38
2.4873853 -1.0360073 -0.60147262 1.3071979e-38
2.5148804 -1.0330848 -0.6187849 1.2065736e-38
2.4908893 -1.0123123 -0.59839475 1.159144e-38
2.4368215 -0.93521404 -0.58542377 1.2626117e-38
2.3918293 -0.90577644 -0.57924539 8.3901667e-39
2.3767538 -0.88180941 -0.56983775 5.2529929e-39
2.3894336 -0.89133477 -0.58795315 5.2558768e-39
2.3598886 -0.85007805 -0.56694591 4.3321296e-39
2.3764391 -0.86275882 -0.57091868 4.3314122e-39
2.3606737 -0.82217062 -0.56397337 3.9619094e-39
2.3728511 -0.82241923 -0.58389008 3.8704256e-39
2.3615966 -0.79665995 -0.56050533 3.8671788e-39
2.3754816 -0.79215938 -0.57416153 3.7764153e-39
2.3601229 -0.76408535 -0.56577492 3.7785817e-39
2.3727884 -0.75966334 -0.58389008 3.9615464e-39
2.3600059 -0.73241311 -0.56608713 3.8715004e-39
2.3727615 -0.73276788 -0.58389008 4.1470125e-39
2.3597395 -0.70095706 -0.56694597 3.9633345e-39
2.3750815 -0.68793982 -0.57524246 3.59671e-39
2.3632443 -0.68314809 -0.55406475 3.7803669e-39
2.375464 -0.67598605 -0.57380122 3.7785621e-39
2.3994296 -0.66512394 -0.57981783 3.9607953e-39
2.4090774 -0.65232784 -0.58348376 4.2355998e-39
2.4285128 -0.63925153 -0.58818603 4.0537252e-39
2.440062 -0.6203174 -0.59289265 4.1455705e-39
2.4640019 -0.62008214 -0.58723629 4.4203329e-39
2.490083 -0.61137962 -0.5998773 4.4207113e-39
2.5232296 -0.60548413 -0.61701697 4.3299478e-39
2.5194557 -0.59603769 -0.60045606 5.0538376e-39
2.4608314 -0.5132302 -0.59843957 1.3631263e-38
2.4811568 -0.51707959 -0.59615785 1.3724534e-38
2.4422963 -0.48959363 -0.59789312 1.5467255e-38
2.4622362 -0.48845077 -0.59321129 1.5835677e-38
2.4614024 -0.47141677 -0.59619892 1.5374671e-38
2.4821603 -0.4660885 -0.60259235 1.4546351e-38
2.4961658 -1.0587159 -0.57412392 1.3811705e-38
2.5008183 -1.0365231 -0.58018166 1.3810253e-38
2.527416 -1.0378226 -0.57296282 1.3075199e-38
2.4389398 -0.93184316 -0.54354608 6.6377743e-39
2.4058619 -0.91415691 -0.55355132 7.097616e-39
2.3704765 -0.87009877 -0.52830243 4.423249e-39
2.3844438 -0.88628429 -0.54173297 5.0696806e-39
2.3681104 -0.85229546 -0.53688991 4.3314023e-39
2.3680792 -0.821136 -0.53688991 3.686749e-39
2.3688338 -0.79294324 -0.53402746 3.593103e-39
2.3830662 -0.78953683 -0.54641712 3.6845686e-39
2.3680212 -0.76326805 -0.53688991 3.6870923e-39
2.3679903 -0.73210847 -0.53688991 3.7785929e-39
2.367959 -0.70094877 -0.53688991 3.9626114e-39
2.3684072 -0.67958182 -0.53517234 3.5938345e-39
2.3845263 -0.67298859 -0.54065204 3.499827e-39
2.4064724 -0.66575289 -0.55211586 3.4998186e-39
2.4169552 -0.64842272 -0.55466312 3.5012703e-39
2.4422133 -0.63815069 -0.5560919 3.869334e-39
2.4689157 -0.63169193 -0.56931096 3.7778516e-39
2.4664531 -0.6200797 -0.57827359 3.9629589e-39
2.4946866 -0.61589092 -0.57405645 4.1451964e-39
2.5244775 -0.60553348 -0.58212721 4.6958184e-39
2.5327728 -0.59404421 -0.58207893 6.4460892e-39
2.4373102 -0.51050138 -0.54796368 1.3176033e-38
2.4687924 -0.50857639 -0.56931096 1.335936e-38
2.4848564 -0.51239514 -0.58261299 1.40022e-38
2.446089 -0.50314951 -0.54995549 1.317533e-38
2.4687786 -0.49463871 -0.56931096 1.4455627e-38
2.4916971 -0.4892548 -0.57352167 1.4177948e-38
2.5005634 -0.47052711 -0.57904452 1.3073019e-38
2.5138643 -1.0584949 -0.55056363 1.2335141e-38
2.514344 -1.0405751 -0.5487442 1.1600086e-38
2.5324221 -1.0314838 -0.55463398 1.1875578e-38
2.3918509 -0.9030866 -0.51470923 4.7923945e-39
2.4161353 -0.92175949 -0.5245409 6.3568742e-39
2.3745906 -0.87454605 -0.51327443 4.8838545e-39
2.3923097 -0.88874191 -0.51297969 4.9781969e-39
2.3748629 -0.8534016 -0.51220107 4.5157992e-39
2.3714621 -0.82148659 -0.50964981 3.5949093e-39
2.3750923 -0.78885657 -0.51112759 3.4094264e-39
2.3917522 -0.80447006 -0.51470923 3.6827763e-39
2.3713629 -0.76207244 -0.51034504 3.9611793e-39
2.3689792 -0.73144996 -0.50983614 3.8714892e-39
2.3700111 -0.70123011 -0.51005304 3.8700571e-39
2.3749774 -0.67423362 -0.51112765 3.6856518e-39
2.391609 -0.66102797 -0.51470923 3.132492e-39
2.4179733 -0.65285057 -0.52171105 3.5909338e-39
2.448189 -0.63871998 -0.52571136 3.7764181e-39
2.4774919 -0.62936044 -0.53794169 3.9600947e-39
2.5008054 -0.61744249 -0.54431981 4.0526434e-39
2.5393138 -0.60356784 -0.55819482 4.3256304e-39
2.5736661 -0.60523117 -0.55389708 4.5978803e-39
2.5932431 -0.60011435 -0.55811077 9.127649e-39
2.4409347 -0.51049775 -0.53471082 1.3543369e-38
2.4810522 -0.51321 -0.52449769 1.2808679e-38
2.4597521 -0.50495231 -0.53411746 1.2443888e-38
2.4773619 -0.49927598 -0.53794169 1.1688331e-38
2.500674 -0.48611578 -0.54431981 1.2890093e-38
2.5132749 -0.46904558 -0.55056363 1.1416763e-38
2.5225668 -1.0537705 -0.51872361 1.1600435e-38
2.5233018 -1.0424523 -0.51599449 1.1326711e-38
2.5399423 -1.0330597 -0.52714074 9.0196846e-39
2.5262609 -1.016042 -0.5050779 7.2737129e-39
2.5405474 -1.0116819 -0.52484965 1.1882755e-38
2.4013374 -0.92997247 -0.48011878 1.2902345e-38
2.3994789 -0.91104794 -0.48684469 7.2838261e-39
2.4156549 -0.91839117 -0.49216753 6.6380854e-39
2.38504 -0.87364537 -0.47506034 4.2392081e-39
2.3989315 -0.88899136 -0.48876637 4.8845649e-39
2.3833749 -0.85228032 -0.48107162 4.0555385e-39
2.3802123 -0.82002431 -0.48043385 3.5012745e-39
2.3833125 -0.78996116 -0.48107159 3.5001843e-39
2.3693602 -0.75878537 -0.47827235 3.8700599e-39
2.3679419 -0.73181856 -0.47798893 3.8711178e-39
2.3706539 -0.70463526 -0.47747371 3.7789418e-39
2.3785112 -0.67649764 -0.48102731 3.8700486e-39
2.3998859 -0.66101968 -0.48444259 3.8689654e-39
2.4267354 -0.65163875 -0.4933219 3.5012591e-39
2.4579549 -0.63806146 -0.50218463 3.7771271e-39
2.4860704 -0.62935185 -0.50657243 3.8689738e-39
2.4860611 -0.62006009 -0.50657243 3.7785593e-39
2.5109339 -0.61529577 -0.51164097 4.054786e-39
2.5464756 -0.60864854 -0.52697068 4.237378e-39
2.5774834 -0.60522735 -0.53993803 4.6889941e-39
2.5983715 -0.60010922 -0.53935724 9.033308e-39
2.5787463 -0.59557837 -0.53528506 9.034387e-39
2.5049713 -0.51906174 -0.50908381 1.1423587e-38
2.5101867 -0.49015731 -0.51391518 1.2336557e-38
2.5126472 -0.47198385 -0.51685661 1.1601136e-38
2.5192451 -1.0289215 -0.4857626 1.0589167e-38
2.5487092 -1.0283004 -0.4950653 9.2080275e-39
2.5295746 -1.0128951 -0.49294832 7.6403543e-39
2.5557604 -1.0086277 -0.49764052 9.0203852e-39
2.5511725 -0.98554373 -0.48590088 1.2624993e-38
2.4204357 -0.93644142 -0.47475195 1.3086366e-38
2.4683626 -0.94437516 -0.47011995 1.1161058e-38
2.408407 -0.90531129 -0.45417595 5.3448214e-39
2.4228013 -0.92064089 -0.46604416 7.929543e-39
2.3916211 -0.87898034 -0.45101556 4.5154265e-39
2.4060309 -0.89410722 -0.46282354 4.9774682e-39
2.3799531 -0.85432935 -0.44755706 4.1477285e-39
2.3580534 -0.83154958 -0.44469455 4.1477187e-39
2.3867748 -0.8226124 -0.45011684 3.7764223e-39
2.3915319 -0.78995293 -0.45101556 3.4090761e-39
2.3747399 -0.75789618 -0.44785503 3.9601045e-39
2.3747134 -0.7313751 -0.44785506 3.870413e-39
2.3844595 -0.7032938 -0.44970873 3.8689738e-39
2.3895516 -0.67369217 -0.45067105 3.7767782e-39
2.4081628 -0.6610114 -0.45417595 3.8675417e-39
2.4105186 -0.65204388 -0.44552833 3.9607883e-39
2.4316924 -0.6521759 -0.46666864 3.6838665e-39
2.4671431 -0.63984871 -0.47346491 3.7756866e-39
2.4934235 -0.62934446 -0.4796845 3.7749944e-39
2.5204437 -0.61735779 -0.48487639 3.7774831e-39
2.5540056 -0.60387826 -0.49941847 4.4196127e-39
2.5889354 -0.60521585 -0.49806103 5.0567046e-39
2.5666976 -0.59104002 -0.50350732 9.3985354e-39
2.5889258 -0.59556818 -0.49806103 9.9517036e-39
2.5199363 -0.54491299 -0.47846395 1.2715049e-38
2.4924886 -0.51164997 -0.48267204 1.0213927e-38
2.512444 -0.52484947 -0.4817791 1.0961517e-38
2.519237 -0.49320883 -0.48563361 1.2981565e-38
2.5327759 -1.0282649 -0.46329117 1.1141256e-38
2.558321 -1.0330412 -0.45993507 1.0588095e-38
2.5399437 -1.0160284 -0.45504349 1.0220394e-38
2.5619264 -1.0057795 -0.46733001 7.7329058e-39
2.5186424 -0.96171206 -0.46070927 1.1162089e-38
2.5580621 -0.98316157 -0.46069875 7.9125957e-39
2.415504 -0.90754551 -0.42823312 5.4377191e-39
2.4311335 -0.91837567 -0.43556693 7.4689138e-39
2.3968039 -0.88422418 -0.42492214 4.9753172e-39
2.3657835 -0.84324592 -0.41647094 4.1481013e-39
2.3835831 -0.85623646 -0.41587782 4.331052e-39
2.3616164 -0.82795697 -0.41648957 4.0537379e-39
2.3875968 -0.81950253 -0.41947877 3.6853015e-39
2.3971307 -0.79116011 -0.4241026 3.5009172e-39
2.3829017 -0.75788802 -0.41800964 3.7789404e-39
2.3828752 -0.73136687 -0.41800964 3.7789376e-39
2.3828485 -0.70484579 -0.41800964 3.961531e-39
2.3907251 -0.67752129 -0.42133126 3.6856616e-39
2.4128926 -0.66100669 -0.43688074 3.8678794e-39
2.3996177 -0.65640342 -0.4209595 3.6867378e-39
2.4152462 -0.64979792 -0.42823312 3.8682438e-39
2.4320533 -0.64754897 -0.43121302 4.1441188e-39
2.4741898 -0.64161587 -0.4446032 3.5005417e-39
2.4983253 -0.62933958 -0.46175918 3.6831617e-39
2.4842079 -0.6248619 -0.44512814 3.501615e-39
2.5007672 -0.62004536 -0.45279655 3.5009144e-39
2.5383036 -0.61991972 -0.45959207 3.9608093e-39
2.5603592 -0.61103106 -0.46357405 3.9618813e-39
2.5914803 -0.60521334 -0.48875505 4.6843446e-39
2.5194609 -0.54512578 -0.4561944 1.133427e-38
2.5194376 -0.52172202 -0.4561944 1.1140522e-38
2.5277543 -0.4952485 -0.45769694 1.2612413e-38
2.5461774 -1.030169 -0.43230057 1.1510769e-38
2.5649946 -1.0235336 -0.43549663 1.1415692e-38
2.5461631 -1.0160222 -0.4323006 1.0865399e-38
2.5693824 -1.0062399 -0.43623632 9.2995099e-39
2.5486133 -0.97829491 -0.42320347 7.6464583e-39
2.5632825 -0.98236465 -0.44160622 6.0773544e-39
2.4092607 -0.905671 -0.38660973 5.8007451e-39
2.4214203 -0.91202217 -0.40661409 5.52597e-39
2.4059992 -0.8838917 -0.39415982 4.608348e-39
2.402416 -0.85470587 -0.38997036 4.4228833e-39
2.3754108 -0.82275432 -0.38119143 3.8707731e-39
2.3942983 -0.81970924 -0.3914341 3.7767768e-39
2.4057691 -0.79087162 -0.39400023 3.7778502e-39
2.3764982 -0.75252932 -0.37695789 3.8704214e-39
2.3903985 -0.75914341 -0.39060062 3.7796607e-39
2.3749356 -0.73351187 -0.38260257 3.9618827e-39
2.3887005 -0.72694093 -0.39669144 4.1480663e-39
2.3752952 -0.70717758 -0.38119143 3.871122e-39
2.3900757 -0.70307064 -0.39157507 3.961517e-39
2.3764281 -0.68230551 -0.37695789 3.5016122e-39
2.3939693 -0.67259789 -0.39209932 3.9608051e-39
2.4071624 -0.65258044 -0.39335707 3.8678752e-39
2.4223371 -0.64605534 -0.40229028 4.0508372e-39
2.4519863 -0.64427578 -0.40948969 4.049768e-39
2.4820275 -0.63685089 -0.41220346 3.4991053e-39
2.5089493 -0.6324262 -0.422921 3.3168665e-39
2.5343099 -0.61820036 -0.42917445 3.8675277e-39
2.5725038 -0.60734975 -0.43684229 3.4998172e-39
2.6042049 -0.60520059 -0.44222504 5.0541823e-39
2.5293617 -0.56851953 -0.42007473 1.3176059e-38
2.5271814 -0.54862857 -0.42797595 1.0409082e-38
2.5129385 -0.53640741 -0.4079833 1.1235222e-38
2.5268457 -0.52171457 -0.42910469 1.2152886e-38
2.5396428 -0.49396193 -0.43022445 1.2615655e-38
2.5636239 -0.48831639 -0.43855143 1.1969545e-38
2.5536408 -1.0301615 -0.40500912 1.1604773e-38
2.5536218 -1.0112991 -0.40500912 1.104907e-38
2.5791128 -1.002336 -0.40906572 1.003599e-38
2.5482337 -0.96942657 -0.40655163 7.1840649e-39
2.5737281 -0.9855212 -0.40342116 8.6563181e-39
2.4320624 -0.9120115 -0.36769983 6.1702899e-39
2.4489932 -0.91835785 -0.37025854 5.3448508e-39
2.4038267 -0.88373262 -0.36343542 4.700545e-39
2.3763397 -0.84770256 -0.34755859 4.3321226e-39
2.397378 -0.85364419 -0.36542484 4.2399396e-39
2.378202 -0.82967013 -0.35079169 4.0544511e-39
2.3978899 -0.82152373 -0.36343518 3.9611625e-39
2.4080164 -0.79480028 -0.36497653 3.7771454e-39
2.3775675 -0.75608474 -0.35573119 3.9629842e-39
2.3992426 -0.77555245 -0.35831878 4.2366886e-39
2.3750021 -0.73403543 -0.35436609 4.0544469e-39
2.3818617 -0.71302301 -0.35720134 3.9626156e-39
2.398005 -0.70356786 -0.36258245 3.9626072e-39
2.3810589 -0.68230087 -0.36002374 4.3310128e-39
2.4010508 -0.67353159 -0.36305323 3.9611583e-39
2.4120536 -0.65117019 -0.36472484 3.7774943e-39
2.4341581 -0.64305514 -0.35905224 3.6834784e-39
2.4546907 -0.64437765 -0.37766671 3.867176e-39
2.4910867 -0.63638163 -0.38589871 3.5912911e-39
2.5167079 -0.62932122 -0.39453936 3.9582926e-39
2.5024598 -0.6248436 -0.37838617 3.2228674e-39
2.5440991 -0.62111479 -0.40239173 3.5005375e-39
2.5762479 -0.60783589 -0.40546197 3.4991053e-39
2.5410078 -0.5746296 -0.40151921 1.179526e-38
2.5720823 -0.59281808 -0.40800336 7.3615926e-39
2.5182064 -0.55233085 -0.38877755 9.76193e-39
2.531817 -0.55447489 -0.41104481 1.0220754e-38
2.517837 -0.53268582 -0.39005801 1.2061762e-38
2.5352397 -0.51983398 -0.39840302 1.2981565e-38
2.5446627 -0.4983888 -0.40502551 1.2612767e-38
2.5598555 -1.0254397 -0.38226622 1.1601892e-38
2.5614386 -1.0092702 -0.37641805 1.1416772e-38
2.5795057 -0.99881667 -0.38234305 1.0497333e-38
2.5597987 -0.96885258 -0.38226622 7.6439626e-39
2.5806177 -0.98313904 -0.37821904 9.1172822e-39
2.4245253 -0.90565574 -0.33079144 6.3575398e-39
2.4367919 -0.9120068 -0.35040462 6.2624855e-39
2.4120078 -0.88372445 -0.33351979 4.608334e-39
2.3881979 -0.84946084 -0.3269482 4.4221588e-39
2.3807542 -0.82257646 -0.32374057 3.8704186e-39
2.4055057 -0.81974804 -0.33557948 3.6863889e-39
2.3738658 -0.79325855 -0.32607636 3.8700557e-39
2.4077189 -0.79290211 -0.33383372 3.7792907e-39
2.3877385 -0.76190764 -0.32578248 3.5963414e-39
2.4039066 -0.7755478 -0.34126428 3.7796579e-39
2.3833139 -0.73588455 -0.32440433 4.0540868e-39
2.4073515 -0.72250205 -0.32847339 3.9654729e-39
2.3903561 -0.71740347 -0.32615542 4.1473488e-39
2.406168 -0.70482248 -0.33273706 3.9636792e-39
2.3918586 -0.67643809 -0.32051069 3.96298e-39
2.4055076 -0.67218184 -0.33503285 3.8704144e-39
2.4167304 -0.65020376 -0.33419344 3.9615324e-39
2.439477 -0.64080852 -0.33959511 3.5941736e-39
2.4678447 -0.6385811 -0.34579259 3.2253995e-39
2.4951999 -0.63474655 -0.35622895 3.1324864e-39
2.5277376 -0.62931019 -0.35420743 2.3952675e-39
2.5061102 -0.62483996 -0.36503777 3.2239436e-39
2.5536516 -0.61678791 -0.37144494 2.7636913e-39
2.5827127 -0.60663122 -0.38813594 3.4972906e-39
2.5227797 -0.57356459 -0.37213272 1.0973418e-38
2.5489645 -0.57686758 -0.36282837 8.6591753e-39
2.5796041 -0.59597749 -0.38051015 5.3282538e-39
2.5233717 -0.55265754 -0.36989203 9.4860577e-39
2.5460136 -0.55212033 -0.3591229 9.9448793e-39
2.5246978 -0.53082061 -0.36496261 1.2152884e-38
2.5441267 -0.51701659 -0.36589536 1.3164521e-38
2.5562916 -0.50220191 -0.37897852 1.2520212e-38
2.5652404 -1.0050659 -0.34809536 1.0957233e-38
2.5875216 -0.99500829 -0.35301691 1.0495888e-38
2.5722425 -0.97355574 -0.33678046 9.6693602e-39
2.587007 -0.98170751 -0.35484979 9.3938677e-39
2.4837203 -0.93415427 -0.31156728 8.1110266e-39
2.4292221 -0.90565103 -0.3136166 6.0784544e-39
2.4497986 -0.9119938 -0.3028428 5.8036654e-39
2.4632902 -0.92737108 -0.31801182 8.6620228e-39
2.4214818 -0.88684082 -0.30502594 4.7923819e-39
2.3977585 -0.85219747 -0.29553607 7.0043567e-39
2.3997233 -0.82272995 -0.29228708 7.5564361e-39
2.41466 -0.82295364 -0.30211651 6.0813327e-39
2.3980317 -0.78511173 -0.29833502 6.3586188e-39
2.4155886 -0.79763705 -0.298628 6.8181816e-39
2.3688262 -0.75077915 -0.27990443 8.9368748e-39
2.3888414 -0.76338351 -0.29720157 6.3597118e-39
2.3678973 -0.73519778 -0.28324455 9.4925373e-39
2.38884 -0.73509318 -0.30143601 4.9771347e-39
2.4120152 -0.72249734 -0.31141886 3.5045059e-39
2.3687916 -0.71615171 -0.27990443 9.0322738e-39
2.3978324 -0.70217055 -0.29409507 6.3604279e-39
2.4131725 -0.71365589 -0.30715525 3.8725584e-39
2.3979251 -0.67852199 -0.29833502 3.9629772e-39
2.41429 -0.6650328 -0.30289167 3.7782061e-39
2.4264305 -0.64252776 -0.3035292 3.9608009e-39
2.445389 -0.64080262 -0.31797609 3.6853099e-39
2.4618015 -0.62946415 -0.32236573 3.2250338e-39
2.4978335 -0.62951624 -0.32708326 2.3978066e-39
2.5326395 -0.6293053 -0.33628213 2.3030775e-39
2.433634 -0.62075835 -0.2964417 3.5019612e-39
2.4483294 -0.62511069 -0.30716661 3.870378e-39
2.4834111 -0.62497282 -0.31156728 3.3165245e-39
2.5194948 -0.62482661 -0.31609368 2.4871142e-39
2.562604 -0.6135264 -0.34498605 2.0272108e-39
2.5194488 -0.57869822 -0.31609368 4.4163841e-39
2.5568037 -0.5829159 -0.34138882 6.7205462e-39
2.5013845 -0.55623549 -0.31383044 8.0087668e-39
2.5325651 -0.5549714 -0.33628213 9.6639974e-39
2.5522747 -0.55111104 -0.33622572 1.0128185e-38
2.530091 -0.53174442 -0.34524477 1.1601875e-38
2.5518472 -0.52051944 -0.33767694 1.242695e-38
2.5789812 -0.99524075 -0.31221813 9.4846312e-39
2.5954673 -1.0045013 -0.32399631 9.7611985e-39
2.5569277 -0.97103524 -0.3207458 9.6657771e-39
2.4885178 -0.9341495 -0.29402426 6.9996666e-39
2.5222607 -0.95694876 -0.30719474 8.5637623e-39
2.42152 -0.89929539 -0.27730981 4.8856495e-39
2.4751968 -0.92735916 -0.27447286 5.3444557e-39
2.4078803 -0.8753897 -0.26265228 8.5688042e-39
2.4275954 -0.88665563 -0.27653098 7.0025477e-39
2.4050236 -0.85172749 -0.26749846 9.8609751e-39
2.4066699 -0.82272303 -0.26688579 9.9528134e-39
2.4191129 -0.82415462 -0.28583711 9.4922136e-39
2.4064093 -0.79375595 -0.26773253 9.4003571e-39
2.4214139 -0.79321104 -0.27730983 8.9379482e-39
2.3745348 -0.75077343 -0.25902876 8.6609984e-39
2.3910897 -0.76708353 -0.26299801 9.2181253e-39
2.3742058 -0.73346007 -0.26016733 8.5695132e-39
2.3748722 -0.70748872 -0.25763705 9.492187e-39
2.3904502 -0.70277959 -0.26510057 9.0344515e-39
2.3778822 -0.67285812 -0.24650335 4.1434027e-39
2.3999612 -0.68280202 -0.26491126 4.6058242e-39
2.4221377 -0.66864145 -0.27420908 4.0533539e-39
2.434767 -0.64297599 -0.27750808 3.4094278e-39
2.4554241 -0.62510359 -0.28122374 3.1332179e-39
2.4851727 -0.61587465 -0.28803191 2.3034488e-39
2.5120456 -0.61110789 -0.30234095 1.5665942e-39
2.537523 -0.61071688 -0.31835684 2.1172555e-39
2.4577353 -0.5713104 -0.27257612 4.0544455e-39
2.4819746 -0.57904124 -0.2910623 3.3161532e-39
2.5038371 -0.59287161 -0.30499524 1.658099e-39
2.5565531 -0.59657669 -0.3207458 2.3012768e-39
2.4577262 -0.56234527 -0.27257612 4.236669e-39
2.4819589 -0.55545741 -0.28629524 5.3405012e-39
2.5084097 -0.54466522 -0.29947168 7.639613e-39
2.5374579 -0.54567468 -0.31835684 9.2994931e-39
2.5258863 -0.52641284 -0.29236314 7.9140307e-39
2.5405054 -0.52941108 -0.30715358 1.0126001e-38
2.5640652 -0.52295566 -0.31701592 1.1506799e-38
2.5304947 -1.0059755 -0.26751643 9.0297655e-39
2.5485296 -0.99631333 -0.2795186 9.1223171e-39
2.5779123 -0.99152076 -0.29210418 9.5775191e-39
2.5328248 -0.9753896 -0.26863265 5.5270392e-39
2.5485065 -0.97308409 -0.27951866 3.683484e-39
2.5668147 -0.98038691 -0.28462616 7.8279475e-39
2.4860132 -0.93866575 -0.25770551 3.5916779e-39
2.5295613 -0.95694143 -0.28049791 6.4442984e-39
2.4425452 -0.90849048 -0.24879682 4.8849321e-39
2.4144437 -0.87830913 -0.2386622 8.1096141e-39
2.4349895 -0.88517487 -0.24948792 7.8294385e-39
2.4092207 -0.84934562 -0.23743707 1.0044299e-38
2.4120786 -0.82501733 -0.2403769 9.859543e-39
2.4330957 -0.81530023 -0.23467353 7.2777192e-39
2.4092636 -0.79396808 -0.24213205 8.754629e-39
2.3825274 -0.75076544 -0.22980282 9.9531666e-39
2.4005837 -0.76989973 -0.23587304 7.7379547e-39
2.3827953 -0.73345143 -0.22875902 9.5836624e-39
2.3973761 -0.72827643 -0.23986928 9.9520848e-39
2.3824768 -0.70055556 -0.22980276 8.574195e-39
2.3950603 -0.71258408 -0.24827974 1.0044641e-38
2.3824558 -0.6793462 -0.22980279 3.7764139e-39
2.4019258 -0.67075115 -0.23515171 3.8693354e-39
2.4294474 -0.6650176 -0.24746442 3.684214e-39
2.4142184 -0.65300775 -0.2386622 3.9600905e-39
2.4379933 -0.63882607 -0.24834411 3.6831421e-39
2.4430277 -0.62074894 -0.26209196 3.133578e-39
2.4642835 -0.61612958 -0.24879521 2.5785826e-39
2.4867992 -0.61090851 -0.26500872 1.8421021e-39
2.4476798 -0.57623053 -0.24491708 3.685642e-39
2.4624708 -0.57728243 -0.25528091 3.6856448e-39
2.4784348 -0.59333742 -0.26141119 2.3941969e-39
2.4500194 -0.56732541 -0.23632966 3.6892363e-39
2.4624536 -0.5600993 -0.25528091 4.1455369e-39
2.4863334 -0.54989988 -0.26161343 4.3292289e-39
2.5140531 -0.5401935 -0.26744556 4.3303037e-39
2.5315683 -0.53025126 -0.27159896 4.9745927e-39
2.5460179 -0.52708256 -0.28698754 5.5230848e-39
2.5187647 -1.0233598 -0.25198391 7.938594e-39
2.5053816 -1.0068812 -0.23262374 4.3264291e-39
2.5285156 -1.0030081 -0.24062401 2.4882072e-39
2.5550611 -0.99166101 -0.2556183 1.2896458e-39
2.5259697 -0.9698016 -0.23908815 1.9353782e-39
2.4707093 -0.93289149 -0.22645555 4.146281e-39
2.4895027 -0.94539988 -0.22222617 3.5012661e-39
2.4452102 -0.91424352 -0.21651585 4.9760417e-39
2.4199903 -0.88282388 -0.21288334 7.2766234e-39
2.4094803 -0.85411257 -0.20819867 9.951017e-39
2.4152725 -0.82470024 -0.2094402 9.4922038e-39
2.4362035 -0.81382376 -0.22330387 9.5833275e-39
2.4175823 -0.79173964 -0.21032679 7.0021973e-39
2.3882363 -0.75075978 -0.20892711 7.5596997e-39
2.4100854 -0.7671991 -0.20364612 9.3992487e-39
2.3893607 -0.73344481 -0.20475198 9.2134589e-39
2.404269 -0.72129411 -0.21463795 8.9400992e-39
2.3893292 -0.7022801 -0.20475195 8.9411754e-39
2.4088514 -0.7038511 -0.19781709 1.1235276e-38
2.3870251 -0.68150592 -0.21310227 3.6842098e-39
2.4096792 -0.67296046 -0.20570506 3.6849315e-39
2.4154699 -0.64989215 -0.21132904 3.6853085e-39
2.4433148 -0.63553882 -0.21813102 3.3157917e-39
2.4550531 -0.61072135 -0.21808138 2.5789455e-39
2.4695983 -0.61014754 -0.22933811 2.3019985e-39
2.484406 -0.61138648 -0.23964176 2.025413e-39
2.454731 -0.58215863 -0.21915476 3.3172238e-39
2.4707532 -0.58250386 -0.22501427 3.3183028e-39
2.4547102 -0.56138563 -0.21915476 3.871471e-39
2.4701371 -0.5578503 -0.2271762 4.0544329e-39
2.4997261 -0.55103767 -0.2321409 4.5139621e-39
2.5245318 -0.54159582 -0.24050646 4.6054543e-39
2.5400882 -0.53254914 -0.24045274 4.3270793e-39
2.5546057 -0.53636575 -0.2556183 4.7894924e-39
2.5737734 -0.53102916 -0.25753644 6.0748096e-39
2.5149765 -1.0068717 -0.19753775 7.6677244e-39
2.5362992 -1.0005311 -0.21052687 2.7658661e-39
2.5137317 -0.96140498 -0.2019235 3.1310781e-39
2.5301933 -0.9752602 -0.21001664 2.0268563e-39
2.4805686 -0.93885839 -0.19042385 4.1462684e-39
2.4966512 -0.94990653 -0.19610283 3.7742685e-39
2.4299035 -0.90170169 -0.18221502 5.6203447e-39
2.4506035 -0.91468954 -0.19249912 5.1600672e-39
2.4201934 -0.88021171 -0.17720665 7.7379463e-39
2.42415 -0.85492182 -0.18102784 1.0043936e-38
2.4182005 -0.82210332 -0.17706022 9.2156239e-39
2.4267735 -0.79353893 -0.18113591 5.6203307e-39
2.3962286 -0.75075173 -0.17970121 1.013504e-38
2.413897 -0.76633406 -0.17959438 8.8460987e-39
2.395927 -0.73452032 -0.18074498 1.013721e-38
2.4175091 -0.7365396 -0.1662779 1.032088e-38
2.3973227 -0.70313787 -0.17552611 9.0322963e-39
2.4188418 -0.67482567 -0.18139768 3.8689682e-39
2.4269466 -0.65079808 -0.18200257 3.6871035e-39
2.4472704 -0.63749737 -0.18935215 3.2239562e-39
2.4580791 -0.61517519 -0.1909219 2.5803972e-39
2.4617791 -0.58511919 -0.19339256 3.1321151e-39
2.4790189 -0.57128912 -0.19474767 4.0540784e-39
2.4790099 -0.56232399 -0.19474767 4.2373906e-39
2.5068319 -0.55083555 -0.2029071 4.4221532e-39
2.5291522 -0.53788853 -0.21222544 4.6972968e-39
2.5145035 -0.53400582 -0.19753775 6.1652312e-39
2.5449553 -0.53254426 -0.22265488 6.5311046e-39
2.5176446 -0.99232221 -0.16498223 2.9452603e-39
2.5426052 -0.99789524 -0.1842092 2.1187198e-39
2.5237386 -0.9735198 -0.16537559 2.5782476e-39
2.5380514 -0.98059541 -0.18130217 2.3020055e-39
2.4707372 -0.93231779 -0.16190526 5.0678688e-39
2.4872751 -0.94482845 -0.1659223 4.3299688e-39
2.5014184 -0.9544155 -0.17868724 3.6842337e-39
2.4356923 -0.90169591 -0.16104731 5.3466249e-39
2.4590931 -0.91635048 -0.1560901 5.0696666e-39
2.4337125 -0.88216519 -0.1479971 8.0156178e-39
2.4356303 -0.85465246 -0.15099435 1.0321236e-38
2.4264607 -0.82146031 -0.1490183 8.3880115e-39
2.42941 -0.79119515 -0.15328965 7.1862313e-39
2.4053628 -0.75074261 -0.14630009 1.0690011e-38
2.4250474 -0.7686373 -0.14894041 1.041344e-38
2.405726 -0.73342854 -0.1449084 1.0229765e-38
2.4219198 -0.73871499 -0.15015785 1.0043937e-38
2.4027102 -0.70685172 -0.14825651 9.7695054e-39
2.4296317 -0.69585335 -0.14779577 6.6355742e-39
2.4353282 -0.67782992 -0.15482199 4.1459237e-39
2.4539328 -0.66499311 -0.15792823 3.8711276e-39
2.4385788 -0.64587742 -0.14955626 4.1444803e-39
2.4534426 -0.64112461 -0.15963371 3.7764181e-39
2.4633319 -0.61363196 -0.16203997 3.0392314e-39
2.4849577 -0.59817863 -0.17312863 2.3016397e-39
2.4704664 -0.58332992 -0.16161905 3.3165105e-39
2.4861135 -0.57128203 -0.16880479 3.7785719e-39
2.4849219 -0.56231809 -0.17312863 4.1455649e-39
2.5150094 -0.55157971 -0.17300686 4.6058186e-39
2.4971766 -0.99263263 -0.12989055 1.0608255e-38
2.5155127 -0.99291146 -0.15003344 5.3462942e-39
2.4948027 -0.98366988 -0.13853821 4.702696e-39
2.5170867 -0.97633737 -0.14421757 2.4860548e-39
2.477391 -0.93231118 -0.13757412 5.4362869e-39
2.495656 -0.95004964 -0.13529529 4.2370431e-39
2.4675505 -0.91003609 -0.12836304 5.4362996e-39
2.4379008 -0.87680322 -0.12255307 8.843198e-39
2.4365132 -0.8500545 -0.12247518 1.0965881e-38
2.4351211 -0.81903458 -0.12239718 8.202551e-39
2.4413285 -0.79212397 -0.12184066 8.5687986e-39
2.4633889 -0.79316908 -0.12381916 8.7435195e-39
2.4122133 -0.75073576 -0.12124931 9.9510156e-39
2.4290397 -0.76704556 -0.12422561 1.0598539e-38
2.4112861 -0.73688579 -0.1245894 1.0135761e-38
2.430732 -0.73434657 -0.11791776 1.0687851e-38
2.4121788 -0.71610832 -0.12124931 1.1058069e-38
2.4313719 -0.70436347 -0.12220804 9.5869022e-39
2.4417965 -0.67669147 -0.12273981 4.2381193e-39
2.4586058 -0.67382878 -0.1408737 4.2388312e-39
2.4458618 -0.6515131 -0.12294535 4.5129041e-39
2.4620683 -0.63846385 -0.12808289 3.9618813e-39
2.468559 -0.61355048 -0.1284256 3.50092e-39
2.4762878 -0.5846402 -0.13317667 3.4094362e-39
2.4943905 -0.57127374 -0.13853821 4.1477061e-39
2.4951665 -0.55931944 -0.13565566 4.5146852e-39
2.5219932 -0.55233604 -0.14747107 5.1539533e-39
2.5030887 -0.99262673 -0.10827152 1.1069573e-38
2.5169375 -0.99502391 -0.12208662 7.8398781e-39
2.4887891 -0.97978115 -0.096068196 7.9349703e-39
2.5034649 -0.97469604 -0.10683028 3.5045298e-39
2.5181074 -0.97425944 -0.11773269 2.8555436e-39
2.4879589 -0.93230063 -0.098930746 4.8845313e-39
2.5027061 -0.94780141 -0.10950689 4.6054445e-39
2.4770079 -0.91155952 -0.10023232 5.1611462e-39
2.4514914 -0.87827212 -0.10318889 6.5401094e-39
2.4718723 -0.88156426 -0.093120992 4.8834929e-39
2.4440377 -0.85201418 -0.10002139 7.2798268e-39
2.4727874 -0.8638826 -0.089710124 4.7012653e-39
2.4379368 -0.82198721 -0.096945986 5.896542e-39
2.442024 -0.80153048 -0.097090237 5.1622322e-39
2.4703848 -0.79316205 -0.098237403 5.7110816e-39
2.4455776 -0.76087856 -0.094056897 5.3448088e-39
2.4448826 -0.73606706 -0.096507564 5.3437438e-39
2.4703138 -0.72243905 -0.098237403 4.238471e-39
2.4476516 -0.70210624 -0.096367009 5.1611448e-39
2.470305 -0.71359873 -0.098237403 4.1455425e-39
2.4499147 -0.67506868 -0.10063078 4.4228483e-39
2.4726017 -0.67823493 -0.089710124 4.4214147e-39
2.4528084 -0.65150619 -0.097544171 4.3299506e-39
2.4702301 -0.63845569 -0.098237462 4.2370431e-39
2.4716558 -0.61229706 -0.098300256 3.8686179e-39
2.4864392 -0.58687514 -0.10322449 3.5005473e-39
2.503144 -0.57485104 -0.106542 4.0544301e-39
2.501467 -0.55333638 -0.11259533 4.5128999e-39
2.5206738 -0.56395572 -0.10684801 4.8805838e-39
2.4752254 -0.96996456 -0.081182912 1.0515342e-38
2.5101609 -0.97020686 -0.082328707 4.0562784e-39
2.5252402 -0.96341926 -0.091609403 4.2370277e-39
2.5108142 -0.94779325 -0.079857916 4.5136356e-39
2.4930446 -0.91378295 -0.073104814 5.0675226e-39
2.4852486 -0.88433057 -0.072863586 5.2522656e-39
2.4604084 -0.84198081 -0.070449524 4.8842104e-39
2.4779141 -0.86034131 -0.07095021 4.9753354e-39
2.4583368 -0.82176131 -0.067843214 4.6980297e-39
2.4874918 -0.80871683 -0.07870239 4.3299618e-39
2.4607315 -0.79236811 -0.061505888 4.6051166e-39
2.4762101 -0.78873605 -0.076919302 4.3321226e-39
2.4544573 -0.75904006 -0.065912463 4.5143475e-39
2.4750309 -0.77547669 -0.081182912 4.1480803e-39
2.4258928 -0.72907984 -0.071147703 4.8820468e-39
2.45538 -0.73614383 -0.06823156 4.3306849e-39
2.4595201 -0.70636183 -0.073201343 4.4228665e-39
2.477875 -0.7047509 -0.070523836 4.4221504e-39
2.458236 -0.67637169 -0.07778766 4.4221616e-39
2.4781349 -0.67270416 -0.069457963 4.6976541e-39
2.4574394 -0.65150154 -0.080610014 4.5136216e-39
2.4797091 -0.6423229 -0.071646422 4.329945e-39
2.481576 -0.61299932 -0.072768822 4.3295961e-39
2.4946566 -0.58508629 -0.073168516 4.6054627e-39
2.5073972 -0.57126075 -0.090976313 4.6040166e-39
2.4934647 -0.56728196 -0.077462137 4.1452034e-39
2.509753 -0.56229323 -0.082328707 4.7891183e-39
2.5248387 -0.56169462 -0.091609403 6.0744621e-39
2.5160685 -0.96571833 -0.060709685 5.7143648e-39
2.5371468 -0.96340734 -0.048070446 4.7916462e-39
2.5177536 -0.94280565 -0.054464161 4.7898638e-39
2.5371335 -0.949866 -0.048070446 5.3426606e-39
2.4996829 -0.91448337 -0.05599352 4.6990792e-39
2.5202365 -0.91064256 -0.045267493 4.6965695e-39
2.503161 -0.86996609 -0.043112431 5.5252582e-39
2.5195396 -0.88951111 -0.047738336 5.2504622e-39
2.4680476 -0.84021765 -0.042508114 4.9745913e-39
2.4849048 -0.85503006 -0.045368448 5.1582889e-39
2.4613872 -0.81904846 -0.036458813 4.6980283e-39
2.464076 -0.79191118 -0.035191566 5.4341556e-39
2.4820533 -0.80199075 -0.05560115 3.9611653e-39
2.4384742 -0.75070953 -0.02522121 8.3836716e-39
2.4599583 -0.76677245 -0.033909317 6.1724157e-39
