# .PCD v0.7 - Point Cloud Data file format
VERSION 0.7
FIELDS x y z rgb
SIZE 4 4 4 4
TYPE F F F F
COUNT 1 1 1 1
WIDTH 1007
HEIGHT 1
VIEWPOINT 0 0 0 1 0 0 0
POINTS 1007
DATA ascii
2.7006857 -0.96198875 -0.90957969 1.1158213e-38
2.700115 -0.9421525 -0.91159379 7.1865914e-39
2.7201083 -0.9343105 -0.92943937 7.0011267e-39
2.7006378 -0.91396308 -0.90957969 6.4493851e-39
2.7228696 -0.91851521 -0.91928387 6.3571895e-39
2.7009826 -0.89169002 -0.90823692 5.7118159e-39
2.7228324 -0.88166565 -0.91928381 4.9753284e-39
2.7456183 -0.88904101 -0.92697388 4.9760459e-39
2.6972828 -0.86385256 -0.92166442 5.0671639e-39
2.6003349 -0.81689811 -0.87794971 7.2784185e-39
2.5695 -0.78585839 -0.88065284 9.6780384e-39
2.5936742 -0.79975432 -0.87570679 9.9531792e-39
2.5701337 -0.76347321 -0.87825388 9.769148e-39
2.5475836 -0.72794718 -0.88097262 8.6617327e-39
2.5704319 -0.73362714 -0.87705433 8.9401188e-39
2.5700791 -0.70875585 -0.87825388 8.1107211e-39
2.5930388 -0.69344372 -0.87764162 7.3727749e-39
2.6001978 -0.67610192 -0.87793732 7.3724134e-39
2.7087934 -0.96526188 -0.87994331 1.0138648e-38
2.7083771 -0.94214427 -0.88138205 6.5415891e-39
2.7010496 -0.91360301 -0.87900686 5.8972903e-39
2.6958005 -0.8835941 -0.8773337 4.9760487e-39
2.7283819 -0.87639582 -0.89897275 4.6994632e-39
2.6644828 -0.83960283 -0.86713117 5.6098882e-39
2.6955216 -0.86263609 -0.86997235 4.3324519e-39
2.6059568 -0.81385857 -0.85074794 7.7383345e-39
2.6462202 -0.83300084 -0.85048568 4.602576e-39
2.5785551 -0.78734165 -0.84754574 9.9528232e-39
2.5595894 -0.75557554 -0.83717173 9.0319389e-39
2.5760405 -0.76595449 -0.85666221 9.768069e-39
2.5593064 -0.73287129 -0.83812398 9.5833106e-39
2.5769229 -0.72964114 -0.85330349 9.4922038e-39
2.5779469 -0.70377368 -0.84946507 8.5702489e-39
2.6015007 -0.68942356 -0.8466844 8.0181345e-39
2.6081481 -0.676094 -0.84886533 7.5568089e-39
2.6754541 -0.97312218 -0.82750016 1.0143684e-38
2.6998458 -0.96754462 -0.84727842 8.9383014e-39
2.6950142 -0.93840277 -0.84304053 6.8196025e-39
2.7044024 -0.91193974 -0.8473655 5.8061611e-39
2.6946173 -0.88273972 -0.84428912 4.790933e-39
2.6726215 -0.84986633 -0.83740789 4.511472e-39
2.6946013 -0.8672058 -0.844289 4.3299478e-39
2.6141026 -0.81503886 -0.8169837 7.1865802e-39
2.6489084 -0.83299816 -0.8406558 5.5173703e-39
2.5859044 -0.78832906 -0.82067627 9.6762251e-39
2.56532 -0.75754416 -0.8162235 8.5716839e-39
2.5865352 -0.76345688 -0.81827718 8.3887261e-39
2.5658114 -0.72792906 -0.81431919 8.294734e-39
2.5657911 -0.70818591 -0.81431907 8.3862052e-39
2.585815 -0.69879144 -0.82067627 8.5691587e-39
2.5871117 -0.68386728 -0.81587809 8.2936452e-39
2.6094222 -0.6743716 -0.817662 7.9255704e-39
2.683603 -0.99365717 -0.79777688 1.1705989e-38
2.6812129 -0.9744004 -0.80644614 9.1252178e-39
2.7022095 -0.96299088 -0.81681883 7.3720659e-39
2.6808424 -0.94230217 -0.80768466 7.1873159e-39
2.702868 -0.93839484 -0.81432164 6.7266895e-39
2.6835208 -0.91148472 -0.79777688 5.9005105e-39
2.7022958 -0.91276431 -0.81631941 5.7136207e-39
2.6807883 -0.88837653 -0.80768466 4.8838502e-39
2.702811 -0.88169599 -0.81432158 4.2391913e-39
2.6610153 -0.8431769 -0.79642135 3.136099e-39
2.6807568 -0.85670584 -0.8076846 3.4115956e-39
2.7000649 -0.86720037 -0.82431072 3.6888916e-39
2.6208496 -0.81582445 -0.78966194 7.3688219e-39
2.5937772 -0.7883212 -0.79188746 8.9408293e-39
2.5762568 -0.75753325 -0.77623141 9.6755077e-39
2.5930026 -0.7634505 -0.79462928 8.9386671e-39
2.5732992 -0.72915548 -0.78694367 7.7408498e-39
2.5560973 -0.71244144 -0.77017158 8.4798428e-39
2.5762074 -0.70817548 -0.77623141 9.3067209e-39
2.5933633 -0.70251471 -0.79308701 7.6490017e-39
2.5941935 -0.67988074 -0.78996819 7.8323069e-39
2.6173539 -0.66934896 -0.78863961 7.5575109e-39
2.6705768 -0.99602985 -0.76201671 1.1340055e-38
2.6876674 -0.99365312 -0.78291523 1.0235897e-38
2.6484246 -0.96251434 -0.75570548 7.9255942e-39
2.6692173 -0.98074496 -0.76693165 8.479505e-39
2.6876469 -0.97311002 -0.78291523 7.9252354e-39
2.7083583 -0.96557373 -0.79434323 7.6493618e-39
2.6705256 -0.94507569 -0.76201665 7.5553697e-39
2.6880641 -0.93887103 -0.78126395 7.0958363e-39
2.7092464 -0.9431349 -0.79101342 7.0958293e-39
2.6483791 -0.91703546 -0.75570548 6.8178103e-39
2.6704903 -0.90940785 -0.76201671 5.8065198e-39
2.6878541 -0.90942609 -0.78192443 5.7146759e-39
2.6691206 -0.88393217 -0.76693165 4.1480873e-39
2.6861994 -0.88066745 -0.7878691 3.9658358e-39
2.6476498 -0.85387105 -0.75814259 4.0540952e-39
2.6664016 -0.85336238 -0.77676159 3.3208377e-39
2.6861789 -0.86012429 -0.7878691 2.8605841e-39
2.6042991 -0.81318218 -0.75350237 6.823564e-39
2.625448 -0.82646763 -0.75961715 5.5245365e-39
2.5840981 -0.78714007 -0.74766564 8.1092582e-39
2.6011319 -0.79527795 -0.76501787 8.387287e-39
2.5819895 -0.76147616 -0.75528324 8.8471903e-39
2.5990007 -0.76344442 -0.77269489 8.8486225e-39
2.5814352 -0.72791338 -0.7571876 9.4003459e-39
2.6015656 -0.70375001 -0.76309872 8.8468162e-39
2.6008868 -0.68136638 -0.76549768 8.1096253e-39
2.632026 -0.67607009 -0.76155031 8.1096113e-39
2.6538928 -1.0989457 -0.7362085 1.2072601e-38
2.6760499 -1.0928375 -0.74235696 1.1980027e-38
2.6958883 -1.086089 -0.75319195 1.1702727e-38
2.7194045 -1.0846564 -0.75438654 1.1329258e-38
2.6746089 -0.99602586 -0.7472719 1.0602511e-38
2.6524236 -0.96251041 -0.74108273 7.3724232e-39
2.6745987 -0.98583496 -0.7472719 8.1081946e-39
2.6524034 -0.94229752 -0.74108273 7.2794765e-39
2.6523781 -0.91703153 -0.74108273 6.1735171e-39
2.6731732 -0.90430975 -0.75218683 5.1625951e-39
2.6485639 -0.88335383 -0.73898518 4.6076221e-39
2.6320853 -0.84986287 -0.73543185 4.2348921e-39
2.6102061 -0.81566346 -0.73191077 7.1908934e-39
2.6307423 -0.82980537 -0.74026889 5.4305248e-39
2.5880041 -0.78713614 -0.73338276 8.1088854e-39
2.6101911 -0.80074054 -0.73191077 7.8315923e-39
2.5890203 -0.76146919 -0.72957402 8.7557066e-39
2.6108198 -0.77338123 -0.72951174 8.3876443e-39
2.586643 -0.72790813 -0.73814368 9.3088677e-39
2.6097963 -0.73358774 -0.73311037 9.0308445e-39
2.6094384 -0.70374215 -0.73430991 8.8471763e-39
2.6319249 -0.68939316 -0.73543185 8.6627963e-39
2.6067939 -0.68384761 -0.74390614 8.7560611e-39
2.6443119 -0.67441046 -0.73784751 9.0290354e-39
2.6729388 -0.66992086 -0.75218683 9.9387458e-39
2.6610155 -1.1124139 -0.71021259 1.1793129e-38
2.6814413 -1.1081181 -0.72269714 1.2065045e-38
2.6814313 -1.0979273 -0.7226972 1.1791297e-38
2.7026689 -1.0934191 -0.72842252 1.0674903e-38
2.6813905 -1.057164 -0.7226972 1.1700539e-38
2.7019715 -1.0732435 -0.73089951 1.0304322e-38
2.7275891 -1.0742921 -0.724419 1.1523013e-38
2.622848 -0.99223906 -0.68632853 1.2075135e-38
2.6540425 -0.99092066 -0.71536386 9.8645793e-39
2.6523287 -0.96844083 -0.71491462 7.2784171e-39
2.622798 -0.94249588 -0.68632847 4.0522875e-39
2.6449542 -0.93930727 -0.71144712 5.8058009e-39
2.6227682 -0.91265011 -0.68632847 3.3168805e-39
2.6455138 -0.91236317 -0.71309292 5.2526356e-39
2.6227386 -0.88280427 -0.68632853 4.2395528e-39
2.6421115 -0.88609868 -0.71216971 4.9771165e-39
2.5997813 -0.84635389 -0.69053406 5.9898237e-39
2.6181202 -0.85669374 -0.70312208 5.7121564e-39
2.599771 -0.83648223 -0.690534 6.7284761e-39
2.6187427 -0.82311648 -0.70072299 7.3720448e-39
2.6023307 -0.79205763 -0.68101215 7.1879983e-39
2.6170287 -0.79611474 -0.70689201 7.9248599e-39
2.5813341 -0.75894004 -0.67805755 6.9117968e-39
2.5970936 -0.76244819 -0.70005608 8.5702335e-39
2.6147563 -0.7733773 -0.71511734 8.6638641e-39
2.5806711 -0.74180037 -0.68041945 7.834102e-39
2.5996723 -0.73776674 -0.690534 8.4769561e-39
2.6182125 -0.73026311 -0.70232236 8.5695062e-39
2.6181893 -0.70704961 -0.70232236 8.6617005e-39
2.6390719 -0.6933977 -0.70931166 8.8457428e-39
2.6430256 -0.67045361 -0.71246094 9.0265173e-39
2.6499724 -0.65176225 -0.70910478 1.2619601e-38
2.7035131 -0.5827747 -0.72346866 1.2345197e-38
2.7243602 -0.57720888 -0.73440808 1.2340183e-38
2.7243402 -0.55649692 -0.7344082 1.1603668e-38
2.6672428 -1.1191453 -0.68746614 1.1610168e-38
2.6895137 -1.1153892 -0.69320762 1.2892264e-38
2.6672125 -1.0888259 -0.68746614 8.7359062e-39
2.6894958 -1.0979193 -0.69320756 1.0214596e-38
2.7107952 -1.0912099 -0.69869924 1.1689778e-38
2.735795 -1.0846399 -0.69445145 1.177832e-38
2.7080705 -1.0758053 -0.70860702 1.2710387e-38
2.7303209 -1.0742893 -0.7144298 1.1796711e-38
2.6467788 -0.99276644 -0.68222409 8.1103119e-39
2.6280706 -0.96636736 -0.66713601 4.6987261e-39
2.6458812 -0.97688752 -0.68544877 6.081306e-39
2.6094208 -0.93847871 -0.65562028 4.2391955e-39
2.6263037 -0.94912481 -0.6735335 4.3320974e-39
2.6079879 -0.91544652 -0.66077811 3.3179609e-39
2.6280169 -0.91264486 -0.66713601 3.4994893e-39
2.6493418 -0.91002172 -0.67254996 3.6867322e-39
2.6067674 -0.88912368 -0.66514218 3.6831463e-39
2.6274624 -0.88279951 -0.66905528 3.6853043e-39
2.6440306 -0.88996828 -0.69189823 4.4231902e-39
2.5898216 -0.8495307 -0.64735287 4.238457e-39
2.6076016 -0.85480738 -0.66196835 3.5952764e-39
2.5897825 -0.81035274 -0.64735287 3.4119544e-39
2.6075764 -0.82942343 -0.66196835 3.7778656e-39
2.625303 -0.82310987 -0.6767323 2.9531356e-39
2.5884662 -0.78586775 -0.65207666 3.8707829e-39
2.6065059 -0.80093789 -0.66577703 3.6863917e-39
2.5867822 -0.76278239 -0.6581502 4.0537505e-39
2.6075039 -0.75750202 -0.66196823 3.7771636e-39
2.5884221 -0.74179262 -0.65207666 4.0551532e-39
2.6080012 -0.73380977 -0.66006392 3.7775195e-39
2.6271744 -0.72610897 -0.6695351 3.3168777e-39
2.6074498 -0.70320845 -0.66196829 4.1455593e-39
2.6278069 -0.70230252 -0.66713607 4.0530092e-39
2.6458166 -0.6918866 -0.68464261 7.0021651e-39
2.6532447 -0.67604887 -0.68395901 6.7241447e-39
2.6877239 -0.66990608 -0.6981225 8.0105885e-39
2.7103724 -0.66836411 -0.69869924 1.0137122e-38
2.7418973 -0.66529173 -0.69966787 1.1791264e-38
2.8042052 -0.66603547 -0.71192348 1.2900104e-38
2.7076492 -0.65467155 -0.70860702 1.6323276e-38
2.7326281 -0.64969242 -0.70444065 1.2991292e-38
2.8041947 -0.65541899 -0.71192348 1.280906e-38
2.7353082 -0.59790993 -0.69445145 1.2345179e-38
2.7120898 -0.57934225 -0.69209409 1.3074468e-38
2.7307377 -0.5806545 -0.71110004 1.3170999e-38
2.7350132 -0.55698323 -0.70506954 1.1967795e-38
2.7176151 -1.1374251 -0.67392987 1.2710031e-38
2.7440522 -1.1467675 -0.66448396 1.2801859e-38
2.697037 -1.1121789 -0.66568387 1.3443986e-38
2.7216692 -1.1271493 -0.65906823 1.4269059e-38
2.67521 -1.0888178 -0.65822071 1.1134447e-38
2.6982274 -1.0928153 -0.66126043 1.1592896e-38
2.7182436 -1.0886346 -0.67145294 1.2523117e-38
2.7412581 -1.0846345 -0.67447305 1.141279e-38
2.6547217 -0.99860901 -0.65320164 4.9756787e-39
2.6355107 -0.97067106 -0.6399467 4.5139845e-39
2.6165411 -0.94110405 -0.62959373 4.1459349e-39
2.6346176 -0.95243275 -0.64314538 4.6058228e-39
2.6154742 -0.91543901 -0.63340253 3.6845924e-39
2.6332555 -0.90269101 -0.6479435 4.1441188e-39
2.6157687 -0.88459015 -0.63221234 3.7764265e-39
2.5949841 -0.84462821 -0.62845773 3.77786e-39
2.6154244 -0.86608142 -0.63340241 3.8686235e-39
2.5959949 -0.82209986 -0.62467867 3.7785803e-39
2.6140807 -0.82412851 -0.63816345 3.8711403e-39
2.595252 -0.78953391 -0.62727684 3.9633317e-39
2.6127613 -0.80685449 -0.64292443 3.7800208e-39
2.594902 -0.76259935 -0.62845778 3.9636946e-39
2.6153159 -0.75749427 -0.63340247 3.961552e-39
2.5948763 -0.73688889 -0.62845773 3.8707745e-39
2.6152861 -0.72787952 -0.63340241 3.9619108e-39
2.6357005 -0.7236132 -0.63834721 3.6849441e-39
2.6363444 -0.71117681 -0.63594818 3.6842407e-39
2.6551769 -0.69796646 -0.65043759 4.0537154e-39
2.6690409 -0.68073034 -0.65938449 4.1455621e-39
2.697139 -0.67669052 -0.66371781 4.2366592e-39
2.7198622 -0.67520243 -0.66402209 4.6050899e-39
2.7506516 -0.67312944 -0.68221623 5.0667407e-39
2.7865024 -0.67454261 -0.68570644 4.8830949e-39
2.8126173 -0.67664355 -0.68120199 4.8834579e-39
2.8325553 -0.667274 -0.69924372 6.7212608e-39
2.7184126 -0.58019191 -0.66897595 1.2519503e-38
2.7407508 -0.57719249 -0.67447311 1.2796456e-38
2.7187746 -0.55487937 -0.66756058 1.3257795e-38
2.7393539 -0.54612595 -0.67946768 1.2245813e-38
2.7210734 -0.53139931 -0.65906823 1.1964174e-38
2.7518826 -0.53273183 -0.67720127 1.1230907e-38
2.7467837 -1.1467648 -0.65449476 1.2711822e-38
2.7270827 -1.1220083 -0.63925272 1.3901719e-38
2.7042809 -1.0979046 -0.63914317 1.3900287e-38
2.7274413 -1.0933943 -0.63783729 1.3074483e-38
2.7691164 -1.093469 -0.65982908 1.1132274e-38
2.6831369 -1.018065 -0.62897533 6.2635449e-39
2.6259687 -0.99440116 -0.5953148 6.2664554e-39
2.643852 -1.0021667 -0.60955846 5.8947694e-39
2.6617765 -0.99860197 -0.62740397 4.7019841e-39
2.6246371 -0.96478778 -0.60007572 4.6069018e-39
2.6438286 -0.9789533 -0.6095584 4.423214e-39
2.6041245 -0.94256419 -0.59539109 3.6871147e-39
2.6222699 -0.94109833 -0.6086455 3.5949205e-39
2.6002247 -0.91808182 -0.60956252 3.5055583e-39
2.6232879 -0.91707647 -0.60483676 3.0424572e-39
2.6450748 -0.91262788 -0.60476029 3.1328872e-39
2.6053526 -0.87889874 -0.59066731 3.4098034e-39
2.6229308 -0.88581693 -0.60602701 3.5012717e-39
2.602735 -0.84462047 -0.60011494 3.6853141e-39
2.6232364 -0.86607355 -0.60483664 3.5938289e-39
2.6032329 -0.82601047 -0.59822541 3.5938289e-39
2.6225386 -0.81918424 -0.60721719 3.5023549e-39
2.6026711 -0.78095627 -0.60011494 4.1448475e-39
2.6231725 -0.80190831 -0.60483676 3.8704228e-39
2.5967054 -0.7625255 -0.60019994 4.054091e-39
2.6231279 -0.7574864 -0.6048367 4.0548084e-39
2.6002088 -0.73817509 -0.59813297 3.6860385e-39
2.6230981 -0.72787166 -0.60483664 3.9604744e-39
2.6435733 -0.72360533 -0.6095584 3.6831463e-39
2.643559 -0.70868242 -0.60955852 3.9597402e-39
2.6623542 -0.69437736 -0.62417924 4.2366732e-39
2.7052174 -0.69027025 -0.63422823 4.6054543e-39
2.6828034 -0.68455327 -0.62897533 3.686372e-39
2.7266462 -0.68546718 -0.63925272 4.0529854e-39
2.7490494 -0.68074393 -0.64450556 4.7894826e-39
2.7952297 -0.67403245 -0.65378886 5.4334031e-39
2.815407 -0.66602427 -0.6709615 6.2505647e-39
2.8415954 -0.67154676 -0.66620231 6.8058824e-39
2.7265453 -0.58446354 -0.63925266 1.2523826e-38
2.7475801 -0.57718569 -0.64950019 1.1969229e-38
2.7238085 -0.55707544 -0.64916044 1.2788198e-38
2.7497046 -0.55499214 -0.64165157 1.4176866e-38
2.7573149 -0.53333145 -0.64862084 1.2981915e-38
2.7352111 -1.1220002 -0.60952944 1.178411e-38
2.7660816 -1.1152359 -0.61287796 1.2152178e-38
2.8063815 -1.1132078 -0.61461759 1.1328126e-38
2.7324865 -1.1065954 -0.61943716 1.3256352e-38
2.7576694 -1.10533 -0.61453807 1.178087e-38
2.6692741 -1.0002661 -0.59999388 3.8700458e-39
2.6311469 -0.96478122 -0.57627088 4.3317443e-39
2.651705 -0.98226148 -0.5807696 3.8729269e-39
2.610255 -0.93643647 -0.57295316 3.7789614e-39
2.6337411 -0.95490706 -0.56674898 4.6983898e-39
2.6115868 -0.91219366 -0.5679931 3.1332067e-39
2.6297908 -0.91048896 -0.58103186 3.5916807e-39
2.6105151 -0.87399632 -0.57177216 3.40836e-39
2.631072 -0.88975739 -0.57627094 3.2243261e-39
2.5982366 -0.8496089 -0.571091 3.226131e-39
2.6336524 -0.86606312 -0.56674898 2.6744019e-39
2.6039436 -0.82293254 -0.57034403 3.4090761e-39
2.6111689 -0.78934312 -0.56907284 3.5952596e-39
2.6283801 -0.80190313 -0.58579284 3.8707675e-39
2.5908391 -0.76051497 -0.5674876 3.6871105e-39
2.6028101 -0.73756605 -0.56912065 3.8696997e-39
2.6309052 -0.72292811 -0.57627094 3.5002025e-39
2.6488223 -0.72360015 -0.59036595 3.4097866e-39
2.6514363 -0.71364886 -0.5807696 3.2250338e-39
2.6706252 -0.69813007 -0.59394759 3.7774845e-39
2.7132816 -0.69026226 -0.60473853 3.961531e-39
2.7347746 -0.68545908 -0.60952944 3.9622415e-39
2.7621741 -0.67951339 -0.61830795 4.4225036e-39
2.8031635 -0.67277116 -0.62477303 5.4337646e-39
2.7145138 -0.57816178 -0.59982365 1.2802919e-38
2.7339869 -0.57504052 -0.61200637 1.3350353e-38
2.7346489 -0.55963248 -0.60952944 1.4085398e-38
2.7603996 -0.54856241 -0.6170513 1.3625486e-38
2.6992235 -1.1090068 -0.57048452 1.0863247e-38
2.7231083 -1.1080765 -0.57033396 1.1325294e-38
2.7406251 -1.116859 -0.58971387 1.2061078e-38
2.7645092 -1.115679 -0.58956516 1.0771046e-38
2.7460339 -1.1065819 -0.56989837 1.1322782e-38
2.7733727 -1.1031184 -0.58617228 9.2040548e-39
2.6196558 -0.97193211 -0.53870559 4.7023345e-39
2.6372259 -0.96806562 -0.55405301 4.2388396e-39
2.6185901 -0.93961132 -0.54248464 3.8696913e-39
2.6174407 -0.90990245 -0.54657859 3.1314046e-39
2.6406419 -0.91212338 -0.54135716 3.1324766e-39
2.6182711 -0.87888581 -0.54342943 3.4080027e-39
2.6105597 -0.8483398 -0.54308325 3.3179553e-39
2.6034946 -0.82036108 -0.54038411 3.5019822e-39
2.6064079 -0.79202586 -0.54100031 3.7782202e-39
2.6017013 -0.76341552 -0.5386095 4.0522973e-39
2.6034093 -0.73269677 -0.54037529 3.7774999e-39
2.6374102 -0.71798587 -0.55246609 3.6838511e-39
2.620688 -0.71237689 -0.53398174 3.2257582e-39
2.6413062 -0.70811039 -0.53818321 3.7756964e-39
2.6598263 -0.7056815 -0.55006164 3.5009172e-39
2.6830447 -0.6994471 -0.5684405 3.6845826e-39
2.7200024 -0.69025546 -0.58016384 3.6860217e-39
2.7014649 -0.68453461 -0.560736 3.6874665e-39
2.7240243 -0.68006063 -0.56541902 3.9593422e-39
2.7415483 -0.68545228 -0.58476001 3.9615268e-39
2.7783167 -0.67644042 -0.58729303 4.5143461e-39
2.8087163 -0.67101085 -0.60446203 6.0708481e-39
2.7185459 -0.57815772 -0.58507878 1.2623199e-38
2.7437 -0.57931072 -0.57650357 1.206393e-38
2.7420871 -0.54678559 -0.58228308 1.1783023e-38
2.7658663 -0.56059784 -0.5825727 1.2519505e-38
2.7058883 -1.1090001 -0.54611331 1.1334656e-38
2.7298284 -1.1080698 -0.5457592 1.1140146e-38
2.7514474 -1.1014408 -0.55008286 1.0405478e-38
2.7747297 -1.0923679 -0.55210572 7.9187138e-39
2.6236768 -0.97297847 -0.51317543 5.8994455e-39
2.6260858 -0.94254214 -0.51508671 3.6856588e-39
2.6260514 -0.90826142 -0.51508665 3.2250436e-39
2.6260219 -0.87887806 -0.51508665 3.0417397e-39
2.6161547 -0.85120893 -0.51315665 3.1331969e-39
2.606288 -0.82368678 -0.51122677 3.4087146e-39
2.6062586 -0.79452348 -0.51122677 3.6860035e-39
2.6062295 -0.76536012 -0.51122683 3.9608164e-39
2.6095409 -0.73364604 -0.51278752 3.7785789e-39
2.6439202 -0.71797937 -0.52866131 4.2352214e-39
2.6210132 -0.71383095 -0.50752521 3.7778376e-39
2.6465142 -0.70810515 -0.51913935 3.9604422e-39
2.6665213 -0.70865941 -0.52559114 3.9615156e-39
2.6866922 -0.69335008 -0.53517723 3.8693214e-39
2.7320991 -0.69024336 -0.53592938 3.503078e-39
2.7054636 -0.68453062 -0.54611331 3.8697039e-39
2.7280567 -0.68005663 -0.5506742 3.8707381e-39
2.7510247 -0.67859513 -0.55008286 4.5139593e-39
2.7743104 -0.6729517 -0.55210572 4.1473446e-39
2.7735522 -0.59787166 -0.55460298 1.2348428e-38
2.7482092 -0.57245845 -0.55999064 9.9369675e-39
2.7740841 -0.58337271 -0.55260521 1.040513e-38
2.7514338 -0.54574907 -0.54810131 1.1507868e-38
2.7728357 -0.56421548 -0.5571003 1.1877006e-38
2.740571 -1.0978682 -0.50643969 1.1418196e-38
2.7588985 -1.1014334 -0.52283651 1.0865026e-38
2.7822421 -1.0919905 -0.52463555 8.8389003e-39
2.7827661 -1.0700945 -0.52263767 7.3579856e-39
2.762229 -1.0449364 -0.51045179 1.1887436e-38
2.6520083 -0.99437511 -0.50009549 1.12504e-38
2.6753435 -1.0021353 -0.4944033 1.1437667e-38
2.6333477 -0.97093904 -0.48863333 4.5182893e-39
2.6572063 -0.98449832 -0.48105165 5.9052343e-39
2.6228702 -0.9435119 -0.48472533 3.9629744e-39
2.6206446 -0.90855861 -0.48431218 3.3175881e-39
2.6315768 -0.87813836 -0.48634636 3.0417425e-39
2.6238766 -0.85120124 -0.48492008 3.1331927e-39
2.5967827 -0.81745762 -0.47014302 3.3165329e-39
2.6136603 -0.82367939 -0.48426852 3.5927415e-39
2.5967488 -0.78369069 -0.47014302 3.5030654e-39
2.6132202 -0.79590523 -0.4857755 3.5023325e-39
2.5958829 -0.7660042 -0.47324502 3.8697053e-39
2.6130643 -0.76211298 -0.486222 3.8696941e-39
2.6160846 -0.73680675 -0.48350951 3.7778544e-39
2.651732 -0.71797156 -0.50009549 3.5955889e-39
2.6222837 -0.71499318 -0.48266587 3.6852987e-39
2.65693 -0.70809478 -0.48105165 3.7775097e-39
2.6750515 -0.71030903 -0.49440324 3.777867e-39
2.70331 -0.70172292 -0.50982475 4.0511945e-39
2.7361314 -0.69023931 -0.5211845 3.9597303e-39
2.7618799 -0.69570351 -0.51045179 3.1342899e-39
2.7595398 -0.67809743 -0.51894414 4.2359375e-39
2.7861135 -0.66652334 -0.5307194 5.9890936e-39
2.7604375 -0.60839671 -0.51540571 1.179489e-38
2.779021 -0.60304421 -0.53462464 1.1427904e-38
2.7597396 -0.58785427 -0.51788265 9.6636092e-39
2.7817295 -0.57974052 -0.52463549 1.1692622e-38
2.7563169 -0.55190712 -0.5302673 1.1507501e-38
2.7830772 -0.56161618 -0.51964092 1.1876279e-38
2.7245393 -1.0988752 -0.47787404 1.188818e-38
2.74684 -1.0944651 -0.48350322 1.1323503e-38
2.7676992 -1.0962887 -0.49063629 1.0956517e-38
2.7898872 -1.0887283 -0.49666581 9.4838997e-39
2.7904143 -1.0690513 -0.49466801 6.6319477e-39
2.7257915 -1.0180224 -0.47299978 9.9585209e-39
2.7676477 -1.0449311 -0.49063629 8.2763322e-39
2.701031 -1.0102637 -0.48390427 1.143729e-38
2.6416116 -0.96701288 -0.45840102 3.499806e-39
2.6624138 -0.98449308 -0.46200773 6.5513043e-39
2.6239924 -0.9411214 -0.45533979 3.9629645e-39
2.6217611 -0.91116118 -0.45496604 3.409432e-39
2.6239684 -0.88070458 -0.45436481 3.317249e-39
2.6263313 -0.85322952 -0.45699689 3.0417285e-39
2.6018724 -0.81745255 -0.45153102 3.0435418e-39
2.6216736 -0.82367134 -0.45496601 3.318328e-39
2.6021602 -0.78730321 -0.45036778 3.5945422e-39
2.6190898 -0.80423164 -0.46434283 3.4094362e-39
2.6021807 -0.76232255 -0.45020157 3.6849595e-39
2.6203232 -0.75562489 -0.45965445 3.4097964e-39
2.6215861 -0.73618138 -0.45496604 3.5938163e-39
2.6314619 -0.71454769 -0.45668349 3.685656e-39
2.6621375 -0.70808953 -0.46200773 3.961894e-39
2.6829178 -0.70366871 -0.46561444 3.7771201e-39
2.7124226 -0.69698602 -0.48090774 3.7763957e-39
2.7428517 -0.69023263 -0.49660981 3.4101467e-39
2.7686534 -0.69569677 -0.4856824 3.5026926e-39
2.7676182 -0.67643857 -0.48939782 3.7756712e-39
2.7872834 -0.67034966 -0.50465715 5.2360638e-39
2.767554 -0.61224145 -0.48939782 1.0501626e-38
2.7680922 -0.58613396 -0.48733371 1.1141249e-38
2.7881041 -0.58059716 -0.50132734 1.224544e-38
2.7698748 -0.56216514 -0.48072854 1.1323477e-38
2.7911923 -0.55558974 -0.50240242 1.2064642e-38
2.7320828 -1.0887611 -0.45025334 1.1420718e-38
2.7526629 -1.0927608 -0.46220523 1.1508947e-38
2.7758174 -1.0860091 -0.460913 1.0865032e-38
2.7972589 -1.0845785 -0.46969506 9.7608453e-39
2.7975135 -1.0659375 -0.46869615 7.5510299e-39
2.7284575 -1.0180197 -0.46325132 9.2108819e-39
2.7730668 -1.0449256 -0.47082078 7.0774639e-39
2.7116132 -1.0102532 -0.44520772 6.8094908e-39
2.6394372 -0.96827942 -0.42844692 5.0700338e-39
2.6338964 -0.94190252 -0.42755178 3.8696983e-39
2.6290903 -0.91393137 -0.42817515 3.2246947e-39
2.6108518 -0.88980138 -0.41896001 3.410518e-39
2.6290557 -0.87921309 -0.42817515 3.5920156e-39
2.6294003 -0.85768747 -0.42683563 3.3179399e-39
2.6107845 -0.82226747 -0.41896009 3.4094264e-39
2.6107504 -0.78850061 -0.41896003 3.6860119e-39
2.6107216 -0.75955749 -0.41896003 3.8689837e-39
2.6106975 -0.73543817 -0.41896001 3.6867322e-39
2.6292691 -0.72645265 -0.42683563 3.7749733e-39
2.6402843 -0.70995146 -0.4286181 3.5934547e-39
2.6699398 -0.69821018 -0.43344194 3.7763915e-39
2.6907806 -0.69371223 -0.43682566 3.867885e-39
2.7197206 -0.69447136 -0.45421094 3.9589961e-39
2.7754271 -0.69568998 -0.460913 4.0512085e-39
2.7982311 -0.69105071 -0.46470046 4.0490491e-39
2.7745101 -0.68199545 -0.46421561 3.5938107e-39
2.8032312 -0.67170531 -0.46814469 6.7187511e-39
2.7746906 -0.63662928 -0.46338996 1.2444583e-38
2.7981896 -0.64962685 -0.46470046 1.3177106e-38
2.7753448 -0.61351758 -0.46091303 9.852657e-39
2.7753141 -0.58270282 -0.460913 1.1877361e-38
2.7725842 -0.56216246 -0.47082078 1.0955047e-38
2.7374113 -1.085387 -0.43075636 1.1418551e-38
2.7638617 -1.0910511 -0.4212473 1.1511125e-38
2.7839458 -1.0860009 -0.43118972 1.1049049e-38
2.8040879 -1.0845717 -0.44472203 1.0312228e-38
2.7866452 -1.0757267 -0.42128196 1.0313672e-38
2.8109238 -1.0643646 -0.44580942 7.9194551e-39
2.785249 -1.0346419 -0.42623585 5.7978878e-39
2.7015765 -0.99216032 -0.39844066 4.6047508e-39
2.7208629 -1.0002145 -0.41134822 4.0537365e-39
2.6504805 -0.96458197 -0.40068844 3.9633289e-39
2.6754339 -0.98448008 -0.41439816 4.8834775e-39
2.6223521 -0.93802845 -0.37708303 4.2359543e-39
2.6371758 -0.94030917 -0.39870524 4.1448545e-39
2.6223378 -0.92355692 -0.37708303 3.9597331e-39
2.6371467 -0.91114569 -0.39870524 3.5012745e-39
2.6371174 -0.88198251 -0.39870524 3.593473e-39
2.6370931 -0.85767972 -0.39870524 3.4083502e-39
2.6196916 -0.82225859 -0.38638905 3.7774999e-39
2.6196578 -0.78849167 -0.38638905 3.7778572e-39
2.6196289 -0.75954854 -0.38638902 3.6860231e-39
2.6201146 -0.73639351 -0.38452783 3.9615254e-39
2.6369643 -0.72887522 -0.39870524 3.6863819e-39
2.6429994 -0.71130496 -0.39823592 3.7767628e-39
2.6764596 -0.70807523 -0.40963715 3.8686221e-39
2.701288 -0.70365036 -0.39844066 3.9611667e-39
2.7246425 -0.69941628 -0.41917202 3.8678906e-39
2.7835555 -0.69568187 -0.43118972 3.4991067e-39
2.8036945 -0.69104522 -0.44472209 3.3150546e-39
2.7853479 -0.68198466 -0.42458457 2.6725831e-39
2.8154461 -0.67434859 -0.44528574 6.4457697e-39
2.8475976 -0.67097199 -0.46228442 1.2077594e-38
2.7845838 -0.64021444 -0.4272266 1.0413751e-38
2.8036528 -0.64962137 -0.44472203 1.2164776e-38
2.7834733 -0.61350948 -0.43118972 1.0588438e-38
2.7834425 -0.58269477 -0.43118972 1.196921e-38
2.7687919 -1.0927447 -0.40322593 1.1693739e-38
2.7927539 -1.0885601 -0.3989895 1.114019e-38
2.7927361 -1.0705849 -0.3989895 1.0128924e-38
2.812263 -1.0638516 -0.41475463 8.841417e-39
2.7700696 -1.0265028 -0.39831096 6.2617428e-39
2.792028 -1.0397708 -0.40146643 7.0911392e-39
2.7094591 -1.0021011 -0.36965188 6.2596002e-39
2.7288096 -1.0102359 -0.38232583 6.3517903e-39
2.6528351 -0.96542245 -0.36680725 4.2391941e-39
2.6832457 -0.98447227 -0.38583237 4.7880547e-39
2.6478021 -0.9430759 -0.35985851 3.7778642e-39
2.6274195 -0.9155122 -0.35847101 3.6863875e-39
2.6438138 -0.91113907 -0.3743256 3.6849427e-39
2.607384 -0.86865449 -0.35574397 3.4090705e-39
2.6277552 -0.88771725 -0.35714158 3.5019948e-39
2.6432698 -0.88003212 -0.37620094 3.5927345e-39
2.629271 -0.85842794 -0.35149148 3.5942044e-39
2.6447859 -0.8576721 -0.37057483 3.4097936e-39
2.6098566 -0.81599319 -0.34650874 3.4112397e-39
2.6268172 -0.82225144 -0.36033225 3.4112285e-39
2.6272924 -0.78848404 -0.35847104 3.7785691e-39
2.6097944 -0.75376028 -0.34650874 3.410511e-39
2.6269455 -0.75954121 -0.35963428 3.6877972e-39
2.6097753 -0.73461163 -0.34650874 3.9622681e-39
2.6268709 -0.73059821 -0.35980046 3.5949093e-39
2.6446548 -0.72643727 -0.37057486 4.1448321e-39
2.62976 -0.71129984 -0.34916499 3.2289994e-39
2.6496449 -0.70924449 -0.36911288 4.0529966e-39
2.6855733 -0.70806611 -0.37631044 4.4199896e-39
2.7065363 -0.70364511 -0.37924808 3.9601073e-39
2.7310886 -0.69814533 -0.39275295 3.683484e-39
2.7697434 -0.70039666 -0.39831096 3.5005276e-39
2.7916839 -0.6956737 -0.40146643 3.2228772e-39
2.7912152 -0.67855495 -0.40311775 3.7767558e-39
2.8109548 -0.66687399 -0.4180842 9.2126924e-39
2.79197 -0.64303172 -0.40022796 9.2119946e-39
2.7916017 -0.61350131 -0.40146643 1.1693347e-38
2.7907982 -0.58415467 -0.40429726 1.2244343e-38
2.8117657 -0.56676555 -0.41475457 1.2247588e-38
2.7808836 -1.0876371 -0.35899144 1.151868e-38
2.7983997 -1.0894104 -0.37834838 1.0680649e-38
2.8204787 -1.0845553 -0.38478705 1.0126405e-38
2.7992754 -1.0620188 -0.37504575 9.483555e-39
2.8204679 -1.0741992 -0.38478702 9.9437877e-39
2.7459567 -1.0292317 -0.35949782 8.1081483e-39
2.797452 -1.0449013 -0.38165095 7.737226e-39
2.6962755 -0.99433082 -0.33822274 5.2508223e-39
2.7160299 -1.0120431 -0.34566122 7.0921957e-39
2.6657498 -0.97283411 -0.34172505 4.4228539e-39
2.6547623 -0.94306904 -0.33440721 4.8809692e-39
2.6353693 -0.91269028 -0.32938975 7.4657006e-39
2.6350236 -0.88495344 -0.33055303 6.7288573e-39
2.6174574 -0.83992147 -0.31880313 9.3992767e-39
2.6342688 -0.85738933 -0.3332119 5.5299511e-39
2.6576121 -0.86251974 -0.32369086 9.7687655e-39
2.6121571 -0.81950843 -0.32294613 6.9128744e-39
2.6341078 -0.8174203 -0.33365503 5.8068884e-39
2.6158922 -0.79013658 -0.32434425 5.7143452e-39
2.6323822 -0.78847903 -0.33985901 3.9626002e-39
2.6155756 -0.76196098 -0.32539973 5.9905593e-39
2.6323533 -0.75953585 -0.33985901 3.8707633e-39
2.6148312 -0.73939377 -0.32803833 4.242064e-39
2.6352301 -0.72783333 -0.32922357 3.5016347e-39
2.6348498 -0.71129483 -0.33055303 3.6867084e-39
2.6570129 -0.70218271 -0.33612615 3.8707479e-39
2.6946774 -0.69818544 -0.34298369 4.0526476e-39
2.7137458 -0.69617641 -0.35285842 3.6853029e-39
2.7407942 -0.69439977 -0.36388245 3.2246722e-39
2.7751198 -0.70039123 -0.37865117 3.6806253e-39
2.7984576 -0.69566697 -0.37669706 2.8541101e-39
2.820085 -0.69102883 -0.38478705 2.2137629e-39
2.7991118 -0.67255527 -0.3742201 5.89547e-39
2.8182497 -0.67722273 -0.39144647 5.5237812e-39
2.7777367 -0.62905276 -0.36882132 9.6697217e-39
2.7986794 -0.64636326 -0.37570629 8.8428337e-39
2.7983754 -0.61349458 -0.37669703 1.1599352e-38
2.8227234 -0.59782249 -0.37479788 1.2336195e-38
2.7969949 -0.58781701 -0.38165095 1.2335827e-38
2.8172498 -0.58747196 -0.39477623 1.242946e-38
2.7041862 -1.0930386 -0.30965692 1.2168015e-38
2.7239773 -1.0866499 -0.31687245 1.2717598e-38
2.760509 -1.0786263 -0.34626967 1.1702389e-38
2.7835615 -1.0774436 -0.34916154 1.003525e-38
2.8029122 -1.085982 -0.36183542 9.5782365e-39
2.7239575 -1.0667527 -0.31687245 1.1799202e-38
2.7567213 -1.0601687 -0.333516 1.003995e-38
2.802902 -1.0757104 -0.36183542 8.3779165e-39
2.8259315 -1.0741937 -0.36480871 8.9325126e-39
2.7239127 -1.0219839 -0.31687245 4.6965527e-39
2.741179 -1.0336255 -0.33717984 8.1964021e-39
2.7040973 -1.0041946 -0.30965692 3.7735356e-39
2.7212784 -1.0120379 -0.32646874 5.8947386e-39
2.6725867 -0.97677934 -0.31147283 4.422498e-39
2.6427162 -0.94283193 -0.30263501 6.2624617e-39
2.622582 -0.91331935 -0.3003327 9.4907591e-39
2.6426873 -0.91388893 -0.30263498 9.5818701e-39
2.6239967 -0.88505083 -0.29505542 9.3989166e-39
2.6407473 -0.88253576 -0.30961451 9.7673404e-39
2.6212506 -0.84470487 -0.30495033 8.8460945e-39
2.6436512 -0.85986078 -0.29891255 9.0308445e-39
2.6229103 -0.8207674 -0.29879352 9.3067252e-39
2.6438537 -0.80776286 -0.29798198 7.1869627e-39
2.6177437 -0.79288352 -0.29862922 8.1996475e-39
2.6425588 -0.78525287 -0.30263498 8.6642326e-39
2.620995 -0.76111674 -0.29474673 8.7557108e-39
2.6408298 -0.75309557 -0.30883899 6.3622047e-39
2.6249382 -0.74417078 -0.29109749 5.3430459e-39
2.6425099 -0.73637116 -0.30263498 3.8686137e-39
2.662607 -0.72884959 -0.30493724 3.5945548e-39
2.6669621 -0.70341498 -0.30787468 3.6845784e-39
2.7037814 -0.68830472 -0.30965692 3.3190287e-39
2.7209601 -0.69368201 -0.32646874 3.5956198e-39
2.7403936 -0.68928468 -0.33879223 2.9488098e-39
2.7831743 -0.69019228 -0.34916154 2.3956388e-39
2.8025219 -0.69566292 -0.36183542 2.3963423e-39
2.7037518 -0.65869009 -0.30965692 2.577505e-39
2.723567 -0.67626935 -0.31687245 2.486031e-39
2.7511842 -0.67126507 -0.33111191 2.5750008e-39
2.7838233 -0.66726226 -0.34670407 4.8816614e-39
2.8025012 -0.67511982 -0.36183542 4.8820216e-39
2.7248518 -0.64890939 -0.3120743 4.3234766e-39
2.7583747 -0.64238226 -0.32594216 6.9027486e-39
2.7847381 -0.64127481 -0.3432636 8.286053e-39
2.8033736 -0.64430422 -0.35853282 8.9303532e-39
2.7653861 -0.62383211 -0.32677272 8.9296203e-39
2.7884791 -0.61885124 -0.32950178 9.9423597e-39
2.8047647 -0.61642295 -0.35334304 1.104653e-38
2.8349588 -0.60289407 -0.35914043 1.2153583e-38
2.6882443 -1.0942947 -0.28834435 1.2535392e-38
2.7099109 -1.0890844 -0.28870866 6.6395511e-39
2.7296615 -1.0849862 -0.29608047 6.8181438e-39
2.7500484 -1.084432 -0.30493271 7.0936741e-39
2.7278891 -1.0617744 -0.30247802 3.6772594e-40
2.7503994 -1.0574956 -0.30355069 2.1165478e-39
2.7119288 -1.0239298 -0.28109112 1.9350194e-39
2.7291663 -1.026953 -0.2976799 1.9342977e-39
2.7486813 -1.0403042 -0.30976978 1.7491876e-39
2.6806426 -0.99506295 -0.27786949 3.5938275e-39
2.7080081 -1.0091264 -0.29537404 3.0399306e-39
2.6503704 -0.96211976 -0.27471697 4.607964e-39
2.6705477 -0.97672981 -0.27680686 4.1477257e-39
2.6322031 -0.93756461 -0.26523888 7.3663009e-39
2.6503606 -0.95247203 -0.27471697 4.5146824e-39
2.631247 -0.91923761 -0.26866913 9.5836722e-39
2.6506855 -0.91388094 -0.27338758 9.4000068e-39
2.6311278 -0.87246048 -0.26893297 9.307451e-39
2.6502969 -0.88879722 -0.27471697 9.2152484e-39
2.6326203 -0.84948057 -0.26339185 6.998596e-39
2.649246 -0.85599613 -0.2784394 8.8468204e-39
2.6247387 -0.82184494 -0.26683909 8.1975147e-39
2.647671 -0.80775905 -0.28402296 9.3113803e-39
2.6237326 -0.79436469 -0.26536182 9.5833064e-39
2.6502013 -0.79328501 -0.27471697 9.7658956e-39
2.61676 -0.76051348 -0.26419812 8.3879988e-39
2.6271489 -0.73675346 -0.26403263 3.9608009e-39
2.6495047 -0.7329874 -0.27704346 3.6860273e-39
2.6702974 -0.72641164 -0.27680686 3.409781e-39
2.6508384 -0.70300925 -0.2720581 3.3165119e-39
2.6752701 -0.69411981 -0.28377825 3.4079943e-39
2.7063851 -0.6883021 -0.30013499 2.9488042e-39
2.6891198 -0.67802763 -0.28362057 2.8540904e-39
2.7089655 -0.66460788 -0.29061309 2.7640528e-39
2.7288129 -0.67377692 -0.2976799 2.3019929e-39
2.710232 -0.62906897 -0.2858521 4.2366606e-39
2.7297235 -0.64677268 -0.29425275 4.2366662e-39
2.7478325 -0.6324442 -0.31138214 6.9023941e-39
2.7313826 -0.61905694 -0.28808364 4.4206931e-39
2.7601421 -0.6130392 -0.30610421 6.9024053e-39
2.7938454 -0.60865504 -0.30984196 9.0074526e-39
2.8132722 -0.6083439 -0.32220435 1.0588395e-38
2.714592 -1.0831566 -0.27156922 4.8842146e-39
2.7384057 -1.0816612 -0.26409292 2.1204841e-39
2.7579811 -1.0804123 -0.27591032 2.2109113e-39
2.7357719 -1.0717151 -0.27368924 2.4878653e-39
2.757586 -1.0632194 -0.27729231 1.6573689e-39
2.7145329 -1.0239272 -0.27156922 2.7629878e-39
2.7383659 -1.0418667 -0.26409292 2.0268675e-39
2.6605787 -0.99105275 -0.23749296 4.054084e-39
2.6854608 -1.0046258 -0.25486961 3.5008962e-39
2.6408207 -0.96819389 -0.23383921 4.4239469e-39
2.6563179 -0.97176152 -0.25300297 4.0558846e-39
2.6222928 -0.93878359 -0.23408811 6.540845e-39
2.6290133 -0.91256553 -0.23469038 9.2138107e-39
2.6566794 -0.90905106 -0.25145197 8.5695273e-39
2.6756108 -0.91110736 -0.25805327 8.0195849e-39
2.6380153 -0.88453484 -0.23431484 9.2159729e-39
2.6562343 -0.88814807 -0.25300297 9.1237744e-39
2.6317592 -0.85292041 -0.23285453 6.5430143e-39
2.6553538 -0.85598993 -0.25610498 7.3781545e-39
2.6019311 -0.80848008 -0.22761457 7.1905795e-39
2.6190975 -0.8255437 -0.23693432 8.0127479e-39
2.6006775 -0.79905003 -0.23216313 7.6411292e-39
2.6198976 -0.79070616 -0.23387952 8.9408139e-39
2.6249309 -0.76364779 -0.23433128 8.4787581e-39
2.6379151 -0.73513341 -0.23277937 3.3179371e-39
2.6571348 -0.72815597 -0.24912547 3.4998242e-39
2.6413257 -0.71543151 -0.23106863 3.1335696e-39
2.6577539 -0.71127194 -0.24679896 3.4083656e-39
2.6891999 -0.70014077 -0.24971168 2.9477378e-39
2.7168007 -0.68829179 -0.26204726 1.6605919e-39
2.7007413 -0.67311877 -0.24110641 2.5778735e-39
2.7164574 -0.66978288 -0.2632376 2.6704195e-39
2.6994298 -0.65353107 -0.24583019 3.8678864e-39
2.7174101 -0.64633703 -0.25966683 3.7764279e-39
2.7374372 -0.63795322 -0.26601222 3.7774957e-39
2.7379482 -0.62402469 -0.26409292 3.9633163e-39
2.7641306 -0.61056739 -0.27824166 4.5139747e-39
2.8046031 -0.61373967 -0.27052245 5.3390354e-39
2.8186862 -0.6032027 -0.30238882 6.7965974e-39
2.7760193 -0.59350216 -0.28777882 7.7296744e-39
2.7456276 -1.0866283 -0.23770328 4.6144716e-39
2.7659245 -1.0870906 -0.24688791 3.96694e-39
2.727602 -1.0732721 -0.22395958 2.2115923e-39
2.7467837 -1.0617555 -0.23338494 2.3012908e-39
2.765244 -1.0678684 -0.24930646 1.9346537e-39
2.7075529 -1.025714 -0.21748738 3.3154273e-39
2.7262654 -1.0387229 -0.22872056 2.7608354e-39
2.7436147 -1.0418614 -0.24490047 2.5767959e-39
2.664396 -0.99104893 -0.22353399 3.7811096e-39
2.6866035 -1.0058773 -0.21820192 3.8718339e-39
2.650414 -0.96435463 -0.1987454 4.8842006e-39
2.6669266 -0.97657478 -0.21422796 4.4246616e-39
2.6388464 -0.94197178 -0.20726414 7.648266e-39
2.6433325 -0.91491616 -0.20761052 9.2152484e-39
2.6365356 -0.88399822 -0.20707922 8.9375811e-39
2.6358526 -0.85315883 -0.20609349 5.2522768e-39
2.6056628 -0.80847633 -0.21396884 8.5706259e-39
2.6274498 -0.82395178 -0.2063863 8.7528367e-39
2.6086311 -0.79149711 -0.20305225 9.58474e-39
2.6279204 -0.79354841 -0.20455341 9.5840225e-39
2.6130788 -0.7613129 -0.18667737 8.6613277e-39
2.6341543 -0.76412791 -0.20692368 7.8344635e-39
2.6476634 -0.73936093 -0.20798063 3.8707479e-39
2.6666758 -0.72573447 -0.21422796 3.4094474e-39
2.6647501 -0.70885289 -0.22120748 3.317256e-39
2.6935794 -0.69796407 -0.21999834 3.039209e-39
2.7055423 -0.67591238 -0.22356093 2.3034418e-39
2.7271972 -0.66853821 -0.22395958 3.2236199e-39
2.7058887 -0.65352458 -0.2222112 3.6863664e-39
2.7241333 -0.6422171 -0.23506857 4.236669e-39
2.7467089 -0.6372807 -0.2321054 4.4210518e-39
2.7667892 -0.62908214 -0.24205083 4.3302855e-39
2.7754211 -0.6189065 -0.25025496 4.2388087e-39
2.8322539 -0.62373227 -0.25285 4.7855113e-39
2.7315176 -1.0831397 -0.20967668 7.480822e-39
2.7102566 -1.0677866 -0.18879904 5.4438638e-39
2.7328062 -1.0699763 -0.20491564 2.8537443e-39
2.7532589 -1.0634072 -0.2097142 2.3030901e-39
2.7146604 -1.0281554 -0.19150651 3.8678738e-39
2.7340822 -1.0436507 -0.20015478 3.1303172e-39
2.7004375 -1.0059773 -0.19288816 5.0671429e-39
2.6567278 -0.96434832 -0.17565744 4.6058284e-39
2.6732912 -0.9789803 -0.19096296 4.9760136e-39
2.653183 -0.94438773 -0.18012151 8.8421401e-39
2.6554172 -0.91647798 -0.18027502 1.0136123e-38
2.6537647 -0.88366127 -0.1793033 7.0958195e-39
2.6505473 -0.85118622 -0.18099396 8.0149115e-39
2.6757035 -0.84632194 -0.18165694 9.9517204e-39
2.6407795 -0.81895554 -0.17928796 9.8595444e-39
2.6180732 -0.78017032 -0.16848306 1.0410908e-38
2.6383336 -0.79646569 -0.17912336 9.9520791e-39
2.6165638 -0.76319563 -0.17394133 9.3992837e-39
2.6446633 -0.75874376 -0.18111144 5.5324553e-39
2.6552401 -0.73935336 -0.18027502 3.9622429e-39
2.673038 -0.72572815 -0.19096296 3.9601003e-39
2.6577418 -0.71541506 -0.17103983 4.0530232e-39
2.6747169 -0.70803899 -0.18475895 3.7774859e-39
2.6950359 -0.69888276 -0.19466877 3.1321263e-39
2.709137 -0.67196876 -0.19355349 2.4881834e-39
2.7324002 -0.66359729 -0.20491576 3.5920184e-39
2.711056 -0.65351945 -0.20331603 3.9622247e-39
2.7317319 -0.64632267 -0.20729622 4.1448489e-39
2.7542326 -0.63793653 -0.20459618 4.5132432e-39
2.7734032 -0.62907553 -0.21786547 4.4232084e-39
2.8180592 -0.62901247 -0.22137304 5.2453993e-39
2.7563183 -0.62400627 -0.19691917 4.6043739e-39
2.7840621 -0.62142444 -0.21866533 5.4305122e-39
2.7214782 -1.0636537 -0.16670667 4.0555525e-39
2.738003 -1.0584544 -0.18587188 3.0345455e-39
2.7195036 -1.0346322 -0.16539574 3.4076356e-39
2.6860373 -1.0006748 -0.1444329 5.2507943e-39
2.7013457 -1.0034322 -0.16428532 4.699452e-39
2.6630418 -0.964342 -0.15256934 4.6065249e-39
2.6809225 -0.97559595 -0.16304494 4.9738907e-39
2.6630323 -0.95476764 -0.15256934 6.3474631e-39
2.6834395 -0.94761509 -0.15373893 9.3992753e-39
2.6629939 -0.91647047 -0.15256934 1.0228313e-38
2.6632118 -0.88200265 -0.15164571 8.5702251e-39
2.6821139 -0.89455402 -0.15839194 6.9046389e-39
2.6625686 -0.85218614 -0.15388864 8.569872e-39
2.6501358 -0.8201583 -0.15098549 9.8591632e-39
2.6537566 -0.79212785 -0.15339743 1.0043204e-38
2.6230395 -0.77073413 -0.15028872 1.0964805e-38
2.6514993 -0.76318151 -0.15191963 7.373491e-39
2.6849415 -0.75305146 -0.14753491 4.3277996e-39
2.661967 -0.73136801 -0.15564771 4.2377522e-39
2.6819549 -0.73536694 -0.15839194 4.3277954e-39
2.662159 -0.71301705 -0.15487817 4.1448559e-39
2.6820633 -0.70267189 -0.15787496 3.4090733e-39
2.7015464 -0.69138443 -0.16240993 3.3154329e-39
2.685719 -0.68230081 -0.1444329 3.5934407e-39
2.7055414 -0.66915888 -0.16456877 2.7640682e-39
2.7376032 -0.65865624 -0.18587188 3.5937953e-39
2.7213867 -0.64959127 -0.16552563 3.8696885e-39
2.7410617 -0.64549071 -0.17317598 3.9622359e-39
2.7610559 -0.63792962 -0.17964587 4.4217735e-39
2.7826626 -0.62906629 -0.18400602 5.702451e-39
2.7906966 -0.62141782 -0.19440563 8.1038365e-39
2.7249362 -1.0593568 -0.13888092 4.2392207e-39
2.7154632 -1.0319915 -0.1355114 3.777846e-39
2.718174 -1.0018049 -0.13523559 5.0660667e-39
2.6905856 -0.96786815 -0.1276821 5.1578966e-39
2.7073014 -0.97588295 -0.14240609 5.3415592e-39
2.6705894 -0.93561143 -0.12486377 4.0555231e-39
2.6910753 -0.94857222 -0.12582092 4.3288758e-39
2.6708872 -0.91765934 -0.12370935 4.3306611e-39
2.6884954 -0.91384304 -0.13512693 3.7778698e-39
2.6647215 -0.88240933 -0.12544869 4.4210518e-39
2.6935468 -0.87524718 -0.11651489 4.0530064e-39
2.6692431 -0.85183764 -0.12948136 5.5281294e-39
2.6919985 -0.85402375 -0.1220985 4.607971e-39
2.6636484 -0.81860632 -0.12454466 5.2522474e-39
2.6675739 -0.79243505 -0.1258896 5.6210243e-39
2.6921828 -0.78359526 -0.12116791 3.6874272e-39
2.6665883 -0.76388264 -0.12623167 5.253325e-39
2.6921539 -0.7546522 -0.12116791 4.1444803e-39
2.6678724 -0.74412787 -0.13409896 4.0533511e-39
2.6908572 -0.73053426 -0.12582092 4.1455509e-39
2.6901026 -0.70297009 -0.12847982 4.053721e-39
2.7112868 -0.68748629 -0.12677807 4.41784e-39
2.6882639 -0.68229824 -0.13512693 2.9495385e-39
2.7177958 -0.67026377 -0.13661179 3.3157861e-39
2.750623 -0.65864325 -0.13826221 4.2352284e-39
2.7291415 -0.65350133 -0.13718285 4.4203301e-39
2.7483237 -0.63766849 -0.14659394 4.4199854e-39
2.7866311 -0.62906229 -0.16949481 6.8080404e-39
2.7492814 -0.61915839 -0.14302313 9.7705451e-39
2.7668154 -0.62399578 -0.15853412 7.7371504e-39
2.7347202 -1.0648649 -0.1182877 7.5672752e-39
2.7167604 -1.0325799 -0.10802453 4.1477285e-39
2.7167265 -0.99855608 -0.10802448 4.4232266e-39
2.7203653 -0.97183692 -0.10545183 4.5164914e-39
2.6961544 -0.93795466 -0.10720893 4.8834649e-39
2.7192371 -0.94508761 -0.098647736 4.6980086e-39
2.6756167 -0.91167068 -0.10639332 4.4235924e-39
2.6999476 -0.91383165 -0.093249954 4.4221448e-39
2.6690929 -0.88436526 -0.092238866 4.2359417e-39
2.6986463 -0.88488978 -0.097902909 4.328496e-39
2.6793332 -0.8398596 -0.09254054 4.0544189e-39
2.6982565 -0.85870361 -0.099232331 4.2377424e-39
2.6770451 -0.82454294 -0.10085227 4.3299366e-39
2.6998513 -0.81735456 -0.093249895 4.4199896e-39
2.6755066 -0.80156618 -0.10639332 3.7792823e-39
2.698869 -0.78961843 -0.096739694 4.3295722e-39
2.7165127 -0.78469211 -0.10802453 3.963661e-39
2.6972485 -0.759471 -0.10255592 4.1455593e-39
2.7177751 -0.76524854 -0.1033361 3.8714836e-39
2.6965806 -0.72811651 -0.1048824 4.3299478e-39
2.719033 -0.74094456 -0.098647736 4.0544609e-39
2.6984661 -0.70479935 -0.097902961 4.0529966e-39
2.7164261 -0.69828236 -0.10802448 3.8682606e-39
2.7232344 -0.66972017 -0.10829632 3.593096e-39
2.7311101 -0.6498214 -0.11101572 4.2362934e-39
2.7538581 -0.63889688 -0.12635984 5.6156209e-39
2.7424417 -1.0354736 -0.089944936 4.5139747e-39
2.7403579 -0.9987036 -0.082266152 4.3292233e-39
2.7312491 -0.97184116 -0.080095217 4.5154068e-39
2.7088838 -0.94276583 -0.060678929 4.8824265e-39
2.7246826 -0.94143671 -0.078722015 4.6983856e-39
2.707155 -0.91060853 -0.066882886 3.5934604e-39
2.7243412 -0.92077971 -0.07989414 4.14736e-39
2.6766429 -0.87955225 -0.064612865 5.524175e-39
2.7062905 -0.89452982 -0.069984898 3.3143651e-39
2.6820805 -0.84896731 -0.063573934 4.2388438e-39
2.7045617 -0.86237258 -0.076188907 3.9608009e-39
2.6825209 -0.8289904 -0.065680236 5.1582707e-39
2.7062123 -0.81614226 -0.069984898 3.6842337e-39
2.7049072 -0.78358263 -0.074637905 4.5128929e-39
2.7255068 -0.80412525 -0.075205773 4.51253e-39
2.7067895 -0.7570495 -0.067658417 4.3295835e-39
2.7229037 -0.76524347 -0.084582567 4.421426e-39
2.7066395 -0.7343775 -0.068123713 4.1466439e-39
2.7233002 -0.73445958 -0.083019778 4.2377452e-39
2.7299719 -0.70304853 -0.079186991 4.2381235e-39
2.7365193 -0.67138273 -0.084996447 4.6043613e-39
2.7636425 -0.65863019 -0.090652592 3.9604576e-39
2.7312248 -0.96613795 -0.054889329 4.2406304e-39
2.7131219 -0.93954563 -0.045168947 4.6026068e-39
2.7303407 -0.93697554 -0.058014907 4.422512e-39
2.6869633 -0.91072267 -0.032404926 1.0589545e-38
2.7114043 -0.91864407 -0.051372908 5.8018521e-39
2.6235776 -0.88009149 -0.0046641869 1.0223624e-38
2.6589768 -0.88387263 -0.019289687 1.1051944e-38
2.6823444 -0.87861705 -0.039548174 1.1969586e-38
2.6592069 -0.86500996 -0.018379908 1.0961191e-38
2.6816976 -0.85247445 -0.03339532 1.2061036e-38
2.6873589 -0.83024871 -0.034726985 1.2707127e-38
2.7133431 -0.82120025 -0.04392818 9.9499043e-39
2.7332094 -0.81383872 -0.04707532 6.3568209e-39
2.73879 -0.79638886 -0.051878296 3.8689682e-39
2.712508 -0.74980795 -0.046719953 4.5125146e-39
2.7318833 -0.77009499 -0.051763747 4.4217595e-39
2.7112212 -0.73533767 -0.051372908 4.0548056e-39
2.7305577 -0.72635138 -0.056452118 4.238827e-39
2.7741179 -0.7178492 -0.052564833 4.6990806e-39
2.7369883 -0.71516937 -0.058168776 4.0551546e-39
2.7706258 -0.69810945 -0.065260679 4.2399074e-39
2.793128 -0.69360983 -0.062571503 4.148432e-39
2.7688653 -0.67343235 -0.071608715 4.3306779e-39
2.793118 -0.68366128 -0.062571503 3.5884563e-39
2.6098237 -0.91073275 0.013166809 8.4748163e-39
2.6301446 -0.91105741 0.019236231 1.0137932e-38
2.655622 -0.91350347 0.0043468205 9.8527005e-39
2.6801651 -0.90940744 -0.013933616 1.1789516e-38
2.6122296 -0.88305324 0.02206572 1.077427e-38
2.6260335 -0.88473493 0.0042984849 8.8378451e-39
2.6432631 -0.87733418 -0.0046991725 9.024718e-39
2.611901 -0.85883611 0.02095345 1.1140174e-38
2.6290646 -0.85221082 0.015501795 9.5760855e-39
2.6597874 -0.85374546 0.0043634041 6.9953464e-39
2.6920278 -0.84851199 -0.0082420418 1.0032015e-38
2.6146123 -0.83230954 0.030964632 1.0405111e-38
2.6308844 -0.8336255 0.022223771 1.0128206e-38
2.6678715 -0.82256091 0.013460084 9.9419702e-39
2.6964028 -0.83130676 -0.0048173023 1.150607e-38
2.7214878 -0.82215685 -0.014148929 1.2704257e-38
2.7486739 -0.8120085 -0.028428605 1.3167374e-38
2.7589905 -0.79059446 -0.028535543 7.0021427e-39
2.7794094 -0.80175209 -0.033521011 5.4377205e-39
2.7370071 -0.76522934 -0.033010095 3.034949e-39
2.6581354 -0.93348825 0.04948023 1.2074398e-38
2.6210163 -0.90887636 0.054101937 1.1054116e-38
2.6334095 -0.9079569 0.031186383 9.9427451e-39
2.6042838 -0.87982666 0.047612406 1.0404417e-38
2.6111598 -0.8526324 0.048593249 1.0493733e-38
2.6876171 -0.84289342 0.013559575 8.6516167e-39
2.6194775 -0.83032775 0.048762627 1.0586279e-38
2.6357772 -0.82432878 0.040149055 1.0127817e-38
2.6643336 -0.82350522 0.032531343 9.8508634e-39
2.6888416 -0.81438953 0.018141812 1.1961244e-38
2.7265823 -0.82697552 0.0044631162 1.2431964e-38
2.5834279 -0.91253167 0.087234132 1.1682555e-38
2.6186595 -0.91205049 0.079590812 1.196885e-38
2.5932081 -0.87948328 0.088997945 1.316669e-38
2.6074872 -0.88485861 0.072955742 1.2984083e-38
2.5853837 -0.85240257 0.08529976 1.1968131e-38
2.6111169 -0.8456673 0.074998461 1.1690457e-38
2.6256073 -0.82410961 0.076886855 1.2611695e-38
2.6423101 -0.82122499 0.064049475 1.1784818e-38
2.6716294 -0.81009305 0.06325978 1.150497e-38
2.6127751 -0.80343437 0.092589505 1.2519896e-38
2.6455626 -0.80573553 0.075999685 1.1048335e-38
2.6740942 -0.80069411 0.072306454 1.2334763e-38
2.6177404 -0.93624419 0.11025998 1.0418445e-38
2.5668502 -0.9029116 0.12521391 8.4761475e-39
2.592757 -0.90853149 0.115675 9.7540168e-39
2.6152966 -0.9087677 0.10142478 1.3812375e-38
2.599525 -0.87947696 0.11209621 1.1323492e-38
2.6201062 -0.88586378 0.11909519 1.075739e-38
2.5993819 -0.85674316 0.11165771 1.3253132e-38
2.6176505 -0.84661061 0.11025993 1.2057445e-38
2.6253204 -0.82359266 0.10737383 1.1874487e-38
2.6902478 -0.80839175 0.095334537 1.040082e-38
2.6176076 -0.80342954 0.11025998 1.1968113e-38
2.6516902 -0.80572939 0.098406307 1.1694053e-38
2.6746943 -0.79921192 0.092514917 1.0678832e-38
2.7088816 -0.80486852 0.091457143 1.0768169e-38
2.6225772 -0.94081914 0.1279304 8.0281916e-39
2.5715799 -0.90290689 0.14250913 9.2054519e-39
2.594207 -0.90592319 0.14129461 9.3934837e-39
2.5762918 -0.8849718 0.15980434 1.4728226e-38
2.5955479 -0.88394135 0.1462796 1.2703899e-38
2.6237235 -0.87899041 0.13234797 8.2796238e-39
2.5762737 -0.86704153 0.15980434 1.5279953e-38
2.5956542 -0.85883588 0.14919765 1.4730035e-38
2.6293285 -0.84959853 0.13589181 1.0222904e-38
2.630255 -0.82000273 0.13783765 9.2051338e-39
2.638447 -0.80084896 0.13529649 8.1963615e-39
2.6752903 -0.80241048 0.11268957 7.3694973e-39
2.5654025 -0.87880659 0.18445462 3.681326e-39
2.5798345 -0.88048571 0.17277575 9.2919485e-39
2.5821736 -0.85470849 0.18142341 1.0674853e-38
2.6100314 -0.85160959 0.1733648 1.3992819e-38
2.6318026 -0.84659642 0.16200913 1.509881e-38
2.601316 -0.83695775 0.18703976 1.325418e-38
2.6431963 -0.82056177 0.16396344 1.233761e-38
2.6676185 -0.80261624 0.15666343 5.9001125e-39
