# .PCD v0.7 - Point Cloud Data file format
VERSION 0.7
FIELDS x y z
SIZE 4 4 4
TYPE F F F
COUNT 1 1 1
WIDTH 1163
HEIGHT 1
VIEWPOINT 0 0 0 1 0 0 0
POINTS 1163
DATA ascii
2.0899289 0.22785136 -1.3375535
2.0985224 -0.22500707 -1.3113437
2.1294675 -0.23542017 -1.3139827
2.1051028 -0.16512246 -1.3170102
2.0994847 0.14425412 -1.3147017
2.1274469 0.13950825 -1.3224646
2.0796149 0.17505871 -1.3118055
2.0949104 0.15906605 -1.3166432
2.0796149 0.19640733 -1.3118055
2.0796149 0.21775596 -1.3118055
2.0949101 0.23215045 -1.3166432
2.1020699 0.24157062 -1.3211102
2.1376545 0.24935046 -1.3141373
2.1590436 0.25637063 -1.3322325
2.1466272 -0.24896589 -1.2971865
2.1682625 -0.25637063 -1.2935338
2.1065586 -0.22030355 -1.2874746
2.1381178 -0.23581649 -1.294933
2.1018844 -0.19345872 -1.2873689
2.1123328 -0.16326274 -1.2918385
2.116739 -0.14500275 -1.2940549
2.1433494 -0.1295501 -1.2971358
2.1631408 -0.12376513 -1.3150331
2.1519444 -0.11411376 -1.288675
2.1672382 -0.10903119 -1.2978336
2.1437366 0.1137321 -1.2886059
2.1098151 0.14018258 -1.2885995
2.1340139 0.12642935 -1.2948984
2.0859475 0.17249687 -1.2852231
2.1042764 0.1592422 -1.2888341
2.0862713 0.19718365 -1.2838639
2.1023822 0.18271102 -1.2852778
2.0858815 0.21633272 -1.2855
2.110064 0.23007707 -1.2875538
2.1417096 0.24788745 -1.2971164
2.1737068 0.25994131 -1.2951331
2.1524038 -0.24756697 -1.2694848
2.1140625 -0.21568808 -1.2707685
2.1498396 -0.22763447 -1.269891
2.1135788 -0.19331847 -1.2629367
2.1429379 -0.19763671 -1.2574366
2.1117494 -0.16433893 -1.2585108
2.1126645 -0.14219266 -1.2651309
2.1494598 -0.1336367 -1.2677203
2.1565938 -0.10658977 -1.2691572
2.1553347 0.11118776 -1.2744433
2.1744084 0.11050458 -1.2677345
2.1140625 0.14666788 -1.2707685
2.1475136 0.13467988 -1.2704495
2.1136639 0.1637321 -1.2609346
2.1436117 0.15694678 -1.2546092
2.092478 0.20067707 -1.2578101
2.111202 0.19241495 -1.2581189
2.1155934 0.22136474 -1.2605062
2.1385601 0.23542017 -1.2758141
2.1529124 0.25194129 -1.2673501
2.1713355 0.26079082 -1.2806342
2.1579602 -0.24688146 -1.2358034
2.1594818 -0.22430924 -1.2386224
2.1583598 -0.19514662 -1.242915
2.129478 -0.16101797 -1.2405801
2.1479411 -0.16815725 -1.2364337
2.1604207 -0.13587156 -1.2401476
2.1631324 -0.10533579 -1.2417102
2.1579285 -0.087486237 -1.2290326
2.1627934 0.11118776 -1.2431334
2.1572933 0.13573089 -1.2432065
2.1306818 0.17140624 -1.2355274
2.1476526 0.16130641 -1.2376455
2.1017129 0.19925381 -1.2190441
2.1227243 0.18691009 -1.2344099
2.099195 0.22611648 -1.2215219
2.1206479 0.24704833 -1.2316172
2.1456323 0.26157799 -1.2461274
2.1678305 -0.24989845 -1.2104824
2.1637955 -0.22755554 -1.2082402
2.1551576 -0.1949379 -1.2061411
2.158354 -0.16594005 -1.2099853
2.1702521 -0.13605873 -1.2118237
2.1702521 -0.10533577 -1.2118237
2.1702521 -0.087779813 -1.2118237
2.1516938 0.11335045 -1.2206817
2.1362045 0.14177319 -1.198537
2.152704 0.13078898 -1.2164407
2.1092987 0.17505871 -1.1872007
2.1284025 0.16207999 -1.2036703
2.105809 0.19626054 -1.1946574
2.1208131 0.18056147 -1.2079098
2.0947614 0.22419375 -1.1921268
2.1083093 0.24764404 -1.1913542
2.1198168 0.24934679 -1.2120918
2.1380477 -0.24157062 -1.1700852
2.1459951 -0.22219329 -1.1712453
2.1597762 -0.23542017 -1.1867541
2.1463292 -0.19477983 -1.1698418
2.1597762 -0.19182386 -1.1867541
2.1473327 -0.16880918 -1.1656312
2.1615081 -0.16442044 -1.1794839
2.1732872 -0.13491866 -1.1806713
2.1773717 -0.10533578 -1.1819371
2.1775751 -0.084268615 -1.1810832
2.1167197 0.13876605 -1.1560495
2.137305 0.13640293 -1.1801077
2.112231 0.16551119 -1.1662614
2.0996346 0.19514129 -1.1630411
2.1019039 0.22509356 -1.1643033
2.1109254 0.24903266 -1.1674269
2.1347609 -0.24074861 -1.1493611
2.1380417 -0.22468379 -1.14326
2.1412332 -0.1952049 -1.1394527
2.165838 -0.18310459 -1.1613083
2.1535516 -0.16621211 -1.1395253
2.1663432 -0.16348623 -1.1591878
2.1543541 -0.14716697 -1.1361569
2.1734517 -0.13366312 -1.1500605
2.1812427 -0.10516616 -1.1503444
2.1786106 -0.084667891 -1.1537228
2.2030897 -0.079563297 -1.1473386
2.1781955 0.1137321 -1.1439565
2.1150951 0.13622139 -1.1341003
2.1460519 0.12078531 -1.1364859
2.1114011 0.16675088 -1.1335653
2.1065161 0.1951413 -1.1341541
2.0918725 0.22127064 -1.1308956
2.1068439 0.22554374 -1.1327784
2.1120529 0.24657983 -1.1324891
2.1280985 -0.21882337 -1.1082842
2.1287582 -0.19640733 -1.1055152
2.1423988 -0.18342753 -1.1172987
2.1310668 -0.17932844 -1.0958238
2.1486037 -0.16372395 -1.1142659
2.1543717 -0.13563117 -1.1153697
2.1603725 -0.11253945 -1.1108932
2.1832674 -0.10059449 -1.122666
2.1926281 -0.083390824 -1.1178944
2.2075284 -0.076616503 -1.1287059
2.1457198 0.11177614 -1.1033585
2.1812401 0.10934311 -1.1311765
2.1262467 0.1393737 -1.1088662
2.1437273 0.12467339 -1.1117227
2.1145415 0.16552843 -1.1058602
2.1016395 0.19387522 -1.0898962
2.113152 0.19514129 -1.1062987
2.0995088 0.2229948 -1.0988415
2.1133978 0.24604772 -1.105267
2.1258478 -0.21682934 -1.074581
2.1230485 -0.19613279 -1.0765243
2.1339049 -0.17062385 -1.0746635
2.1485093 -0.1616455 -1.0916488
2.1370037 -0.13663119 -1.0709028
2.1495056 -0.13069209 -1.0874668
2.1603801 -0.10602883 -1.0812708
2.1809926 -0.095911928 -1.0976939
2.1922257 -0.075574987 -1.0882009
2.1304328 0.11503486 -1.0769088
2.1243193 0.13593395 -1.073805
2.1061974 0.17139693 -1.0707631
2.1192963 0.15756749 -1.0805067
2.1055462 0.18966055 -1.0734965
2.1208692 0.20192881 -1.0739039
2.1026149 0.22451372 -1.0742954
2.1212623 0.21211009 -1.0722532
2.1074996 0.24445137 -1.0652965
2.1183131 0.24604772 -1.0846335
2.1133599 -0.21073394 -1.0406969
2.1251948 -0.21211009 -1.0557464
2.106813 -0.19328155 -1.0374942
2.1037586 -0.16407746 -1.0349721
2.1320884 -0.15745687 -1.0591712
2.1153133 -0.14329907 -1.0324969
2.1338105 -0.1351234 -1.0519427
2.1556823 -0.12037431 -1.061538
2.1444247 -0.1131477 -1.0397516
2.1592088 -0.10204192 -1.0565993
2.1754184 -0.082240358 -1.047734
2.191324 -0.073549666 -1.0641879
2.114011 0.11520121 -1.0379635
2.1265054 0.11312538 -1.0502441
2.1084499 0.13454351 -1.0382932
2.0848384 0.17462753 -1.0266519
2.1055198 0.1639145 -1.0459915
2.0848384 0.19680245 -1.0266519
2.105521 0.19166091 -1.0459857
2.0843568 0.22659999 -1.0286741
2.1039891 0.22089224 -1.0504429
2.0562544 0.26269358 -1.0214986
2.0816233 0.24924038 -1.0315166
2.0947595 0.24274862 -1.0497333
2.1172667 -0.21073394 -1.024297
2.1128976 -0.19088808 -1.0130476
2.1350255 -0.1951413 -1.0144792
2.0894632 -0.16298568 -1.0072377
2.1092362 -0.16895255 -1.0086907
2.1369917 -0.17817248 -1.0062257
2.091583 -0.14552294 -0.99833953
2.1062884 -0.13166447 -1.011202
2.123127 -0.10536698 -0.99969733
2.1405251 -0.10492232 -1.0201615
2.150856 -0.085394487 -1.012754
2.1703625 -0.081034116 -1.0275328
2.2089019 -0.070223853 -1.0495822
2.123127 0.10958165 -0.99969733
2.1330593 0.11453944 -1.0227326
2.0872655 0.14616954 -1.0043812
2.1103632 0.1342943 -1.0118505
2.1320763 0.12726606 -1.0268593
2.0829532 0.16584955 -1.0077153
2.0619617 0.19702019 -0.99754143
2.0771847 0.1950049 -1.0034025
2.0859475 0.2262404 -1.0068945
2.1119745 0.22932599 -1.0004835
2.1369917 0.2375633 -1.0062257
2.058157 0.26269358 -1.0135128
2.0858994 0.25059697 -1.0121293
2.1552098 -0.18957578 -0.99447852
2.1716225 -0.19990733 -0.99462509
2.1102779 -0.15904219 -0.98459107
2.147444 -0.17503174 -0.99008965
2.0930414 -0.13810776 -0.9757421
2.1083381 -0.12555963 -0.99273384
2.0983279 -0.11641835 -0.97002721
2.1188967 -0.10813165 -0.98293364
2.140924 -0.093328446 -0.98971885
2.1558034 -0.08325962 -0.99198645
2.1706262 -0.077383481 -0.99880719
2.0983279 0.11226055 -0.97002721
2.1102779 0.11300366 -0.98459107
2.0427415 0.14584954 -0.95308071
2.06862 0.14366055 -0.96959144
2.0868065 0.13387035 -0.97811562
2.1083381 0.12555963 -0.99273384
2.0374856 0.1617211 -0.95500749
2.0591438 0.17008294 -0.97312278
2.0671933 0.18675871 -0.97558075
2.0903025 0.2026097 -0.97782344
2.0796182 0.23966241 -0.98815191
2.1149487 0.21801835 -0.98224634
2.1439021 0.23158531 -0.99340087
2.1060359 -0.18294312 -0.93767029
2.1328938 -0.18544587 -0.95869792
2.1607506 -0.19640733 -0.971219
2.0706809 -0.15959083 -0.93073416
2.0941579 -0.16285504 -0.94725686
2.1244957 -0.17221467 -0.95943034
2.0502524 -0.14584954 -0.92155206
2.0690992 -0.1377425 -0.93737221
2.0936208 -0.13088293 -0.95353848
2.1011212 -0.11461137 -0.94621867
2.1215074 -0.099562846 -0.95471454
2.1348474 -0.0800789 -0.95049798
2.146167 -0.082015902 -0.96770966
2.0771806 0.11492844 -0.93365574
2.0905347 0.10412917 -0.94232816
2.0409465 0.13729082 -0.93040997
2.0607781 0.12726165 -0.94209695
2.0233269 0.15607154 -0.91806883
2.0370383 0.16699743 -0.93473262
2.0496266 0.18906422 -0.92417943
2.0604 0.19034863 -0.94368404
2.0919592 0.20486055 -0.95145118
2.0971243 0.21761653 -0.94487274
2.095897 -0.18181285 -0.91981816
2.1219165 -0.19252476 -0.93573445
2.054008 -0.15395229 -0.90578765
2.0713229 -0.16500331 -0.90991551
2.1074719 -0.17426789 -0.91150486
2.0541787 -0.13480034 -0.90507108
2.0660715 -0.12236698 -0.91987687
2.0558856 -0.11343852 -0.89790553
2.0698526 -0.10605138 -0.90400541
2.1016834 -0.097754136 -0.91969371
2.1219165 -0.092077062 -0.93573445
2.1124594 -0.077612229 -0.91070616
2.1238565 -0.077009901 -0.92759162
2.0558856 0.11343852 -0.89790553
2.0798979 0.10822753 -0.91016716
2.0962162 0.096415907 -0.91847831
2.0236244 0.13975595 -0.89668167
2.0441709 0.12674181 -0.90393031
2.0216246 0.16252142 -0.89775425
2.0381858 0.17713028 -0.91179276
2.0474961 0.18982387 -0.90291601
2.0754158 0.20458715 -0.91085738
2.0809855 0.21343853 -0.91768438
2.1045151 -0.18181285 -0.88364154
2.0587022 -0.15395229 -0.88608223
2.0830135 -0.15752569 -0.87896454
2.1154194 -0.17029847 -0.88821101
2.0341313 -0.13192354 -0.86264443
2.0477464 -0.13495687 -0.87921131
2.0381649 -0.10804954 -0.85578251
2.0538096 -0.10600826 -0.8764137
2.0736334 -0.097893581 -0.888134
2.0624576 -0.089130275 -0.87031788
2.0845079 -0.078592293 -0.8787328
2.1058679 -0.072414681 -0.89306664
2.1195252 -0.058209173 -0.88104564
2.1358421 -0.052389905 -0.89454007
2.0618944 0.084268615 -0.87268251
2.0736334 0.089735784 -0.888134
2.0540457 0.10675392 -0.87206626
2.0736334 0.097893581 -0.888134
2.0083368 0.14221652 -0.86016756
2.0290658 0.13122202 -0.86712688
2.046582 0.12077066 -0.87654787
2.0083368 0.15880844 -0.86016762
2.0217941 0.16722421 -0.87617242
2.0353827 0.1840844 -0.8674612
2.051244 0.19365259 -0.87711525
2.0817792 0.20437308 -0.8740769
2.1121755 -0.18181285 -0.85148454
2.0917156 -0.16050938 -0.84847701
2.1158593 -0.16995597 -0.86622763
2.0282409 -0.13064481 -0.83702779
2.0677779 -0.14584954 -0.84798503
2.0830858 -0.14684036 -0.84845537
2.0294912 -0.10832096 -0.83642644
2.0615342 -0.079830378 -0.84063196
2.0808172 -0.071788624 -0.85797822
2.0709074 -0.056719262 -0.83484805
2.0868437 -0.045745321 -0.84476256
2.1148987 -0.053871561 -0.8702597
2.1354952 -0.041853208 -0.87873501
2.0604084 0.079898722 -0.84267211
2.084934 0.070837922 -0.86083406
2.0174916 0.11851377 -0.82173842
2.0367837 0.10831297 -0.83568925
2.0528014 0.099300303 -0.85044056
2.0099537 0.13990735 -0.832344
2.0306756 0.12749358 -0.84694642
2.0117626 0.16414829 -0.83456659
2.0250816 0.17495047 -0.85028923
2.0278459 0.18290275 -0.83868545
2.0648172 0.19415779 -0.84531045
2.1102605 0.20660551 -0.85952377
2.1196985 0.21553762 -0.8501116
2.0765405 -0.18636329 -0.81120151
2.0943832 -0.1882202 -0.83123767
2.0765405 -0.16745688 -0.81120151
2.0881269 -0.16678165 -0.82729334
2.0417917 -0.13164954 -0.81035137
2.0746629 -0.14584954 -0.81908363
2.0222521 -0.10745248 -0.80175519
2.0324531 -0.095427528 -0.81934589
2.0248153 -0.082959637 -0.790995
2.0395288 -0.07648588 -0.80776805
2.0596426 -0.064411007 -0.82172245
2.0511482 -0.056025688 -0.80128193
2.071171 -0.047363561 -0.81648093
2.0878119 -0.036710091 -0.82861602
2.0906477 -0.024473395 -0.81671244
2.0248153 0.086910099 -0.790995
2.0428271 0.079802647 -0.80936033
2.0624413 0.064411007 -0.80997413
2.0166347 0.10718055 -0.80289584
2.0324531 0.10337982 -0.81934589
1.997424 0.13952339 -0.79378146
2.0064471 0.13448624 -0.812002
2.0116158 0.16448975 -0.80560356
2.0385001 0.18319817 -0.80906552
2.0658891 0.19364403 -0.81563801
2.097523 0.20480122 -0.82812709
2.0956666 0.21800368 -0.81578159
2.1216679 0.22359633 -0.83177775
2.072762 -0.18577248 -0.79685646
2.0585673 -0.16407523 -0.77013874
2.0714989 -0.16540428 -0.79209149
2.0456562 -0.13441972 -0.77902681
2.072762 -0.14538716 -0.79685646
2.0018206 -0.097425692 -0.76130098
2.0203674 -0.1102133 -0.77460617
2.0018206 -0.081826605 -0.76130098
2.0247145 -0.072114289 -0.77538985
2.0398245 -0.063618347 -0.78840268
2.0293927 -0.055306423 -0.77178043
2.0485563 -0.042520691 -0.77859962
2.0702546 -0.0349578 -0.79731292
2.0585673 -0.024011008 -0.77013874
2.0758951 -0.024256879 -0.79377258
2.0479989 0.047816511 -0.77674383
2.0652401 0.05635963 -0.79822582
2.0207162 0.077802643 -0.77080351
2.044832 0.066406108 -0.7875219
2.0016599 0.10825077 -0.76353383
2.0136292 0.10209174 -0.78185356
1.9930686 0.1348338 -0.76798737
2.0008075 0.15904148 -0.76835728
2.0147126 0.1701529 -0.77730626
2.0303082 0.18172112 -0.76793748
2.0463693 0.18994068 -0.78106701
2.0713332 0.20361835 -0.7877509
2.0817044 0.21776147 -0.78952551
2.1076188 0.22985688 -0.80588448
2.037632 -0.15406789 -0.73719412
2.0526381 -0.16493616 -0.75273877
2.0130253 -0.13269359 -0.72829163
2.0322533 -0.13237962 -0.7473067
2.0471959 -0.14314128 -0.7574594
2.005301 -0.10120701 -0.73521662
2.0286934 -0.11508624 -0.75227606
2.0045528 -0.075025424 -0.73580867
2.0198689 -0.0667523 -0.75566119
2.0083208 -0.051925387 -0.72933888
2.0333502 -0.045388535 -0.74815488
2.0478101 -0.034459937 -0.75488079
2.037632 -0.019752294 -0.73719412
2.050936 -0.015921714 -0.75182843
2.0508816 0 -0.74198776
2.0311887 0.049267434 -0.74320495
2.0538089 0.043866053 -0.75990611
2.0056694 0.080402456 -0.73112029
2.0241437 0.070755228 -0.74893516
1.9950745 0.10461101 -0.7381956
1.9734513 0.14558531 -0.72611862
1.9851229 0.13434772 -0.73789722
1.9989042 0.16367953 -0.73614466
2.0198689 0.17277065 -0.75566119
2.0287383 0.18905434 -0.74647874
2.0499601 0.20675963 -0.74585563
2.0727034 0.20933577 -0.76689702
2.0608191 0.22175506 -0.745583
2.0805619 0.22885871 -0.76411396
2.0193563 -0.15611009 -0.70171601
2.0369074 -0.16709873 -0.7177965
2.0089619 -0.13501583 -0.70965022
2.0271485 -0.149211 -0.7251035
2.0012302 -0.10458318 -0.7076807
1.9950705 -0.073361166 -0.70548993
2.0047169 -0.045658305 -0.70707011
2.0318599 -0.034094192 -0.72402531
2.0193563 -0.023416515 -0.70171601
2.0356736 -0.014178718 -0.71736532
2.0413523 0.0049380735 -0.71456414
2.0101118 0.04777772 -0.70846552
2.0271485 0.043192662 -0.7251035
1.9991798 0.073476456 -0.70693886
1.98085 0.11238166 -0.69506109
1.9906174 0.10201044 -0.71015817
1.9791195 0.13379705 -0.70232368
1.9896095 0.13621162 -0.71438903
1.9814419 0.15707889 -0.69257653
1.9947013 0.16641237 -0.70831317
2.015491 0.19104405 -0.70859039
2.0342603 0.20310898 -0.7176888
2.0413876 0.21780773 -0.71020913
2.0567796 0.22423793 -0.72729832
2.0463848 -0.1847869 -0.68442351
2.0176933 -0.15953578 -0.68064708
2.0371578 -0.17277065 -0.68308657
2.0021067 -0.13520092 -0.67945939
1.9858913 -0.10234929 -0.66919118
1.9959226 -0.10639928 -0.68788826
1.9820855 -0.075571865 -0.66686112
1.9965862 -0.069390826 -0.68510246
2.0028799 -0.042486008 -0.67972016
2.0183794 -0.015552703 -0.68088412
2.0203552 0.012972069 -0.67882186
2.0344279 0.0078532118 -0.69454575
2.0083141 0.043370519 -0.68075097
1.9867688 0.076623864 -0.67021513
1.9970967 0.068289384 -0.68295956
1.9801699 0.1031367 -0.67202413
1.9773195 0.13351375 -0.67104512
1.9834509 0.16188566 -0.67219305
1.9973519 0.17733212 -0.6818881
2.0016875 0.19130927 -0.67615366
2.0344279 0.20418349 -0.69454575
2.0256872 0.21074863 -0.67514044
2.0417395 0.22200438 -0.68629283
2.0187032 -0.18618716 -0.64835876
2.0596035 -0.18962203 -0.64496404
2.020844 -0.16592635 -0.65139478
1.9922332 -0.12687603 -0.63988024
2.0060744 -0.14059573 -0.65150732
1.9711682 -0.099680118 -0.62782258
1.9871601 -0.10474129 -0.64785939
1.9705834 -0.076968201 -0.6302774
1.9806472 -0.069326967 -0.64413041
1.988659 -0.044465058 -0.63874245
2.0034268 -0.037008442 -0.65638739
1.9956472 -0.019155964 -0.63294607
2.0110543 -0.01469211 -0.65241796
1.992336 0.017207339 -0.63390011
2.0108464 0.0096614677 -0.65329063
1.971753 0.049209174 -0.6253677
1.9889306 0.040513761 -0.64042705
2.002712 0.042405508 -0.65938747
1.971753 0.060565136 -0.6253677
1.9864354 0.074179813 -0.64202362
2.002712 0.061680738 -0.65938747
1.971753 0.10977431 -0.6253677
1.9811516 0.10175937 -0.64201295
1.9701935 0.12870091 -0.63191396
1.9801427 0.13821861 -0.6462478
1.9708757 0.15519816 -0.62904996
1.9876171 0.16689909 -0.64507788
1.9922332 0.18812478 -0.63988024
2.0096009 0.20190918 -0.65150744
2.025275 0.22020499 -0.65282869
2.0579178 -0.1828624 -0.62959963
2.0766816 -0.19350581 -0.6336863
2.1006906 -0.20128441 -0.649414
2.0027499 -0.1532477 -0.60313088
2.0221407 -0.16274203 -0.62271011
2.050807 -0.17277065 -0.62579083
1.9778935 -0.12113027 -0.59959173
1.9924234 -0.13359267 -0.61195797
2.0107524 -0.14649174 -0.62563652
1.9761391 -0.10220367 -0.6069563
1.9761391 -0.071921103 -0.6069563
1.9770162 -0.041638531 -0.60327405
1.9859436 -0.041900918 -0.62189746
1.9772356 -0.016087614 -0.60235345
1.9892547 -0.013343119 -0.62094343
1.973995 0.011953823 -0.60301048
1.9863849 0.0095229354 -0.62004471
1.9696695 0.041495409 -0.60498786
1.9675143 0.071607336 -0.60432452
1.9689505 0.10182936 -0.60476851
1.9701793 0.13132697 -0.60435694
1.9859436 0.14474861 -0.62189746
1.9725435 0.16247705 -0.6058678
1.9761391 0.18169542 -0.6069563
1.9954873 0.19266057 -0.61290365
2.0187654 0.20881653 -0.6200487
2.0285435 0.22025748 -0.62575155
2.051717 0.22774313 -0.62197113
2.0607321 -0.1875578 -0.60282785
2.0803673 -0.19880734 -0.61821467
1.9849111 -0.15141283 -0.57013357
2.0014262 -0.15663853 -0.58279538
2.0366478 -0.17108899 -0.59406811
1.9795475 -0.13224955 -0.57646573
1.9745013 -0.1017578 -0.5749948
1.9722152 -0.071281224 -0.57509941
1.9759439 -0.041473392 -0.57541203
1.977384 -0.015097248 -0.57584
1.9600855 0.026188992 -0.57077974
1.976146 0.0095953289 -0.57868248
1.9600855 0.041154131 -0.57077974
1.9698772 0.045159634 -0.58146071
1.9716214 0.071502753 -0.574139
1.9716214 0.10160917 -0.574139
1.9716214 0.13171561 -0.574139
1.9773891 0.16231744 -0.57581854
1.9840338 0.18737341 -0.57381582
1.998316 0.19949882 -0.58475602
2.0170059 0.20817249 -0.5993858
2.0092607 0.21710092 -0.5758003
2.0241394 0.21655047 -0.59749007
1.986133 -0.18116698 -0.53911358
2.0259395 -0.1850422 -0.56188476
1.9852999 -0.16030714 -0.54460233
2.0067356 -0.17191927 -0.56050891
2.0366774 -0.17842937 -0.57290804
1.9785982 -0.13171561 -0.54485214
1.9793228 -0.10164496 -0.5450474
1.9626865 -0.074825689 -0.55986142
1.9786564 -0.07225541 -0.54460806
1.9670212 -0.0473896 -0.54166418
1.9777262 -0.044084404 -0.548513
1.9665396 -0.016627932 -0.54368609
1.9768538 -0.022579817 -0.55217379
1.9611603 0.014932689 -0.54719067
1.9616016 0.047803298 -0.54715401
1.9661543 0.074825689 -0.54530364
1.9785982 0.10160919 -0.54485214
1.9807062 0.13189176 -0.54709959
2.0053637 0.14474861 -0.5403769
1.9854426 0.16245322 -0.55064172
2.0053637 0.1637945 -0.5403769
1.9890778 0.18831973 -0.5526427
2.0052664 0.19917798 -0.54725736
2.0141649 0.21783067 -0.55521363
2.0277262 0.22359267 -0.55438459
1.965542 -0.16808358 -0.51335418
1.9847029 -0.15554987 -0.51922613
1.987723 -0.13110386 -0.51690501
1.9877542 -0.10173302 -0.51612681
1.9853259 -0.073115595 -0.51661122
1.9722235 -0.048636697 -0.5198276
1.9852014 -0.040321104 -0.51713419
1.9717031 -0.01421688 -0.52201122
1.9847027 -0.022579817 -0.51922607
1.9693241 0.015861927 -0.51905203
1.9847027 0.012042569 -0.51922607
1.9700493 0.048592657 -0.51924455
1.972471 0.076963566 -0.51878768
1.9730905 0.10475596 -0.51618814
1.9844538 0.10644771 -0.52027208
1.9917365 0.12586421 -0.51846844
2.0134749 0.14172266 -0.52112329
2.0177643 0.16444954 -0.52392191
1.9945604 0.18926606 -0.52962852
2.0115042 0.19466275 -0.52150488
2.0136499 0.22137249 -0.52285504
2.03666 0.23901285 -0.51688349
1.9800265 -0.18706422 -0.48707265
1.9921156 -0.1825202 -0.48810878
1.9765586 -0.1683578 -0.50163043
1.9965373 -0.16221835 -0.49112287
1.9771365 -0.14216881 -0.49920413
1.9928987 -0.13144955 -0.48953038
1.9811826 -0.099767588 -0.48222008
1.9909322 -0.10537248 -0.49307713
1.9800265 -0.078566968 -0.48707265
1.9919289 -0.077416517 -0.4888933
1.9777776 -0.049352661 -0.48960763
1.9754474 -0.017928807 -0.48903441
1.9737743 0.014932692 -0.48878857
1.9791592 0.04863669 -0.49071205
1.9791592 0.078566976 -0.49071205
1.9791592 0.10101468 -0.49071205
1.9916795 0.11289909 -0.48993921
1.9987433 0.12749036 -0.49265134
2.0163977 0.14284404 -0.4940584
2.0217826 0.16428991 -0.4973444
2.0237265 0.19500183 -0.49781498
2.0223618 0.2194915 -0.49861404
2.0405908 0.23592882 -0.50038308
2.0420201 0.24672295 -0.49438289
2.0094728 -0.18169542 -0.46702978
2.0285742 -0.1935633 -0.46883574
2.0094728 -0.16276881 -0.46702978
2.0072823 -0.13235413 -0.46651638
1.9977845 -0.10160917 -0.46431324
1.9976101 -0.07225541 -0.46504542
1.9855881 -0.045471255 -0.45509589
1.9983076 -0.049675599 -0.46211669
1.9799465 -0.018653577 -0.45634007
1.9733963 0.01486121 -0.45483759
1.9688323 0.04820073 -0.45380101
1.9846489 0.077224463 -0.45616171
1.9875405 0.10226178 -0.45553085
1.9974939 0.10286361 -0.46553352
2.0013733 0.13033552 -0.46404344
2.02037 0.14474861 -0.47738373
2.0115197 0.15393639 -0.4584378
2.0288529 0.16645534 -0.47363976
2.033232 0.19794495 -0.47517392
2.0482736 0.18889725 -0.46813217
2.0342042 0.22494571 -0.47109208
2.0438068 0.23515782 -0.48688269
2.0364876 0.24519634 -0.46150869
2.0468698 0.25223014 -0.47402519
2.0435903 -0.21454678 -0.43169349
2.0170753 -0.18421899 -0.43511671
2.0304031 -0.19905564 -0.44102108
2.0155277 -0.16431873 -0.43791425
2.0300801 -0.15236697 -0.43662342
2.0126369 -0.13148846 -0.43648767
2.0283146 -0.14474861 -0.4440344
2.0047612 -0.10160918 -0.43502638
1.9947655 -0.067343116 -0.42520219
2.0048406 -0.075950295 -0.43469357
1.9918317 -0.048567887 -0.42457116
1.9771559 -0.0185633 -0.42144853
1.9736325 0.014811009 -0.42070419
1.9800889 0.048278894 -0.42208216
1.9844915 0.078184396 -0.4230206
1.9951121 0.10325944 -0.42374635
2.003453 0.11101744 -0.44051763
2.0084276 0.13197431 -0.43581772
2.016315 0.15292697 -0.438308
2.0377624 0.16829506 -0.44062197
2.0509536 0.17733212 -0.45688185
2.0409267 0.2068844 -0.44287419
2.0536337 0.1927523 -0.44563153
2.0343261 0.22529723 -0.4414545
2.0391107 0.246447 -0.44014186
2.0568767 0.25929543 -0.44804639
2.0243852 -0.21197797 -0.40443107
2.035965 -0.21331376 -0.41192022
2.0238841 -0.18493998 -0.40653521
2.035965 -0.20061651 -0.41192022
2.0232158 -0.17160124 -0.40934077
2.0364358 -0.15846165 -0.40994397
2.0178428 -0.1313857 -0.40772912
2.0389075 -0.14474861 -0.39956862
2.0117381 -0.10160918 -0.40573952
2.0025682 -0.072955042 -0.39244717
2.0108662 -0.079029366 -0.40940037
1.9928641 -0.048449539 -0.39434639
1.9796118 -0.018508255 -0.39172128
1.9663601 0.025726607 -0.38909349
1.9781405 0.0073944959 -0.39142451
1.9663601 0.047777981 -0.38909346
1.9676985 0.07245452 -0.38347533
1.9784008 0.081398167 -0.3960866
1.9979458 0.10755229 -0.39459178
2.0131688 0.13344797 -0.40713072
2.0221283 0.15378959 -0.4052735
2.0421443 0.16809908 -0.411872
2.0589941 0.17733212 -0.4231309
2.045366 0.2068844 -0.4242397
2.066062 0.19631657 -0.41590008
2.0447021 0.22603022 -0.41507643
2.0634608 0.22616272 -0.40438038
2.0465603 0.24885139 -0.41275424
2.0607808 0.26599818 -0.4156307
2.0589941 0.2775633 -0.4231309
2.0290637 -0.21702509 -0.38479224
2.044204 -0.21331376 -0.37733573
2.0307012 -0.18926606 -0.37791866
2.0430269 -0.20061652 -0.38227639
2.0322802 -0.17412478 -0.37129056
2.0472882 -0.16247967 -0.382882
2.0103714 -0.12720367 -0.35969228
2.023633 -0.12952967 -0.37738279
2.0424385 -0.14474861 -0.3847467
2.0186567 -0.10236184 -0.37669671
2.0085707 -0.075976856 -0.36725104
1.9960769 -0.048361462 -0.36467773
1.9849948 -0.018486237 -0.36265168
1.9731736 0.025726607 -0.36049202
1.9849948 0.0073944959 -0.36265168
1.9711391 0.047732569 -0.36013183
1.9734169 0.075604729 -0.35947052
1.9832815 0.088733949 -0.36984494
1.9945974 0.10776789 -0.36441582
2.0092154 0.12969786 -0.36454481
2.0180609 0.13830139 -0.37919828
2.0242698 0.15702459 -0.37902457
2.0517838 0.17335778 -0.3800393
2.0743253 0.19722158 -0.38682291
2.05528 0.22923304 -0.38262257
2.0674808 0.21781009 -0.38750494
2.0547516 0.24848022 -0.38484102
2.0682254 0.26471317 -0.38437983
2.0697143 0.2775633 -0.37812966
2.0392978 -0.2157633 -0.34183234
2.0515766 -0.2174422 -0.3593322
2.0373971 -0.19115871 -0.3498106
2.0508244 -0.19998164 -0.34954461
2.0349116 -0.17412478 -0.36024374
2.0573602 -0.16542187 -0.35506159
2.0773079 -0.15998441 -0.34625378
2.0270076 -0.12802435 -0.34635007
2.0503831 -0.14474861 -0.35139737
2.0255175 -0.10236184 -0.34789795
2.0115821 -0.076815732 -0.33611634
1.9992611 -0.048267886 -0.33512965
1.9918492 -0.018486239 -0.33387887
1.9738016 0.023432661 -0.3293747
1.9915065 0.0059155966 -0.33531749
1.9711504 0.047573626 -0.33041826
1.9779459 0.077101611 -0.33155987
1.9825422 0.095555961 -0.32116503
2.0035396 0.10864072 -0.336588
2.01564 0.13583741 -0.33757561
2.0230753 0.14300551 -0.35814831
2.0270102 0.15496515 -0.34902793
2.0563087 0.17191927 -0.35241297
2.0839922 0.19584115 -0.35826567
2.061702 0.23600146 -0.35566473
2.0804985 0.22112633 -0.3544364
2.0624766 0.25216216 -0.3524121
2.0745385 0.2683112 -0.3578791
2.0782886 0.27799267 -0.35616177
2.0419295 -0.21954863 -0.33078551
2.0603552 -0.2204345 -0.31989366
2.0445609 -0.1968367 -0.31973869
2.0574448 -0.19299817 -0.3217535
2.0677633 -0.17280629 -0.32282445
2.0835545 -0.15945323 -0.3262662
2.0242436 -0.12720367 -0.30146122
2.0357146 -0.12894276 -0.32062691
2.0663683 -0.14537613 -0.32313234
2.0222926 -0.10606439 -0.30494124
2.0312152 -0.10788134 -0.3239803
2.0068836 -0.07798899 -0.30636999
2.0039089 -0.04819908 -0.30591035
1.9885041 -0.0073504588 -0.29613873
1.9984587 -0.020070773 -0.30613366
1.9820168 0.01679633 -0.30103317
1.9967046 0.002464832 -0.31349817
1.9772525 0.047555964 -0.30183664
1.9779377 0.076844268 -0.30192724
1.9873117 0.09702605 -0.30114397
2.0049598 0.11196197 -0.30708978
2.0150657 0.13793486 -0.30762315
2.0356925 0.15941076 -0.31997916
2.0653734 0.1733578 -0.32299346
2.0933304 0.19498065 -0.3264623
2.0702252 0.23561835 -0.31988648
2.0895317 0.22180505 -0.32860109
2.069418 0.25216216 -0.32327449
2.0820427 0.2683112 -0.3263782
2.0914061 0.2812942 -0.32447129
2.1199629 0.29056883 -0.33549243
2.0524559 -0.23468991 -0.28659818
2.0679758 -0.2225005 -0.29348102
2.0501165 -0.19431315 -0.29641759
2.0666838 -0.19413748 -0.29093766
2.0763133 -0.17295098 -0.29433057
2.0923381 -0.15956455 -0.29562753
2.0294454 -0.12720367 -0.27962461
2.0426245 -0.13567707 -0.2890301
2.0734529 -0.14537613 -0.29339209
2.0130184 -0.10763578 -0.27738059
2.0063033 -0.077675231 -0.27644011
2.0055578 -0.048064217 -0.27633327
1.9930464 -0.009800612 -0.27707109
2.0059006 -0.023662386 -0.2748946
1.9892348 0.014644404 -0.27408421
1.982666 0.047515597 -0.27317914
1.9867705 0.076932572 -0.27374974
1.9937845 0.10633664 -0.27397257
2.0029876 0.11091744 -0.28712311
1.9953176 0.1249578 -0.26753727
2.0146964 0.13906214 -0.27865842
2.0303125 0.15713395 -0.27598518
2.0442443 0.16296221 -0.28999954
2.073524 0.17450865 -0.29568377
2.0917904 0.19683395 -0.29597753
2.0766935 0.22768232 -0.29273328
2.0875816 0.21588257 -0.30312759
2.0727098 0.25623304 -0.29327446
2.0909865 0.28163901 -0.29584733
2.0612278 -0.22711927 -0.24977541
2.0745904 -0.22059184 -0.26390386
2.0605261 -0.18775193 -0.25272122
2.0706859 -0.1966919 -0.26617131
2.060643 -0.17160124 -0.25223026
2.0778553 -0.16256748 -0.26431945
2.0947285 -0.16191193 -0.27312675
2.0303943 -0.12682936 -0.24975048
2.052609 -0.13966054 -0.26006365
2.0012794 -0.099231184 -0.24251099
2.0142953 -0.11179781 -0.25001326
2.0012794 -0.079384953 -0.24251097
2.0120227 -0.076633871 -0.24919525
2.0012794 -0.058803666 -0.24251099
2.0122144 -0.045504589 -0.24839042
2.0007684 -0.013230826 -0.24465607
2.0118413 -0.027113153 -0.2499582
1.9965829 0.014652476 -0.24561213
1.9868689 0.04807771 -0.2433522
1.9921885 0.076877058 -0.24507262
2.0004277 0.10658166 -0.24608614
2.0010903 0.13067482 -0.24330546
2.0132656 0.14379032 -0.2513769
2.0316117 0.15994443 -0.24833888
2.0503278 0.16843182 -0.26100972
2.0706859 0.17522202 -0.26617128
2.0835428 0.18389726 -0.26398298
2.0965152 0.20046239 -0.26562655
2.0837476 0.22869274 -0.26312283
2.0956218 0.21588258 -0.26937664
2.0835426 0.25668991 -0.26398289
2.1070247 0.28159633 -0.2682578
2.0657892 -0.21349211 -0.2306276
2.0802231 -0.22547416 -0.23353443
2.061857 -0.1927156 -0.23095284
2.0660863 -0.16480705 -0.22938123
2.0765707 -0.15490642 -0.24146807
2.0298569 -0.12880979 -0.21748649
2.0600908 -0.14025794 -0.23235621
2.0080929 -0.10045627 -0.21390954
2.0199928 -0.10869641 -0.21972273
2.0080929 -0.071054436 -0.21390954
2.0187526 -0.081339456 -0.22094555
2.0074117 -0.048022993 -0.21676968
2.0166965 -0.044366974 -0.22957748
2.0072412 -0.018376147 -0.21748471
2.0028317 0.014644402 -0.21700689
1.9951372 0.047471561 -0.21435507
1.9916461 0.0765578 -0.21217951
2.0058622 0.10651606 -0.21734031
2.0072412 0.13598348 -0.21748471
2.0085189 0.15619725 -0.21212195
2.0275104 0.16857286 -0.2204297
2.0509825 0.17311195 -0.24100083
2.0624845 0.18386666 -0.22724026
2.0849395 0.19801301 -0.23458217
2.100982 0.20046239 -0.246876
2.0846348 0.22537705 -0.23350824
2.0898948 0.25660187 -0.23408221
2.1092715 0.28230092 -0.240128
2.0731578 -0.21349211 -0.19969644
2.0887556 -0.22566292 -0.20511399
2.0658481 -0.19242938 -0.20125456
2.0643392 -0.16211376 -0.20111583
2.0321541 -0.12980001 -0.19058061
2.0605757 -0.14300551 -0.20073138
2.0132964 -0.1057044 -0.1867927
2.0140548 -0.077179812 -0.18888327
2.0140548 -0.047777977 -0.18888327
2.0132966 -0.018771049 -0.18679276
2.0084064 0.015637198 -0.1867031
2.0002069 0.046836507 -0.18319352
1.9840533 0.072256878 -0.16810454
1.992443 0.076535791 -0.18035281
2.0031343 0.10597302 -0.18423778
2.0083175 0.13497613 -0.18548605
2.0131321 0.16163947 -0.18880177
2.0261211 0.1774679 -0.19001485
2.0459442 0.19086184 -0.18817504
2.0636435 0.19817562 -0.20264813
2.0830441 0.20569541 -0.21429455
2.072175 0.22527735 -0.19983763
2.0836327 0.21585321 -0.21182422
2.0735087 0.24793853 -0.19822352
2.090831 0.26168257 -0.20749758
2.0995238 0.27584589 -0.1968988
2.1188056 0.2827422 -0.21413152
2.1472611 0.29056883 -0.22090095
2.0751085 -0.2152954 -0.17209017
2.0580566 -0.18706422 -0.1595231
2.0689898 -0.19233789 -0.17231622
2.0597906 -0.15713395 -0.1522442
2.0683086 -0.16187707 -0.1715086
2.0217202 -0.1249578 -0.1567066
2.0452099 -0.13497509 -0.16166703
2.0666804 -0.14300551 -0.17510536
2.0108776 -0.10680959 -0.15427293
2.0132847 -0.076859072 -0.15608349
2.0121756 -0.047557987 -0.15599351
2.0108209 -0.017860346 -0.1542732
2.0126171 0.013648026 -0.15476845
2.001616 0.047278896 -0.15155704
1.9907511 0.065031193 -0.13998856
1.9999851 0.077055424 -0.15214522
2.0099492 0.10592201 -0.15217847
2.0118673 0.1359292 -0.15339145
2.0172009 0.16442806 -0.15892425
2.0220606 0.18670164 -0.15527654
2.047159 0.20036073 -0.16384149
2.0690296 0.22383957 -0.17264301
2.0742671 0.25033876 -0.17114148
2.0918715 0.26664218 -0.17723976
2.0991755 0.28024468 -0.17534818
2.1152759 0.28912842 -0.18687436
2.0775664 -0.21482754 -0.14235486
2.0653393 -0.19005725 -0.12895182
2.0736575 -0.19569175 -0.14581855
2.0537643 -0.16725406 -0.13266255
2.0723491 -0.16558534 -0.15130977
2.0276818 -0.1249578 -0.13168031
2.0469112 -0.14100184 -0.13294898
2.0155752 -0.10514691 -0.12439089
2.0124011 -0.076782383 -0.12419335
2.0091586 -0.046584956 -0.12399434
1.9957746 -0.028902752 -0.1189016
2.0068374 -0.017441468 -0.123381
2.0169225 0.014604037 -0.1237694
2.0060818 0.047229353 -0.12309993
2.0068429 0.07632111 -0.12314259
2.0113986 0.10565228 -0.12343847
2.0182407 0.1352367 -0.12384608
2.0217209 0.16484036 -0.12769482
2.0255382 0.19298711 -0.1305081
2.0441823 0.20766239 -0.14008896
2.0616913 0.2263387 -0.12873007
2.073159 0.22687341 -0.14791045
2.0792086 0.2535046 -0.14322823
2.087544 0.2725431 -0.13930707
2.0998161 0.27806973 -0.14389041
2.0684605 -0.21699451 -0.11584983
2.0817971 -0.21450828 -0.11165054
2.0652833 -0.19404235 -0.10564922
2.0817969 -0.20321836 -0.11165051
2.0377319 -0.15876991 -0.089493185
2.0464392 -0.16796072 -0.10472395
2.0319004 -0.13422319 -0.097219333
2.0446851 -0.14542508 -0.11208849
2.0218368 -0.10650577 -0.096311361
2.0272141 -0.076609388 -0.096584521
2.0033097 -0.043354128 -0.087271124
2.0201936 -0.050440703 -0.10073958
2.0188532 -0.018197937 -0.095111422
2.0024724 0.021677064 -0.090785652
2.019835 0.014177499 -0.095349088
2.0128171 0.047229357 -0.094826907
2.0151069 0.076389916 -0.094925322
2.0219703 0.10584219 -0.095244683
2.0242531 0.13518439 -0.095369793
2.0280566 0.16540463 -0.096601248
2.0325491 0.19451667 -0.099382773
2.0363204 0.21631353 -0.095417768
2.0568335 0.23037432 -0.10424308
2.0696895 0.24992399 -0.1032927
2.0806344 0.2591303 -0.11653165
2.08655 0.27310607 -0.11241134
2.1181684 0.28350827 -0.11863384
2.086448 -0.21325384 -0.092125908
2.0447156 -0.18376146 -0.060176685
2.0587766 -0.19646685 -0.075126998
2.0432558 -0.16381022 -0.066305511
2.0526819 -0.1774679 -0.078520223
2.0315332 -0.13524358 -0.066966765
2.0218449 -0.10548164 -0.066641621
2.0074959 -0.07948257 -0.069698669
2.0212429 -0.076113023 -0.066363558
2.0058215 -0.050579816 -0.076727666
2.0295157 -0.047213208 -0.066158444
2.0279093 -0.018247018 -0.066806726
2.023839 0.014549725 -0.066685498
2.0079145 0.048773393 -0.067941405
2.0207143 0.046653211 -0.065993182
2.0302641 0.076706424 -0.066901594
2.0317929 0.10599633 -0.066957384
2.0310287 0.13518439 -0.066928156
2.0395074 0.16511789 -0.067207828
2.0374002 0.19424471 -0.067152023
2.0430124 0.22051381 -0.067327008
2.0535386 0.23662387 -0.074923627
2.0718827 0.24993946 -0.075592875
2.0884829 0.26343119 -0.083583929
2.0928407 0.27175045 -0.091182299
2.049284 -0.19111191 -0.041000616
2.0578227 -0.19965138 -0.056940593
2.045603 -0.1650548 -0.038653195
2.0192173 -0.13006239 -0.020495733
2.0301254 -0.13469452 -0.038354695
2.0347307 -0.10578164 -0.038441733
2.0362685 -0.076678902 -0.038460068
2.0427904 -0.047596332 -0.038592678
2.0420883 -0.018320642 -0.038573179
2.0336566 0.014558533 -0.038420063
2.0308914 0.047353212 -0.038375925
2.0370319 0.076703668 -0.038491905
2.038569 0.10599633 -0.038512994
2.0392735 0.13528715 -0.038522549
2.0498259 0.16538532 -0.038725484
2.0449045 0.1943305 -0.038618997
2.0498259 0.21683857 -0.038725514
2.0607603 0.23345479 -0.044609398
2.0803339 0.25012112 -0.046589315
2.0954597 0.26343119 -0.05429703
2.0538123 -0.18350917 -0.010124938
2.0446246 -0.16506788 -0.0090312222
2.021729 -0.13006237 -0.0099522397
2.0338652 -0.13724771 -0.0064736484
2.0422666 -0.10582293 -0.010045359
2.0453451 -0.076755956 -0.010068546
2.0453451 -0.047515597 -0.010068575
2.0495811 -0.01831812 -0.010086943
2.0451949 0.014604221 -0.010051452
2.0445759 0.047501836 -0.010060741
2.0459876 0.076791741 -0.010068139
2.0502908 0.10625116 -0.010074407
2.0524082 0.13570848 -0.010086055
2.0549653 0.16453457 -0.010823891
2.0551491 0.19294953 -0.016380666
2.0693893 0.19965139 -0.008386448
2.0540843 0.22051378 -0.020849664
2.0714989 0.22738433 -0.01546329
2.0862195 0.24950878 -0.019109547
2.0495799 -0.1827523 0.0077092289
2.0523055 -0.16235596 0.014835705
2.0564878 -0.13480978 0.017718373
2.0563748 -0.10621078 0.018431114
2.0595064 -0.077774927 0.017732399
2.0610173 -0.047002569 0.017745961
2.0620377 -0.018355964 0.018469593
2.0576692 0.015327217 0.019268092
2.0508339 0.047661614 0.021148499
2.0523074 0.076543555 0.019411342
2.0617707 0.10577665 0.017743567
2.0627432 0.1347584 0.015498034
2.0766721 0.14788991 0.022184668
2.0614657 0.15680979 0.010135241
2.0786686 0.17037725 0.015031147
2.0818284 0.19668899 0.011466797
2.0820696 0.22549658 0.0071819457
2.0838678 0.24547155 0.00060862885
2.0677114 -0.15435964 0.036353234
2.0783856 -0.15898167 0.029377868
2.0679379 -0.13444073 0.042049609
2.0783856 -0.14788991 0.029377868
2.0691543 -0.10819351 0.046724886
2.0828409 -0.10352294 0.048080165
2.0677114 -0.084530279 0.036353234
2.0827265 -0.075916819 0.047600772
2.0677114 -0.036752291 0.036353234
2.0825622 -0.049450684 0.046911366
2.0700343 -0.015369141 0.046103735
2.0831838 -0.025141284 0.049518816
2.0295832 0.028741283 0.070485145
2.0629609 0.014953605 0.049084671
2.0360417 0.048100609 0.061995864
2.0507212 0.046414681 0.044863544
2.0295832 0.064667888 0.070485145
2.056293 0.076229967 0.050272383
2.0677927 0.099681258 0.043475088
2.0868917 0.11302478 0.0456657
2.0960071 0.13803987 0.041211281
2.1047165 0.16733746 0.03634499
2.103574 0.19267614 0.031547491
2.0869536 -0.096128441 0.065343872
2.0872962 -0.075423852 0.066782519
2.0919063 -0.047123935 0.072012678
2.0704546 -0.011913761 0.078074425
2.0888815 -0.024956424 0.07343626
1.9947823 0.028110091 0.10995456
2.0133581 0.028418347 0.09731175
2.0410843 0.016810602 0.08711955
2.0579956 0.0095119262 0.075233594
1.986549 0.047726765 0.10520787
2.0124321 0.047404278 0.0881496
2.0337036 0.040750455 0.079870827
1.9867324 0.067411922 0.10528981
2.0175924 0.074089542 0.091351137
2.0349312 0.077343114 0.081068747
2.057656 0.084946789 0.076133341
2.0362437 0.093409173 0.098444052
2.0685215 0.095162384 0.075353794
2.1017635 0.11098582 0.071023203
2.1106544 0.13593334 0.061269633
2.1213322 0.1605676 0.054308414
2.1170125 -0.041154131 0.08795879
2.0494187 -0.0090220179 0.11814929
2.0695667 -0.01371468 0.099161044
2.0938079 -0.029577984 0.094116673
1.9624803 0.027542509 0.14121345
1.9919132 0.023326606 0.12883554
2.0197303 0.017771559 0.11812586
2.0467901 0.0054091741 0.11107096
1.964844 0.045126271 0.14198318
1.9853131 0.044198472 0.12450465
1.9659668 0.065529667 0.14146428
1.9843665 0.075239055 0.12849313
2.0117469 0.085012846 0.11428046
2.0004823 0.091357797 0.13388133
2.027437 0.097832248 0.1225055
2.0391576 0.10059449 0.11067601
2.066313 0.09969908 0.09521167
2.0240571 -0.007094495 0.15408936
2.0462344 -0.0071853208 0.14038244
1.9691814 0.023607865 0.16523273
1.9960918 0.012969068 0.15891205
2.0230024 0.003044823 0.14457698
2.0445693 0 0.13339269
1.9431342 0.048381194 0.17147945
1.9564362 0.042326603 0.16160746
1.9467455 0.0612 0.175851
1.9634924 0.07406158 0.16464052
1.9833771 0.08340551 0.15269691
1.9766619 0.096741281 0.17197609
1.9916933 0.099178247 0.15616582
2.0224152 0.10303669 0.13532983
2.0118821 -0.0070275227 0.18173487
2.0347643 -0.018479999 0.18716764
2.0575345 -0.023017246 0.17832389
2.075119 -0.018165138 0.16669865
1.9761229 0.021799391 0.19488546
1.9980855 0.0056900755 0.18619354
1.94662 0.051359896 0.19381799
1.9650017 0.03834055 0.19638745
1.9487491 0.061089907 0.19864513
1.9676037 0.07855542 0.19436586
1.9801692 0.099550724 0.19902702
1.9979328 0.10723761 0.18628825
2.0125971 -0.0070073395 0.20846944
2.0423594 -0.017115597 0.20006461
2.062053 -0.025148623 0.20678475
1.9854692 0.0069100917 0.20894699
1.9954573 0.0034752295 0.20340632
1.9854692 0.11056147 0.20894699
2.0059929 0.1117945 0.20448026
2.0496407 0.12146422 0.20214786
2.0639672 0.12718289 0.19899774
