# .PCD v0.7 - Point Cloud Data file format
VERSION 0.7
FIELDS x y z rgb
SIZE 4 4 4 4
TYPE F F F F
COUNT 1 1 1 1
WIDTH 1026
HEIGHT 1
VIEWPOINT 0 0 0 1 0 0 0
POINTS 1026
DATA ascii
-1.2897581 1.2686424 -1.1899441 7.735466e-39
-1.3072761 1.2595336 -1.1992335 5.8922274e-39
-1.3344525 1.2203825 -1.198823 3.0363167e-39
-1.102729 1.1176659 -1.1648828 1.0215677e-38
-1.0797259 1.0955822 -1.1494275 8.9328839e-39
-1.0967325 1.1018646 -1.1703467 1.0682062e-38
-1.0567409 1.074174 -1.1390126 8.2903872e-39
-1.0712534 1.0762808 -1.1607261 8.3782935e-39
-1.0480701 1.0505455 -1.1459929 7.3695155e-39
-1.0608743 1.0422065 -1.1622326 4.5125356e-39
-1.0558563 1.0190663 -1.1550767 5.3430039e-39
-1.0783476 1.0010281 -1.1661401 3.7738943e-39
-1.1172436 0.98669595 -1.1672961 2.7593753e-39
-1.1390744 0.9750517 -1.1864228 3.3114617e-39
-1.1671842 0.97165662 -1.1842605 3.1270746e-39
-1.1985689 0.96619225 -1.1995469 3.6777358e-39
-1.0736715 0.98770559 -1.1692209 3.8671395e-39
-1.3258241 1.2981542 -1.1702 1.1140505e-38
-1.2991239 1.2761809 -1.1611354 1.0048591e-38
-1.321067 1.283998 -1.1726196 9.8566269e-39
-1.2974406 1.2663867 -1.1563342 5.9037601e-39
-1.314613 1.2599716 -1.1702001 2.5764232e-39
-1.3321308 1.2432624 -1.1748183 3.2207052e-39
-1.3317484 1.2148274 -1.1729366 3.7717237e-39
-1.3652087 1.1987877 -1.1788621 2.762964e-39
-1.3607363 1.1852316 -1.1808448 2.484945e-39
-1.3794225 1.174818 -1.1882013 2.4845821e-39
-1.4036168 1.1730305 -1.187891 2.7583005e-39
-1.0881983 1.1148835 -1.1381291 6.1623207e-39
-1.0703164 1.1014372 -1.1165762 5.9829811e-39
-1.0860854 1.102592 -1.1321032 7.4541273e-39
-1.0621432 1.0773954 -1.1210635 8.1974993e-39
-1.0518581 1.0490203 -1.1211647 6.8152753e-39
-1.0677377 1.0337353 -1.1245708 7.554627e-39
-1.0619973 1.0192808 -1.1305966 6.3568125e-39
-1.084777 1.0062656 -1.1327758 4.0501211e-39
-1.1184634 0.98895609 -1.1420416 2.4856596e-39
-1.3344148 1.3008159 -1.1387473 7.3608499e-39
-1.3585995 1.3086598 -1.1455493 6.5325325e-39
-1.3046116 1.2745695 -1.1371285 9.579331e-39
-1.3288609 1.2806727 -1.1372956 8.653046e-39
-1.3018304 1.2650979 -1.1371285 7.5539222e-39
-1.3184468 1.2484773 -1.1411668 5.2501076e-39
-1.3393406 1.2306926 -1.1309148 7.2816177e-39
-1.3128406 1.2293861 -1.1411667 3.2185794e-39
-1.3439492 1.2162739 -1.147084 1.9339446e-39
-1.3723091 1.2020135 -1.1540786 2.2072819e-39
-1.3920621 1.1925173 -1.1582255 2.5767763e-39
-1.4136468 1.1844761 -1.1610268 2.208005e-39
-1.3859197 1.1800472 -1.1682174 3.0345328e-39
-1.4059194 1.1723543 -1.177817 2.1158177e-39
-1.0642561 1.1012145 -1.0889386 5.8922218e-39
-1.0566558 1.0738118 -1.0903816 8.1060184e-39
-1.0546829 1.0469381 -1.0917897 7.0918594e-39
-1.0742804 1.0318142 -1.095948 5.2479314e-39
-1.0700094 1.0185423 -1.0974543 4.2355802e-39
-1.0874161 1.0012212 -1.1025145 3.4058181e-39
-1.3272971 1.3193502 -1.0987171 4.8769881e-39
-1.3418998 1.3038026 -1.1121334 6.7194644e-39
-1.3334914 1.2751656 -1.1121334 6.444332e-39
-1.3250831 1.2465289 -1.1121334 5.8911428e-39
-1.3200175 1.2238227 -1.1056814 7.0950726e-39
-1.3482026 1.2096729 -1.115672 3.5041332e-39
-1.3774954 1.1987206 -1.1292951 1.288571e-39
-1.3979491 1.1872202 -1.1282496 1.4722406e-39
-1.3950554 1.1773647 -1.1282496 2.4809989e-39
-1.0543457 1.1237447 -1.0519339 1.8442475e-39
-1.0742325 1.1247212 -1.0506648 2.9448385e-39
-1.0657448 1.1033477 -1.0595751 6.1702577e-39
-1.0399183 1.0758549 -1.0534081 9.3034713e-39
-1.0549134 1.0683427 -1.0618026 8.1070974e-39
-1.0660676 1.0473976 -1.0697803 5.3390705e-39
-1.084375 1.0385344 -1.0632361 3.7738873e-39
-1.0760101 1.0133218 -1.0671098 4.3263296e-39
-1.0947169 0.99907756 -1.0705734 4.0501197e-39
-1.330351 1.3094513 -1.0747101 5.7953529e-39
-1.3459297 1.295707 -1.0863258 8.2929193e-39
-1.322904 1.2820588 -1.0723093 7.922346e-39
-1.3388737 1.2709932 -1.0855193 6.1702605e-39
-1.3144146 1.2511147 -1.0699086 4.5121684e-39
-1.329507 1.2452297 -1.0927776 3.5919974e-39
-1.307315 1.2249064 -1.0675079 3.8667878e-39
-1.3234292 1.2179823 -1.0850354 5.1546582e-39
-1.3474318 1.2016802 -1.0866697 3.7742503e-39
-1.3833364 1.1934652 -1.0995548 2.301274e-39
-1.4048008 1.1852084 -1.0982739 1.3818442e-39
-1.4226531 1.1782341 -1.1173728 1.5637202e-39
-1.0582584 1.12501 -1.0221369 5.3379536e-39
-1.055288 1.1045132 -1.0253958 8.749213e-39
-1.0481192 1.0813448 -1.0268701 8.8457372e-39
-1.068226 1.0681361 -1.0338312 6.4429111e-39
-1.0764326 1.0539694 -1.0358052 3.8628502e-39
-1.0899829 1.0368878 -1.0387021 3.6813316e-39
-1.1034151 1.0198978 -1.0464966 4.5103608e-39
-1.0847474 1.0190568 -1.0387022 4.3266898e-39
-1.1010584 1.0030591 -1.0463241 4.4192483e-39
-1.3153464 1.3057256 -1.0401183 5.7903124e-39
-1.3364707 1.3043106 -1.043981 7.001833e-39
-1.3283185 1.279183 -1.0471019 7.1858669e-39
-1.3021299 1.2560143 -1.0345604 5.8958288e-39
-1.3179113 1.2459728 -1.0497427 5.1600532e-39
-1.3119062 1.2222724 -1.0459015 3.5912925e-39
-1.327845 1.2068355 -1.0540665 3.9568423e-39
-1.3584143 1.1926841 -1.0544512 2.4849534e-39
-1.3878683 1.1921344 -1.079728 1.9350082e-39
-1.3265535 1.1942539 -1.0443887 2.9448385e-39
-1.3883961 1.1813586 -1.064858 2.4849436e-39
-1.0671672 1.1299624 -0.99211174 6.2570148e-39
-1.084824 1.1287711 -1.012796 6.6243638e-39
-1.0613538 1.1027321 -0.99885768 9.8570151e-39
-1.0549492 1.080919 -0.99885768 6.2639008e-39
-1.0680403 1.0638065 -1.0035675 3.4976718e-39
-1.0712925 1.0413377 -0.99841917 3.5923687e-39
-1.0930585 1.0295286 -1.0176116 3.222887e-39
-1.0888559 1.0113945 -1.0130922 3.5923828e-39
-1.1112629 1.0032182 -1.011561 4.5107363e-39
-1.3233901 1.3069365 -1.0091528 5.6138245e-39
-1.3431729 1.3044004 -1.0170929 7.5445307e-39
-1.3164879 1.2824223 -1.0079619 8.5691531e-39
-1.335416 1.2861013 -1.0266958 8.5609079e-39
-1.303444 1.2539151 -1.0095247 6.0798725e-39
-1.3237051 1.2380984 -1.0170929 4.4225064e-39
-1.2898196 1.2298635 -1.0100644 4.8813097e-39
-1.3185407 1.2205081 -1.0170931 3.6834882e-39
-1.33297 1.2079228 -1.0347109 3.0374069e-39
-1.3676263 1.1896293 -1.0288384 2.6671853e-39
-1.396932 1.1894732 -1.0400743 2.5771532e-39
-1.3136784 1.1998892 -1.0122916 2.3016439e-39
-1.3309778 1.1929549 -1.025033 1.7477513e-39
-1.392928 1.180028 -1.0450311 2.761885e-39
-1.0661639 1.1274691 -0.96990192 4.9670271e-39
-1.0663351 1.1024834 -0.97073513 8.0159849e-39
-1.0562996 1.0735348 -0.96915066 4.4163855e-39
-1.0556074 1.0532411 -0.96347356 4.9684971e-39
-1.0726112 1.0334609 -0.97257173 4.5100062e-39
-1.0979925 1.0119399 -0.97693706 4.0508161e-39
-1.1178151 0.99657714 -0.98824817 4.6007669e-39
-1.3387235 1.3269335 -0.97104132 1.9321341e-39
-1.3315047 1.3115536 -0.98193038 4.7804877e-39
-1.30365 1.2855005 -0.97700393 8.8464575e-39
-1.2791806 1.2657282 -0.96587348 7.7379295e-39
-1.2950019 1.2576454 -0.97889525 6.9996778e-39
-1.3024369 1.231624 -0.97982073 4.6040222e-39
-1.3243626 1.217329 -0.98988497 3.4072712e-39
-1.3428258 1.203301 -0.98954773 1.8435399e-39
-1.3661226 1.1909456 -0.99869388 2.2080022e-39
-1.3169709 1.1989225 -0.99788731 2.3949018e-39
-1.3354021 1.1916559 -1.0056775 2.0236123e-39
-1.0714668 1.1317667 -0.93597162 4.5110782e-39
-1.0590438 1.1061412 -0.93452048 8.6617173e-39
-1.0514139 1.0801556 -0.93452048 5.6181699e-39
-1.0570611 1.0514127 -0.93427521 4.6029277e-39
-1.0817224 1.0268754 -0.95138896 4.3270485e-39
-1.0560235 1.0284774 -0.9325124 4.0526322e-39
-1.1029738 1.0072494 -0.95132703 3.5887702e-39
-1.1199969 0.99551582 -0.95087695 3.4032971e-39
-1.3409013 1.3262941 -0.96151346 2.0254046e-39
-1.3286632 1.3100497 -0.94844258 4.8751888e-39
-1.2867616 1.2836123 -0.95648843 9.1248366e-39
-1.3114609 1.2913121 -0.95241714 9.952096e-39
-1.2820405 1.2603182 -0.94795656 7.3695393e-39
-1.3056847 1.259912 -0.93854767 7.186583e-39
-1.2731718 1.2373277 -0.95648843 5.3476842e-39
-1.3064231 1.2305727 -0.94882298 4.3310268e-39
-1.3311666 1.212759 -0.95707524 2.0290129e-39
-1.3477317 1.2025516 -0.96890181 2.1179673e-39
-1.3665446 1.1913468 -0.97481328 3.3132581e-39
-1.3464624 1.1884083 -0.95728844 2.6689719e-39
-1.0636288 1.1451411 -0.88881755 3.1288711e-39
-1.0760182 1.1319602 -0.90445197 7.5481628e-39
-1.0490068 1.1027164 -0.89753866 8.8464673e-39
-1.0664331 1.1053157 -0.90378439 9.029411e-39
-1.0464813 1.0941144 -0.89753866 7.6518533e-39
-1.0584396 1.0780927 -0.90378433 6.0787879e-39
-1.0629903 1.048525 -0.90874422 4.5118181e-39
-1.0873114 1.0236739 -0.91732544 3.592003e-39
-1.0763971 1.0190763 -0.91701043 3.7760369e-39
-1.111606 1.0111707 -0.92119777 2.7622535e-39
-1.127838 1.0029702 -0.92811042 3.0373943e-39
-1.3058327 1.3115292 -0.91269141 3.0309315e-39
-1.2796413 1.2868083 -0.90264362 1.078544e-38
-1.2976724 1.2890275 -0.91894811 9.5833036e-39
-1.2889766 1.2578244 -0.9170711 7.2780612e-39
-1.3094271 1.2263428 -0.91829759 4.2345166e-39
-1.33541 1.2089411 -0.93546885 3.0384873e-39
-1.3514775 1.1973045 -0.94761068 2.2072847e-39
-1.0691448 1.1528652 -0.87573594 3.7727929e-39
-1.0982064 1.1499351 -0.86741215 4.4199448e-39
-1.0809926 1.1326269 -0.87743896 8.1027617e-39
-1.0575129 1.1095625 -0.87137538 9.6776531e-39
-1.071365 1.0998353 -0.87743908 8.5670105e-39
-1.0706931 1.0742759 -0.87815934 6.5401248e-39
-1.0695394 1.0477551 -0.87968993 3.9586289e-39
-1.0969306 1.0270429 -0.88688046 3.7753153e-39
-1.1204218 1.0182662 -0.89408135 3.317207e-39
-1.1178042 1.0093509 -0.89408135 2.9480671e-39
-1.1320013 1.0017478 -0.90989715 1.7524092e-39
-1.3118991 1.3126808 -0.88961977 3.5830207e-39
-1.2817701 1.2861832 -0.89332998 1.0503099e-38
-1.3058614 1.2880592 -0.88482058 9.6751503e-39
-1.2960559 1.2557459 -0.88610047 6.8174502e-39
-1.2924784 1.2316589 -0.87202275 2.7662192e-39
-1.3151392 1.2252245 -0.89180964 3.6849273e-39
-1.3438095 1.2075037 -0.89993834 1.9328572e-39
-1.3614317 1.1943817 -0.90406054 3.3118232e-39
-1.1208066 1.1705728 -0.83962905 3.2210695e-39
-1.0943764 1.1522186 -0.84670281 5.5223309e-39
-1.0880178 1.130564 -0.84670269 9.4838969e-39
-1.0786117 1.0995405 -0.84790027 8.4766058e-39
-1.0719916 1.0749688 -0.84550524 6.7259524e-39
-1.0734795 1.0535417 -0.84746236 3.8693298e-39
-1.1061827 1.034308 -0.85944241 2.9441337e-39
-1.1292375 1.0253618 -0.86696494 2.5764204e-39
-1.1522928 1.0144445 -0.86367983 2.5746281e-39
-1.2845668 1.3091781 -0.85172403 4.4109779e-39
-1.2931813 1.2888199 -0.85048705 8.7452641e-39
-1.3125528 1.2894462 -0.85950929 1.0415225e-38
-1.2870198 1.2646849 -0.84676152 8.0142025e-39
-1.3028058 1.2517531 -0.85419112 6.5404989e-39
-1.2978414 1.2300842 -0.84856004 3.8657411e-39
-1.3222617 1.2219518 -0.86387658 3.49945e-39
-1.3499554 1.2056991 -0.87305045 2.027208e-39
-1.3676628 1.1951443 -0.879866 1.1967327e-39
-1.38773 1.1851263 -0.88212812 1.7466793e-39
-1.3619472 1.1838617 -0.88954383 3.8635508e-39
-1.0863549 1.1524838 -0.80596721 5.1542742e-39
-1.1009117 1.1534359 -0.82182109 5.7099535e-39
-1.0776478 1.1246736 -0.80814749 1.1329284e-38
-1.0974401 1.138147 -0.81772292 7.7321603e-39
-1.0717329 1.1100591 -0.81468832 1.0043571e-38
-1.0848707 1.0938537 -0.81596661 7.2777108e-39
-1.0796131 1.0706342 -0.81744808 5.1564743e-39
-1.0840424 1.0481285 -0.81700885 4.7873232e-39
-1.1122419 1.031165 -0.83131927 3.5895129e-39
-1.1345054 1.016552 -0.83532912 2.6686202e-39
-1.1512905 1.0058407 -0.83704412 2.6689761e-39
-1.3013178 1.3105789 -0.82187247 7.1779118e-39
-1.3298115 1.3111919 -0.81571227 5.6095435e-39
-1.2987822 1.2858448 -0.82440871 9.4853487e-39
-1.3243755 1.2926781 -0.81571227 1.1607259e-38
-1.2902828 1.2537482 -0.82068318 6.8185249e-39
-1.3037771 1.2383963 -0.83448243 5.0675086e-39
-1.2850302 1.2303443 -0.81416368 3.8671886e-39
-1.3004862 1.2192525 -0.82509738 3.8675179e-39
-1.3285538 1.208172 -0.83703166 2.6689901e-39
-1.3548714 1.1980827 -0.84424186 1.9332187e-39
-1.3724924 1.191134 -0.85567153 2.0246871e-39
-1.3542851 1.1879663 -0.83463907 1.0123457e-39
-1.3707954 1.1812637 -0.85083258 1.8392253e-39
-1.092069 1.1461341 -0.77544338 2.4835115e-39
-1.0543958 1.1436718 -0.77755088 2.851938e-39
-1.0850242 1.1295154 -0.78416449 8.749943e-39
-1.1023372 1.1310639 -0.78962123 8.6526999e-39
-1.0785636 1.1089878 -0.7859087 8.9357874e-39
-1.0917248 1.0938573 -0.78836673 7.8330202e-39
-1.0908352 1.0665556 -0.79202324 4.6976513e-39
-1.0939037 1.0434182 -0.7976104 3.8635803e-39
-1.11403 1.0279286 -0.79708803 3.8650096e-39
-1.1410822 1.0122 -0.80369329 3.86719e-39
-1.1554538 1.0046183 -0.81883085 3.131392e-39
-1.1394974 1.0029812 -0.79917389 3.408709e-39
-1.335461 1.3145607 -0.79694211 1.1425001e-38
-1.3066069 1.2834264 -0.79003268 9.5764569e-39
-1.326521 1.2920482 -0.80632722 1.0220016e-38
-1.2901961 1.2508671 -0.78885853 8.1092652e-39
-1.290078 1.2267239 -0.78954893 4.5118349e-39
-1.3044902 1.2130495 -0.80163467 2.8558855e-39
-1.2830404 1.1960038 -0.78156579 3.1274361e-39
-1.3036309 1.1982193 -0.78755707 2.8540806e-39
-1.3231119 1.1942922 -0.80801427 2.486031e-39
-1.35648 1.1873219 -0.82503623 1.3804093e-39
-1.095059 1.1452563 -0.76236176 1.3811296e-39
-1.1223434 1.1505184 -0.75146729 2.5735519e-39
-1.0864853 1.1197429 -0.76672232 1.0141884e-38
-1.1084541 1.1259077 -0.75888491 8.1989329e-39
-1.0830721 1.0958287 -0.75218719 8.4769701e-39
-1.0969814 1.0950019 -0.76854497 6.6319813e-39
-1.0791065 1.0798632 -0.74928015 7.2863148e-39
-1.092995 1.0653129 -0.76143789 4.6958534e-39
-1.0975777 1.0457338 -0.75965959 3.3132819e-39
-1.1244105 1.0294442 -0.7691744 3.4033112e-39
-1.1487406 1.0138248 -0.77476913 4.1415965e-39
-1.1445247 0.99908423 -0.7743172 4.3267038e-39
-1.3175372 1.3056169 -0.77225208 1.3719117e-38
-1.3135186 1.284844 -0.7638697 1.0500186e-38
-1.292369 1.2528546 -0.75944358 7.5549998e-39
-1.285787 1.2228527 -0.75910419 5.1604203e-39
-1.2875642 1.1946756 -0.76177424 2.303439e-39
-1.3057762 1.1975894 -0.77817196 1.5680334e-39
-1.1635793 1.1653113 -0.73880464 2.2998391e-39
-1.106023 1.142037 -0.71439576 8.2020634e-39
-1.1299924 1.1502978 -0.73204911 4.0490169e-39
-1.0991868 1.1240222 -0.7206251 1.0228684e-38
-1.1156527 1.1318586 -0.73693055 9.8598947e-39
-1.0727497 1.0967962 -0.72154915 7.9208914e-39
-1.0906225 1.1011757 -0.72810036 8.1056428e-39
-1.0670475 1.081769 -0.72674537 7.4609993e-39
-1.0836023 1.0738714 -0.72408587 6.2660476e-39
-1.096042 1.0576434 -0.72814882 3.6816959e-39
-1.1023957 1.043258 -0.72992957 2.9441253e-39
-1.1341437 1.0268264 -0.74019361 3.1267145e-39
-1.1545347 1.0147061 -0.75247335 3.313977e-39
-1.1495517 0.9951871 -0.74946046 3.5019542e-39
-1.2860268 1.2920549 -0.71483594 7.3612436e-39
-1.2991806 1.2807858 -0.73051834 1.0496936e-38
-1.2722532 1.2567818 -0.72859764 8.0170639e-39
-1.2916685 1.2531087 -0.72804272 7.738326e-39
-1.2677075 1.2335432 -0.71942317 6.6291114e-39
-1.2870299 1.2233415 -0.73310006 5.8940295e-39
-1.2815939 1.2004406 -0.73099327 3.4083432e-39
-1.2554711 1.1879892 -0.71483594 3.4973019e-39
-1.2682236 1.1821913 -0.73860532 1.4733224e-39
-1.1524171 1.1660302 -0.70693856 2.2069316e-39
-1.0970103 1.1471999 -0.68344337 4.7794031e-39
-1.1120368 1.1496148 -0.69913387 3.8653515e-39
-1.1325833 1.1598176 -0.70180351 2.2072931e-39
-1.0851794 1.129895 -0.68617725 7.9219816e-39
-1.102965 1.1242478 -0.70567471 9.2116541e-39
-1.0803715 1.10869 -0.68657631 6.6337483e-39
-1.0963746 1.0954823 -0.69819951 6.7234132e-39
-1.0911998 1.0786482 -0.69913387 7.1851256e-39
-1.1045402 1.0633806 -0.70070577 7.1854984e-39
-1.1071321 1.0390656 -0.70466346 3.8646579e-39
-1.1423122 1.0191705 -0.71636373 2.7604487e-39
-1.1607095 1.0064369 -0.7178247 3.2207024e-39
-1.1569484 0.99592054 -0.72053635 3.4043789e-39
-1.1757137 0.988913 -0.71865791 3.0373985e-39
-1.3230191 1.2994177 -0.69968939 1.0671965e-38
-1.2881237 1.2914392 -0.70566148 1.0497343e-38
-1.3061167 1.2799869 -0.7016362 9.5764527e-39
-1.2769495 1.2586317 -0.69547081 9.2152512e-39
-1.2647899 1.2351651 -0.69209796 8.109977e-39
-1.286606 1.2213527 -0.71087849 4.6022523e-39
-1.2660278 1.2045484 -0.69189978 3.5001885e-39
-1.2812525 1.2031205 -0.71087849 4.0519036e-39
-1.2036973 1.1800597 -0.6723361 3.2257372e-39
-1.2182292 1.183228 -0.69522768 4.2283901e-39
-1.0972027 1.1525782 -0.66457677 5.9819133e-39
-1.1225706 1.1652092 -0.67515087 3.2181926e-39
-1.0861405 1.1296523 -0.66245592 8.0145444e-39
-1.0896829 1.1075978 -0.66612262 6.1698835e-39
-1.1020986 1.0917994 -0.67079031 5.6181601e-39
-1.0970472 1.0745955 -0.67079031 5.6167209e-39
-1.1097494 1.0576508 -0.67294914 6.6308617e-39
-1.1107415 1.0325338 -0.67322946 5.0635542e-39
-1.140797 1.0079694 -0.68332678 3.0373957e-39
-1.1176935 1.0103699 -0.6627084 3.129241e-39
-1.1653231 0.9953984 -0.68618888 3.4054509e-39
-1.1798767 0.98769069 -0.70044464 2.2126699e-39
-1.3156954 1.2969785 -0.6831516 5.4186572e-39
-1.2881452 1.2850106 -0.6651777 5.2425448e-39
-1.3130187 1.2878623 -0.6831516 1.0775999e-38
-1.2723786 1.26283 -0.66350645 9.3049259e-39
-1.2632934 1.2352469 -0.66543013 7.1840551e-39
-1.2340707 1.2027867 -0.65455306 6.3550062e-39
-1.254248 1.2117217 -0.66583943 6.7227266e-39
-1.1775593 1.191819 -0.63617033 5.9858664e-39
-1.2270449 1.1903236 -0.66811126 2.3110172e-39
-1.1172477 1.1721864 -0.63148093 6.2592205e-39
-1.136592 1.1797793 -0.63590598 5.8965672e-39
-1.096738 1.1565818 -0.63042766 9.6718979e-39
-1.0706896 1.1229771 -0.61409175 7.6475639e-39
-1.0876216 1.1300585 -0.63251889 8.0159807e-39
-1.0875424 1.0972615 -0.63317508 4.8809566e-39
-1.1048223 1.0863279 -0.65334815 4.8813111e-39
-1.0873173 1.0702502 -0.63148099 5.155726e-39
-1.1005415 1.0614228 -0.64113867 5.0631758e-39
-1.0961806 1.0421473 -0.63590598 5.7078264e-39
-1.1146046 1.0260324 -0.64189285 4.7883994e-39
-1.154792 1.0021162 -0.65887427 3.4058097e-39
-1.1217376 1.0091825 -0.64501631 3.3143427e-39
-1.1395336 1.0005381 -0.64079142 3.959331e-39
-1.1715211 0.99357855 -0.65907246 3.4050964e-39
-1.283662 1.2861563 -0.63539726 3.6763051e-39
-1.2762059 1.261863 -0.63669825 9.1226828e-39
-1.2683634 1.2361152 -0.63783658 7.4638859e-39
-1.2436787 1.2144915 -0.62969631 6.5394143e-39
-1.2609373 1.2175628 -0.64580488 4.3285381e-39
-1.1735047 1.1939619 -0.61619979 4.8802251e-39
-1.2029587 1.2014805 -0.62297082 3.4155221e-39
-1.1248587 1.1761374 -0.60549974 9.5818547e-39
-1.1460949 1.1863327 -0.60538214 6.4371335e-39
-1.1021639 1.1572869 -0.60125673 1.0869729e-38
-1.0777816 1.125469 -0.58847463 8.2018083e-39
-1.0930537 1.1277143 -0.60297668 8.1088938e-39
-1.08683 1.0951023 -0.60281557 4.7876777e-39
-1.0852474 1.0686404 -0.60123593 4.4214077e-39
-1.1052982 1.0525513 -0.61148691 4.6943961e-39
-1.1157783 1.0283269 -0.61398566 4.7869617e-39
-1.1265227 1.0030389 -0.61847824 3.7724356e-39
-1.1593727 0.99115604 -0.6274634 3.0377516e-39
-1.2736677 1.295609 -0.60483956 1.1967341e-39
-1.2887801 1.2815871 -0.60937834 6.8156369e-39
-1.2624491 1.2574002 -0.60483962 9.1190997e-39
-1.2829827 1.2631254 -0.61089611 9.2141708e-39
-1.2403532 1.2366028 -0.59156519 7.736517e-39
-1.2572137 1.2395693 -0.60483962 7.921983e-39
-1.2750942 1.2426761 -0.61848497 7.9227075e-39
-1.1973768 1.2144325 -0.58309412 6.5369004e-39
-1.2268015 1.2187356 -0.59912795 6.9993037e-39
-1.2499121 1.2223452 -0.61387843 6.9089171e-39
-1.1558636 1.1974798 -0.57921886 5.5194974e-39
-1.18109 1.2011777 -0.59418106 6.260647e-39
-1.1252557 1.1796019 -0.57655829 9.6744063e-39
-1.0889736 1.1473413 -0.56926185 8.5684342e-39
-1.1091617 1.1607603 -0.57717746 9.3981963e-39
-1.0829214 1.1285341 -0.57139659 7.9244914e-39
-1.076739 1.1074781 -0.57139659 6.4461327e-39
-1.0893818 1.0919383 -0.57545763 4.9709858e-39
-1.0852534 1.0678891 -0.57698333 4.9702697e-39
-1.0904626 1.0458226 -0.57525432 4.7865931e-39
-1.1067454 1.0320376 -0.58139914 4.5096699e-39
-1.1222268 1.0212703 -0.59076369 4.6014886e-39
-1.1324404 1.002249 -0.59370935 3.2228547e-39
-1.2797452 1.2899817 -0.57370591 4.1408706e-39
-1.2932068 1.2812629 -0.59116507 8.4744464e-39
-1.2373155 1.2582169 -0.55168849 1.0042134e-38
-1.2728981 1.2667831 -0.57384938 1.0319445e-38
-1.2866133 1.2588072 -0.59116507 8.8486085e-39
-1.2134205 1.242893 -0.55213296 8.7521178e-39
-1.2470549 1.2442502 -0.57361609 8.1085435e-39
-1.2639633 1.2472715 -0.58676201 8.1993042e-39
-1.155744 1.2227404 -0.53621656 8.1088588e-39
-1.1716808 1.2255383 -0.54869509 7.9223502e-39
-1.1867419 1.2254568 -0.56129503 7.3666428e-39
-1.1439964 1.2039452 -0.54500425 8.5673468e-39
-1.1626424 1.2095048 -0.56613725 6.9089115e-39
-1.1036149 1.1773494 -0.54577953 9.7662642e-39
-1.1228567 1.1808991 -0.54583639 9.6733357e-39
-1.0980176 1.1541611 -0.54090005 8.1074575e-39
-1.0897943 1.1256846 -0.54034561 7.4609839e-39
-1.107011 1.1374365 -0.55825812 7.9233633e-39
-1.0823339 1.101261 -0.54150999 6.9088989e-39
-1.0930504 1.0862542 -0.55395824 4.6083283e-39
-1.0781029 1.0796318 -0.53297096 7.7368267e-39
-1.0891436 1.0671313 -0.54707855 4.6965793e-39
-1.0942513 1.0438867 -0.54792434 4.2337893e-39
-1.1114894 1.02644 -0.55567193 4.2359305e-39
-1.1265315 1.0150889 -0.55502242 3.5905639e-39
-1.1409463 1.0035424 -0.56097901 3.7760201e-39
-1.1578635 0.99515617 -0.56059879 3.4015119e-39
-1.258958 1.2894392 -0.54028028 4.0454464e-39
-1.2198273 1.2747567 -0.52517635 6.7169616e-39
-1.2636057 1.2778512 -0.54669243 7.7221116e-39
-1.169207 1.2466233 -0.51023531 9.4000012e-39
-1.1874975 1.2535968 -0.51817125 9.5851015e-39
-1.2035168 1.256598 -0.53055882 1.0134681e-38
-1.1570686 1.2294658 -0.51787418 8.9383e-39
-1.180719 1.2415717 -0.53125292 9.3982005e-39
-1.141045 1.204477 -0.5151329 9.212003e-39
-1.1135474 1.1774825 -0.50593072 8.4791057e-39
-1.1296419 1.1830018 -0.5209927 9.581496e-39
-1.1057543 1.1550974 -0.51084715 8.6602585e-39
-1.0901934 1.1256707 -0.51110268 6.5390374e-39
-1.0891651 1.0992553 -0.51162338 6.1713339e-39
-1.0822994 1.0749691 -0.51055604 5.9851377e-39
-1.0945553 1.060475 -0.51740944 6.5426191e-39
-1.097253 1.0416471 -0.51688242 3.6813344e-39
-1.1195694 1.0259362 -0.52253181 4.1415811e-39
-1.1333081 1.0137712 -0.52616793 3.9561136e-39
-1.1356651 1.0010085 -0.52747267 2.8526443e-39
-1.208366 1.2988591 -0.48764744 4.1423041e-39
-1.2032114 1.2837617 -0.49055448 6.9038682e-39
-1.2161647 1.2811102 -0.50860441 6.5311312e-39
-1.1741339 1.257152 -0.48450354 1.0316917e-38
-1.1930135 1.2613208 -0.50508964 9.115504e-39
-1.1386653 1.2341471 -0.47177461 1.0229028e-38
-1.152728 1.2364185 -0.49118033 9.4911066e-39
-1.1289738 1.2116742 -0.4779585 8.2922075e-39
-1.1431855 1.2097371 -0.49806011 8.287174e-39
-1.1114312 1.1857463 -0.4781971 7.093293e-39
-1.0981582 1.1576344 -0.47945741 8.1052869e-39
-1.094138 1.1256844 -0.47846383 6.9099849e-39
-1.0885845 1.0979759 -0.48058239 5.2497377e-39
-1.0885774 1.0719821 -0.48173681 4.88166e-39
-1.1013039 1.05619 -0.48516053 6.2606568e-39
-1.099949 1.0412129 -0.48757744 4.1437475e-39
-1.1281546 1.027153 -0.48939165 3.5894975e-39
-1.1401619 1.0137749 -0.49856815 3.8639278e-39
-1.1355151 0.99901009 -0.49982262 6.0618616e-39
-1.2163395 1.2965181 -0.45276308 6.3416827e-39
-1.2344183 1.3038759 -0.47171485 4.8759133e-39
-1.1911167 1.2773044 -0.4582729 1.1149896e-38
-1.2109784 1.2856339 -0.46148419 9.4886039e-39
-1.1700174 1.2637212 -0.45383307 1.1145953e-38
-1.1406788 1.2390088 -0.45215487 1.0686413e-38
-1.1055075 1.2152398 -0.4405638 9.4896787e-39
-1.1197459 1.2158622 -0.45730969 9.9513673e-39
-1.0972279 1.1906037 -0.44477436 8.1996517e-39
-1.1096612 1.1779301 -0.45306873 7.1872738e-39
-1.0909122 1.1626844 -0.4371953 6.9996302e-39
-1.1036104 1.1551709 -0.45052415 7.8301279e-39
-1.1024586 1.1251035 -0.45098829 7.3702358e-39
-1.0984889 1.0964931 -0.4500896 5.158977e-39
-1.0951093 1.0682344 -0.45099631 3.9590003e-39
-1.107201 1.0544586 -0.4593614 5.2472097e-39
-1.1132914 1.041906 -0.45666727 4.4188882e-39
-1.1345428 1.027769 -0.4643912 3.7724496e-39
-1.1524502 1.0163302 -0.46935403 3.8617712e-39
-1.2065593 1.3006059 -0.42363131 9.2782564e-39
-1.224115 1.3082503 -0.43532091 6.5292927e-39
-1.1935276 1.2890472 -0.43101081 9.2083946e-39
-1.1590351 1.2577902 -0.41769409 1.059493e-38
-1.177446 1.2697005 -0.43098232 1.0595652e-38
-1.1389059 1.2362226 -0.41802633 1.0409476e-38
-1.1105007 1.2135732 -0.41848147 9.3067209e-39
-1.1306676 1.217199 -0.41490015 9.3070839e-39
-1.1001991 1.1874807 -0.41432005 8.015608e-39
-1.0925041 1.1593133 -0.41693386 6.8170634e-39
-1.0859691 1.1280466 -0.41614226 5.8025513e-39
-1.0803205 1.0981269 -0.40351042 4.3324421e-39
-1.0949231 1.0960367 -0.42018318 5.1589742e-39
-1.0976635 1.0654066 -0.42256844 4.6944101e-39
-1.1236807 1.0481014 -0.42214698 4.1379993e-39
-1.144555 1.0372872 -0.43532091 4.2298166e-39
-1.1160141 1.0416235 -0.43313873 4.2316187e-39
-1.1584677 1.0252011 -0.43835017 3.2210695e-39
-1.2090374 1.3019512 -0.40056911 8.2748832e-39
-1.2324749 1.3160738 -0.41090184 7.6324075e-39
-1.1754946 1.2873733 -0.38638434 1.0128888e-38
-1.1875731 1.2857684 -0.40919638 1.0503449e-38
-1.1348723 1.2625561 -0.37824675 6.5386941e-39
-1.1583921 1.268098 -0.3930181 1.0135027e-38
-1.1274277 1.240253 -0.38185582 5.8943952e-39
-1.1406862 1.2369757 -0.39793634 9.9488435e-39
-1.1130136 1.2139677 -0.38581285 5.7128808e-39
-1.0818955 1.1875302 -0.36480877 1.1056315e-39
-1.1000265 1.1884598 -0.38493857 4.2359613e-39
-1.0746781 1.1629496 -0.36480877 8.2975506e-40
-1.0915293 1.1595194 -0.38493863 2.5796686e-39
-1.0677143 1.1427443 -0.36896229 5.5318639e-40
-1.0834721 1.127983 -0.38584945 2.0257773e-39
-1.0835503 1.0988473 -0.38148934 9.2051016e-40
-1.0989267 1.0947521 -0.39793634 3.0391922e-39
-1.0802547 1.0801016 -0.38245735 1.2874962e-39
-1.09943 1.061223 -0.39078003 2.3927522e-39
-1.1180121 1.0512843 -0.41206297 2.5782294e-39
-1.1485418 1.0361166 -0.41787872 3.1256383e-39
-1.1036042 1.0401243 -0.38353798 7.3899436e-40
-1.1201864 1.0378441 -0.399638 2.391676e-39
-1.1509997 1.0260514 -0.39607602 1.748466e-39
-1.1675891 1.0228486 -0.4143641 4.8708742e-39
-1.1846918 1.3090689 -0.37499896 3.8714794e-39
-1.173664 1.2928886 -0.3608264 3.9615352e-39
-1.1387221 1.2614257 -0.36140427 2.1183597e-39
-1.1604649 1.2720613 -0.35976774 2.3956641e-39
-1.1195115 1.2436266 -0.3539989 1.9339502e-39
-1.1103274 1.2174916 -0.35477108 1.5662593e-39
-1.0844902 1.1823184 -0.34819481 1.8399749e-39
-1.1036659 1.1948044 -0.35477105 1.2896724e-39
-1.0793871 1.1642368 -0.34736413 1.1067245e-39
-1.0899926 1.1517732 -0.35895303 9.2051016e-40
-1.0743603 1.1407931 -0.33988783 3.1281956e-39
-1.0843738 1.1291001 -0.35477105 1.1967565e-39
-1.0774161 1.1007959 -0.35463354 1.3829387e-39
-1.081112 1.0773441 -0.35691312 1.2885836e-39
-1.1029855 1.0559319 -0.36329857 8.2796981e-40
-1.1075078 1.0389782 -0.36645994 9.1943676e-40
-1.1285902 1.0284845 -0.3718383 1.7455975e-39
-1.1672324 1.0179232 -0.39444131 7.6227105e-39
-1.1581239 1.2978332 -0.32631585 6.0816788e-39
-1.1744767 1.2900078 -0.33222559 5.6246649e-39
-1.1464218 1.259165 -0.32771939 7.5611403e-39
-1.1672503 1.270069 -0.33008105 7.0947727e-39
-1.1300417 1.2410412 -0.32623121 8.016729e-39
-1.100252 1.2043903 -0.31081337 9.0290775e-39
-1.1170825 1.2166283 -0.32654223 8.84684e-39
-1.0937454 1.1865231 -0.31588989 9.1244905e-39
-1.1100918 1.1966515 -0.33107269 9.6737168e-39
-1.0864257 1.1657302 -0.32078177 6.174945e-39
-1.0987233 1.1514499 -0.32340559 5.0678912e-39
-1.091741 1.1300792 -0.32625705 5.5270476e-39
-1.0696312 1.1036152 -0.31496686 7.095472e-39
-1.0819587 1.1003652 -0.33051509 7.6482702e-39
-1.0814883 1.0733427 -0.32806993 4.1444719e-39
-1.1155769 1.0557978 -0.3341248 2.5778777e-39
-1.1435391 1.0445904 -0.3380115 3.1306675e-39
-1.1690084 1.0394509 -0.33938891 3.4065271e-39
-1.1947867 1.0298051 -0.34929359 3.4058237e-39
-1.2183555 1.0203528 -0.34675184 5.0552641e-39
-1.1369623 1.0349557 -0.35310653 1.3804093e-39
-1.1778048 1.0242276 -0.35931417 6.5206804e-39
-1.2237889 1.3242738 -0.30886638 1.4189499e-38
-1.1957849 1.315618 -0.3035405 1.3362603e-38
-1.1622566 1.2917327 -0.30245572 1.0416315e-38
-1.1787118 1.2863929 -0.30322164 9.2174386e-39
-1.1514908 1.262188 -0.31087697 8.4812847e-39
-1.1728078 1.2638936 -0.30039433 9.8584766e-39
-1.1425184 1.2398391 -0.29757082 9.4922052e-39
-1.106341 1.2061623 -0.28838447 9.9524687e-39
-1.1246876 1.2192492 -0.29901037 7.9184167e-39
-1.1001872 1.1866093 -0.29004589 6.9136045e-39
-1.0919224 1.1590998 -0.29080108 5.6203363e-39
-1.1041828 1.1505938 -0.30040431 6.728095e-39
-1.0990678 1.128626 -0.29502741 7.4617237e-39
-1.0751582 1.0990256 -0.28727686 5.7139514e-39
-1.0894662 1.0990571 -0.29873154 6.1763799e-39
-1.0407926 1.076761 -0.26990676 5.2436294e-39
-1.0616425 1.0749091 -0.28083086 3.8675249e-39
-1.0836138 1.0726736 -0.29877356 2.9462903e-39
-1.1160346 1.0539585 -0.3103776 2.7626221e-39
-1.1530899 1.037948 -0.32836688 2.0261248e-39
-1.1704696 1.0296782 -0.32194674 3.5884157e-39
-1.1945621 1.0272129 -0.33418694 3.1303102e-39
-1.0287277 1.0640658 -0.26896676 4.9774584e-39
-1.0582882 1.0546193 -0.2811335 3.3190371e-39
-1.0807368 1.036737 -0.28780806 3.6856364e-39
-1.1160146 1.0314929 -0.30032924 2.1190407e-39
-1.1448208 1.0234023 -0.30779111 2.3016327e-39
-1.1699373 1.020491 -0.31322566 3.0356006e-39
-1.1935798 1.0097445 -0.32303345 7.5420069e-39
-1.2330171 0.98395532 -0.32232878 2.1548436e-38
-1.2479643 0.97113323 -0.3246367 1.7384894e-38
-1.1779302 1.3130698 -0.26456022 1.3455161e-38
-1.1952192 1.3116384 -0.27809882 1.2903072e-38
-1.1689132 1.2841393 -0.26666552 9.6776685e-39
-1.1856571 1.2882915 -0.27749321 9.5861987e-39
-1.1666983 1.2712561 -0.2603496 9.4010648e-39
-1.177883 1.2586856 -0.27379203 9.2145267e-39
-1.146727 1.234509 -0.2697145 1.0784023e-38
-1.115009 1.2115002 -0.2597847 9.1241472e-39
-1.1068331 1.1846582 -0.26097143 5.8039975e-39
-1.0973879 1.1567508 -0.2616953 6.7266782e-39
-1.0642258 1.1357694 -0.24530709 7.1930584e-39
-1.0841595 1.1279522 -0.26365602 6.6352043e-39
-1.0245785 1.1042134 -0.23390727 5.0603242e-39
-1.0421349 1.1066885 -0.24811132 2.6700649e-39
-1.0717124 1.106424 -0.26675466 3.7767782e-39
-1.019622 1.0900687 -0.23714297 5.0686016e-39
-1.0335888 1.081897 -0.25321484 5.2493902e-39
-1.0591415 1.0860102 -0.27166939 2.3941927e-39
-1.0152076 1.0722983 -0.23390727 3.7749776e-39
-1.0282668 1.0558184 -0.2516534 4.0515532e-39
-1.0571219 1.0381892 -0.26640123 2.5803874e-39
-1.1051892 1.0156708 -0.27918959 4.8759063e-39
-1.1455084 1.0093312 -0.2883811 1.9332258e-39
-1.1892229 0.9989025 -0.3027935 7.263618e-39
-1.2256199 0.98306382 -0.31223249 1.8052197e-38
-1.0345412 1.0346704 -0.24530709 3.9582898e-39
-1.0564336 1.0226073 -0.25074595 3.1270872e-39
-1.0819315 1.018088 -0.26784503 4.6968974e-39
-1.116402 1.0039948 -0.26624933 3.0420858e-39
-1.1447183 0.9956941 -0.27543598 1.3800478e-39
-1.1683401 0.99292904 -0.28706238 5.5209198e-40
-1.1925088 0.98296976 -0.29013351 3.6784491e-39
-1.2268327 0.96773797 -0.30216831 4.7808352e-39
-1.2464246 0.95060337 -0.306559 4.5960866e-39
-1.2815956 0.93950003 -0.31574705 6.5213978e-39
-1.2635523 0.93385184 -0.29975286 5.6109364e-39
-1.1793014 1.313023 -0.23596746 1.3454447e-38
-1.2009028 1.3177412 -0.25091657 1.2812674e-38
-1.1796612 1.2922614 -0.23298064 9.6783901e-39
-1.1922938 1.285434 -0.24738242 8.8472044e-39
-1.1685904 1.2616782 -0.24140188 7.8301784e-39
-1.1285149 1.2339165 -0.23189695 9.8599059e-39
-1.1471857 1.2440073 -0.23767355 9.1212605e-39
-1.1151122 1.2105561 -0.2312831 8.3869325e-39
-1.1092542 1.1846132 -0.23267187 5.1597183e-39
-1.0778269 1.1566672 -0.21524085 7.8269259e-39
-1.0956863 1.1630942 -0.231821 7.4631713e-39
-1.0406677 1.138489 -0.20963959 5.4434784e-39
-1.0597247 1.1359599 -0.2291422 5.8990854e-39
-1.0045246 1.115567 -0.20296378 6.6388028e-39
-1.0243458 1.1158613 -0.21841271 5.8043562e-39
-1.0451156 1.1172929 -0.2313842 4.6011565e-39
-0.99388802 1.0982696 -0.20521058 5.4363094e-39
-1.0139254 1.0854844 -0.21690686 4.6086857e-39
-1.0162791 1.0615836 -0.21691997 4.7919923e-39
-1.0257393 1.0478588 -0.22731282 3.8714794e-39
-1.0316581 1.0289214 -0.22423084 3.5923828e-39
-1.0562044 1.0143784 -0.2311496 1.7520687e-39
-1.083028 1.002594 -0.24017362 3.3129204e-39
-1.1183742 0.9909398 -0.24862118 2.2083721e-39
-1.1420451 0.98348284 -0.25342217 7.3791676e-40
-1.1698014 0.98315644 -0.26962021 8.2867466e-40
-1.1943535 0.97062457 -0.26810682 2.851208e-39
-1.2236465 0.95551676 -0.2746574 5.0570605e-39
-1.2527834 0.9455083 -0.27492324 5.6109434e-39
-1.2800208 0.93691045 -0.27803475 5.3361516e-39
-1.3246752 0.92433822 -0.29259756 4.5121418e-39
-1.2295264 0.94171214 -0.28643057 5.3343663e-39
-1.2656337 0.93324065 -0.29064623 5.3347152e-39
-1.3005968 0.92513573 -0.30421796 5.6073561e-39
-1.2238318 1.3301626 -0.20777632 1.382251e-38
-1.1875201 1.3172876 -0.2136628 1.345444e-38
-1.2110702 1.3117267 -0.20285237 1.1059183e-38
-1.1829849 1.2918494 -0.21220055 1.0139364e-38
-1.1978847 1.2883362 -0.22829813 5.5324903e-39
-1.1628634 1.2646224 -0.20753866 8.4755253e-39
-1.132867 1.2375782 -0.20251569 1.0597083e-38
-1.1558956 1.2489177 -0.20839915 9.6736986e-39
-1.1146165 1.2156241 -0.20151515 8.1092764e-39
-1.0921324 1.1864364 -0.19282775 6.268214e-39
-1.104364 1.1876855 -0.20976858 5.2533586e-39
-1.0541674 1.1605252 -0.18132725 8.3018961e-39
-1.0755249 1.1673651 -0.1911352 6.9118108e-39
-1.0995835 1.171404 -0.20976858 6.6294449e-39
-1.0100504 1.144205 -0.17430022 7.923418e-39
-1.0315732 1.1439092 -0.19226585 5.5292127e-39
-1.0622419 1.1515224 -0.2028845 7.7418657e-39
-0.98496592 1.1242204 -0.16683331 6.9124904e-39
-0.99904764 1.1264831 -0.1835608 6.1735031e-39
-0.97841775 1.1029196 -0.16801564 6.6344672e-39
-0.99053538 1.091903 -0.1802028 4.5143489e-39
-1.0111097 1.0810131 -0.2003051 5.1640301e-39
-0.98917663 1.0693003 -0.17554298 4.3285003e-39
-1.0137917 1.057759 -0.1922102 4.1466341e-39
-1.0124129 1.0395919 -0.18634664 3.5941638e-39
-1.0339321 1.0280044 -0.19384946 3.3129218e-39
-1.0614318 1.0143872 -0.20201544 2.5800301e-39
-1.0873421 0.99936396 -0.20664963 1.9321454e-39
-1.1226772 0.99031568 -0.21822231 2.854089e-39
-1.149613 0.97611398 -0.22523049 1.2006802e-39
-1.1732558 0.97279853 -0.24345694 1.2892857e-39
-1.1991247 0.96451056 -0.24165705 3.2214198e-39
-1.2344764 0.95652878 -0.24518043 4.6943765e-39
-1.2582239 0.94875282 -0.25684565 4.8780573e-39
-1.2802724 0.93745744 -0.26400265 5.5209001e-39
-1.3512346 0.92783982 -0.27607036 5.8868114e-39
-1.2179221 1.3278897 -0.19437046 1.3822168e-38
-1.1906279 1.3163784 -0.17787702 1.3455524e-38
-1.2154654 1.3195235 -0.19437046 1.3639553e-38
-1.1875552 1.2891817 -0.17937477 9.309972e-39
-1.1503209 1.2519886 -0.16544104 1.2625029e-38
-1.173504 1.2610812 -0.18145354 9.0283516e-39
-1.1159655 1.2391779 -0.15920819 1.1337539e-38
-1.127447 1.2383846 -0.17675477 9.1216108e-39
-1.1606752 1.2475142 -0.18748887 1.1515097e-38
-1.0994002 1.2184117 -0.16684747 7.9252424e-39
-1.1157476 1.2020282 -0.1808815 5.8047486e-39
-1.0946885 1.1910697 -0.16499801 6.3561091e-39
-1.0506285 1.1656662 -0.15635057 7.3713428e-39
-1.0776924 1.1731579 -0.16624199 8.1178958e-39
-0.99914086 1.1475039 -0.13727516 9.3052986e-39
-1.0220646 1.1542189 -0.15386279 8.2846853e-39
-0.99068105 1.1285043 -0.1451045 6.9121639e-39
-0.9829098 1.0982229 -0.14436907 4.8838545e-39
-0.9921757 1.0815803 -0.15209524 4.4221518e-39
-0.99589121 1.0637327 -0.15227063 4.4210672e-39
-1.0172931 1.0479295 -0.15641262 2.9495259e-39
-1.0403942 1.0358012 -0.15402783 1.3879721e-39
-1.0170299 1.0382363 -0.16614863 3.7724454e-39
-1.0432023 1.0269938 -0.16682509 3.5931044e-39
-1.0695795 1.0198975 -0.1730193 3.8697067e-39
-1.0943011 1.0043982 -0.18265565 2.7615403e-39
-1.1172076 0.98487991 -0.19437046 3.7720993e-39
-1.1477545 0.97805637 -0.20566982 2.3974143e-39
-1.2093078 1.3309237 -0.15929492 1.345588e-38
-1.2295543 1.3244741 -0.14347899 1.4095489e-38
-1.2666427 1.3393317 -0.15407151 1.3639191e-38
-1.199869 1.3160774 -0.15213721 1.3087084e-38
-1.1901265 1.2899977 -0.15097478 9.1259338e-39
-1.1533457 1.2582221 -0.14444712 1.013145e-38
-1.1757377 1.2669879 -0.14985037 8.8471819e-39
-1.110345 1.2407043 -0.13186964 1.0138301e-38
-1.1376351 1.248657 -0.14786774 6.4476111e-39
-1.1065961 1.2200699 -0.1340736 8.0167136e-39
-1.0743853 1.1849221 -0.12874727 8.2046964e-39
-1.0926875 1.197835 -0.135028 7.0929608e-39
-1.0380543 1.165612 -0.12709957 9.9574755e-39
-1.0612925 1.1746825 -0.13312353 8.1067428e-39
-0.99891746 1.1498172 -0.11501965 9.6783915e-39
-1.0232207 1.1610293 -0.12101363 7.002224e-39
-0.97777545 1.1422114 -0.10056043 4.6891104e-39
-0.98872697 1.1263603 -0.11393978 6.727044e-39
-0.98880708 1.0956467 -0.11756969 4.880979e-39
-0.99658954 1.0781587 -0.130272 6.8181172e-39
-0.98354042 1.0732661 -0.11231495 2.668644e-39
-0.99911654 1.0584483 -0.12267349 4.0537182e-39
-1.0255157 1.0443935 -0.13925111 3.6823966e-39
-1.0450472 1.0344349 -0.1336709 3.4072642e-39
-1.0879592 1.0255508 -0.14882706 3.4044224e-39
-1.1404952 1.0163294 -0.16078395 3.1281732e-39
-1.1720012 1.017005 -0.15407151 1.753868e-39
-1.0180894 1.0402048 -0.12393222 3.9600835e-39
-1.0570329 1.0280664 -0.14690837 3.1343067e-39
-1.2710987 1.347237 -0.1454718 1.3731021e-38
-1.2170075 1.3286629 -0.12561001 1.354699e-38
-1.2472504 1.338689 -0.13044201 1.363919e-38
-1.1809598 1.3141921 -0.11559911 1.2812311e-38
-1.1987857 1.3129902 -0.12128701 1.2809076e-38
-1.1948212 1.2892108 -0.12084587 9.5847498e-39
-1.1591836 1.2636008 -0.11111324 8.938321e-39
-1.1000293 1.238059 -0.08830113 1.4556143e-38
-1.1198021 1.2432173 -0.10710625 9.5844163e-39
-1.0932971 1.2192357 -0.093154669 8.1124854e-39
-1.1055735 1.2187694 -0.10788542 6.8199669e-39
-1.0803119 1.1942971 -0.097839624 7.3706239e-39
-1.098044 1.1977162 -0.11331394 7.0958251e-39
-1.0370697 1.1698387 -0.090754755 8.8497029e-39
-1.0650409 1.1785836 -0.09847457 5.7078586e-39
-0.98625886 1.148062 -0.073310159 6.0820459e-39
-1.006523 1.1548147 -0.090297043 9.4932674e-39
-0.98198664 1.1368041 -0.07720305 7.9245026e-39
-0.99457633 1.1216753 -0.088866502 5.8068926e-39
-0.99381554 1.0947442 -0.089222379 5.6192545e-39
-1.1665829 1.0307811 -0.11882813 3.4072586e-39
-0.98789227 1.067203 -0.087617449 5.250465e-39
-1.0016927 1.0535418 -0.095708281 3.7782174e-39
-1.0332249 1.0426909 -0.096117549 4.0511917e-39
-1.0669047 1.033953 -0.1141088 4.5150271e-39
-1.1227812 1.0330689 -0.12103051 2.2108874e-39
-1.1528553 1.0273002 -0.13548015 2.8533758e-39
-1.177322 1.019128 -0.13515218 2.0257759e-39
-1.0208458 1.0393955 -0.11187334 4.7887469e-39
-1.222782 1.3269674 -0.10034638 1.363918e-38
-1.245927 1.3348124 -0.089760244 1.3822873e-38
-1.2032512 1.3111827 -0.091301702 1.1338267e-38
-1.1811682 1.2844642 -0.079602174 1.0778971e-38
-1.1969949 1.2918971 -0.093691468 8.1085547e-39
-1.134142 1.2607338 -0.07696896 9.6798335e-39
-1.1678571 1.272136 -0.086272582 9.4921856e-39
-1.1037272 1.2369732 -0.072122708 1.0687879e-38
-1.1231545 1.2499573 -0.073957197 9.6736986e-39
-1.0960962 1.2202609 -0.067991674 7.4617378e-39
-1.0594531 1.187848 -0.06720674 6.7213113e-39
-1.0842127 1.2009176 -0.067805916 8.1985909e-39
-1.0251471 1.1694248 -0.058453381 7.4678712e-39
-1.0471867 1.1748109 -0.070989318 9.2166833e-39
-0.99214995 1.1539109 -0.048948813 8.573839e-39
-1.0062102 1.1590108 -0.061998833 8.2039817e-39
-0.98242819 1.1306627 -0.049573906 6.8221221e-39
-0.99479926 1.1218034 -0.063956887 4.8860293e-39
-0.99811208 1.0951211 -0.058327381 5.5281463e-39
-1.1714624 1.0293484 -0.097480543 3.6845616e-39
-1.1868106 1.0310836 -0.11107294 1.5651593e-39
-0.99413669 1.0664016 -0.061518662 5.4366597e-39
-1.0109476 1.048279 -0.062994935 3.9622303e-39
-1.0415097 1.0396974 -0.069277778 2.2112504e-39
-1.0767766 1.0398396 -0.081309229 4.3259779e-39
-1.1017021 1.0389247 -0.087714307 2.9473735e-39
-1.1393462 1.0356841 -0.091925114 3.7757062e-39
-1.1684903 1.0180229 -0.0960574 4.6911787e-39
-1.1824328 1.0176275 -0.11279289 3.220708e-39
-1.0337087 1.0356185 -0.055598527 5.3422822e-39
-1.2279142 1.3317598 -0.062328722 1.6221765e-38
-1.2499772 1.3366523 -0.075623743 1.5493903e-38
-1.2124351 1.3108704 -0.061612841 1.3272956e-38
-1.1786324 1.2855496 -0.052265234 8.3840584e-39
-1.2053529 1.2971239 -0.066209346 8.9376161e-39
-1.1425258 1.2659518 -0.049372844 9.3049441e-39
-1.1115957 1.2375518 -0.041114002 1.0235521e-38
-1.1285111 1.2498386 -0.05224311 1.0504189e-38
-1.0779725 1.2137814 -0.023285396 6.5224922e-39
-1.0910972 1.2197404 -0.042199764 6.3593489e-39
-1.0607787 1.1981789 -0.033810742 7.6500793e-39
-1.028808 1.1733167 -0.028173091 7.9209194e-39
-1.0502299 1.1814394 -0.036365885 1.0410881e-38
-0.9956249 1.1554844 -0.027102651 9.3978418e-39
-1.0175685 1.1612699 -0.018921703 7.1801216e-39
-0.98824966 1.1284851 -0.024878168 8.3869198e-39
-0.9791764 1.1055245 -0.021323642 5.2526398e-39
-1.0016214 1.0914363 -0.030771391 5.4366541e-39
-1.175366 1.0282022 -0.080402501 2.7636899e-39
-1.0008906 1.0686512 -0.026908698 5.2540621e-39
-1.017284 1.050902 -0.036260936 3.7792795e-39
-1.050706 1.0358753 -0.047854971 3.6820406e-39
-1.082836 1.0292753 -0.044409718 3.4061978e-39
-1.1008471 1.0284401 -0.057185519 3.777839e-39
-1.1263717 1.0245968 -0.062027272 4.4203203e-39
-1.1706809 1.0158552 -0.084672011 4.226951e-39
-1.1919204 1.015763 -0.072374217 5.8817878e-39
-1.0383028 1.0342697 -0.035500396 3.1339171e-39
-1.2071646 1.3331975 -0.032529242 1.7230159e-38
-1.2306896 1.3295884 -0.037075337 1.6865325e-38
-1.2002953 1.3062898 -0.028375695 1.2998168e-38
-1.2184314 1.3147906 -0.034425706 1.5208685e-38
-1.1644517 1.2864379 -0.019810002 8.8453771e-39
-1.1824352 1.2897918 -0.026861148 8.8457764e-39
-1.1528631 1.2667578 -0.02019731 1.0139741e-38
-1.1168042 1.242138 -0.01549036 8.8417939e-39
-1.1352736 1.2522149 -0.027814791 1.0874035e-38
-1.0784754 1.2214684 -0.00014377979 8.8471805e-39
-1.0999385 1.2271931 -0.015402324 8.2907838e-39
-1.0495924 1.1960264 0.0085451575 1.0409846e-38
-1.062853 1.1989886 -0.0062762224 8.0163479e-39
-1.0351356 1.1758585 -0.00066085422 6.3600663e-39
-1.0055553 1.1516997 0.0055999584 7.8337279e-39
-1.020254 1.1604815 -0.0071734297 7.8376151e-39
-0.99512041 1.1251991 0.0045217429 6.4515403e-39
-0.99095833 1.1021596 0.0074543958 5.7136151e-39
-1.002432 1.0873986 0.0014324283 5.894754e-39
-1.0037478 1.0641885 -0.0013120301 5.0678786e-39
-1.0211226 1.0448086 -0.0041030915 4.6962206e-39
-1.0544184 1.0359071 -0.012803073 5.1578868e-39
-1.0762545 1.0339959 -0.007457858 1.8460496e-39
-1.1037859 1.0286889 -0.02406612 3.8689514e-39
-1.141729 1.0230249 -0.03283615 2.7626221e-39
-1.1742533 1.0210173 -0.041864965 2.9423456e-39
-1.1948689 1.0148973 -0.059474651 6.524995e-39
-1.0136982 1.0391266 -0.015203958 3.5866262e-39
-1.226513 1.3267555 -0.016024685 1.6680218e-38
-1.1810111 1.3255017 0.00068974023 1.658946e-38
-1.2019514 1.3123908 0.0034431366 1.6312874e-38
-1.2240907 1.3185056 -0.016024685 1.686567e-38
-1.1740731 1.2880055 0.01708951 7.557204e-39
-1.1860183 1.2889799 -0.00068136281 9.7723892e-39
-1.1567534 1.2666044 0.01291529 9.9546127e-39
-1.1160954 1.2456551 0.012736106 9.7720137e-39
-1.062086 1.2219148 0.028250603 1.0596754e-38
-1.0802242 1.2321478 0.024474695 9.3956964e-39
-1.0341369 1.2090781 0.047369651 1.2990952e-38
-1.0497562 1.2043562 0.027235337 9.7687907e-39
-1.021083 1.1712031 0.039583873 6.0906653e-39
-1.0378484 1.1833768 0.029063499 8.2972522e-39
-1.0040394 1.1549151 0.035508741 5.9865853e-39
-0.99231637 1.1278009 0.035461936 7.2820156e-39
-0.99349296 1.104417 0.034291558 6.2685587e-39
-1.0106512 1.0874335 0.032985814 5.0649905e-39
-1.0122801 1.0653563 0.029269721 5.2518957e-39
-1.0351151 1.047744 0.020592941 4.9771151e-39
-1.0687653 1.0392394 0.0209035 3.4050978e-39
-1.0955194 1.0343363 0.00068974023 6.079106e-39
-1.1213135 1.0304183 0.0056489971 3.865011e-39
-1.1464959 1.0206461 0.0006861462 6.6125159e-39
-1.2152339 1.3113868 0.032238044 1.6405789e-38
-1.1786088 1.2840381 0.040049259 1.1242482e-38
-1.1958705 1.293456 0.033707991 1.1704919e-38
-1.1371349 1.2618306 0.033037353 9.2144987e-39
-1.1647812 1.2693664 0.043132138 8.9379552e-39
-1.1305143 1.2482647 0.045069695 8.5713139e-39
-1.0689925 1.2198869 0.058465652 1.0684957e-38
-1.0929288 1.2293729 0.054762147 7.7354352e-39
-1.0368062 1.2082943 0.059048347 7.7444637e-39
-1.0555741 1.2005348 0.060868558 1.0411275e-38
-1.0201348 1.1738602 0.067145221 9.2166805e-39
-1.0419298 1.1826472 0.053917777 8.3837263e-39
-1.0080129 1.1513904 0.066138685 6.4490124e-39
-0.98539078 1.1197469 0.077504903 9.0232845e-39
-1.0013193 1.1254222 0.065906852 6.4518892e-39
-0.99955928 1.0979363 0.064711146 5.2504804e-39
-1.0131892 1.0834382 0.055484224 6.3568279e-39
-1.0175737 1.0655497 0.058051329 5.2529845e-39
-1.0408548 1.0520209 0.054762147 4.7016002e-39
-1.0678235 1.041172 0.045031682 4.6058004e-39
-1.096676 1.0298408 0.038281634 4.9691907e-39
-1.1221942 1.0238413 0.023446959 7.9900525e-39
-1.2427636 1.3219841 0.055070233 1.7047558e-38
-1.1912557 1.3049233 0.066288881 1.7141542e-38
-1.2155381 1.3074673 0.053201109 1.6865678e-38
-1.1521024 1.2910192 0.082968935 1.6129918e-38
-1.1734413 1.2932343 0.065894462 1.5483476e-38
-1.1198803 1.2736421 0.086796485 1.0964813e-38
-1.1429754 1.2694861 0.071674027 8.4787722e-39
-1.1629459 1.2724428 0.059720077 1.0413084e-38
-1.0824469 1.2412709 0.087366939 9.1961501e-39
-1.1072043 1.2524419 0.084977835 8.8486169e-39
-1.1270758 1.2493709 0.06767001 5.8155358e-39
-1.0778815 1.2257218 0.087366998 7.6486654e-39
-1.0922567 1.2328658 0.072089009 7.8366173e-39
-1.0414323 1.1944238 0.094084375 1.0047135e-38
-1.0564805 1.2043878 0.086812988 7.0882861e-39
-1.0285698 1.1744428 0.093790285 9.3045798e-39
-1.0143033 1.1503532 0.097348429 8.0188576e-39
-0.99575675 1.1290549 0.10824823 3.1299893e-39
-1.0057632 1.1226686 0.09569072 5.6203209e-39
-1.0055412 1.0950286 0.091237582 6.3582531e-39
-1.0251721 1.0751152 0.090936899 6.1699003e-39
-1.0299436 1.0624564 0.087366998 6.3593405e-39
-1.0484866 1.0530926 0.082508117 4.5125426e-39
-1.0738701 1.0396332 0.07552103 4.1459069e-39
-1.0939361 1.0288043 0.069898546 6.70508e-39
-1.1543707 1.2872169 0.1086838 1.5670389e-38
-1.1231636 1.272678 0.10116079 1.1337211e-38
-1.1464723 1.2690885 0.10737228 8.2933047e-39
-1.0869511 1.2399484 0.10707238 6.3643627e-39
-1.1148576 1.24876 0.11411608 8.5741964e-39
-1.0823079 1.2208028 0.11101343 9.029397e-39
-1.1029185 1.2311523 0.11705812 5.2515608e-39
-1.0438641 1.189539 0.10965598 7.353018e-39
-1.0689198 1.2000383 0.11940362 8.2050453e-39
-1.0399114 1.1731215 0.12178315 8.7549947e-39
-1.058627 1.1785839 0.12597404 6.4464704e-39
-1.00218 1.1422654 0.11849599 6.4526109e-39
-1.0270542 1.1514423 0.12727869 9.3056363e-39
-0.99815738 1.1242329 0.12361992 6.72813e-39
-1.0148841 1.1127781 0.12686361 5.2490342e-39
-1.0169216 1.0917625 0.12281144 5.3433795e-39
-1.0318223 1.0745604 0.11686701 6.4464886e-39
-1.0519134 1.0619146 0.11176772 5.0653366e-39
-1.038952 1.0598112 0.12677783 5.6167195e-39
-1.0560068 1.0492202 0.10874753 5.1553939e-39
-1.0783993 1.0366753 0.098986648 5.2400253e-39
-1.0985895 1.027438 0.090255477 1.5156188e-38
-1.1667775 1.2879713 0.12822668 1.6589813e-38
-1.1329049 1.268649 0.14818132 1.5671102e-38
-1.1531883 1.26685 0.1280079 1.1617029e-38
-1.0971006 1.2411907 0.14648333 5.8954644e-39
-1.1133195 1.2479368 0.13910192 9.0287033e-39
-1.0917059 1.220818 0.14884791 5.6188845e-39
-1.1058608 1.2288713 0.13160698 5.6253613e-39
-1.0545419 1.1864038 0.15637076 9.860999e-39
-1.0755981 1.1956286 0.14628829 6.2682238e-39
-1.0487276 1.1797693 0.14079921 8.478782e-39
-1.0607015 1.1672525 0.14773019 7.5553557e-39
-1.0366653 1.144248 0.14932604 6.0798795e-39
-1.0510441 1.126267 0.15730281 7.5514279e-39
-1.0215026 1.1203297 0.1445884 8.5709468e-39
-1.0493032 1.106338 0.15372132 7.7394036e-39
-1.0225595 1.0873543 0.14469212 4.421077e-39
-1.0446664 1.0820206 0.14769332 5.4384548e-39
-1.0591692 1.0597842 0.14351059 6.0751922e-39
-1.0871235 1.0543875 0.1373435 5.8918477e-39
-1.002273 1.0668615 0.14763126 7.0928964e-39
-1.03414 1.0626621 0.13423309 2.2083973e-39
-1.0532433 1.053022 0.12763916 4.5074825e-39
-1.0897661 1.0477024 0.12568657 4.9681341e-39
-1.1398364 1.2669146 0.16304772 1.5115783e-38
-1.1591171 1.2619944 0.16971126 1.567038e-38
-1.1247441 1.2437314 0.15988395 2.5793897e-39
-1.1501061 1.2383022 0.17352015 9.5041149e-39
-1.0957779 1.2183559 0.16815931 3.682461e-39
-1.1132971 1.2139348 0.17922136 6.2797649e-39
-1.0838469 1.1930528 0.1726843 9.8570067e-39
-1.1096076 1.1980138 0.18318924 7.1012804e-39
-1.0766941 1.1662493 0.17305455 7.4667824e-39
-1.0958179 1.1510496 0.18318924 6.7338921e-39
-1.0646821 1.1378837 0.16828939 7.5542795e-39
-1.0887014 1.1290497 0.18054405 5.8007773e-39
-1.0650808 1.1154753 0.16618878 6.3528524e-39
-1.0818328 1.1036985 0.17279226 6.4457726e-39
-1.1070334 1.0916069 0.17352015 3.8682662e-39
-1.0847768 1.0748918 0.16837151 4.7830254e-39
-1.1727594 1.2600373 0.17864344 1.6588751e-38
-1.1862723 1.2503268 0.17982604 1.5580708e-38
-1.1602358 1.2210569 0.19443728 1.5854067e-38
