# .PCD v0.7 - Point Cloud Data file format
VERSION 0.7
FIELDS x y z rgb
SIZE 4 4 4 4
TYPE F F F F
COUNT 1 1 1 1
WIDTH 1024
HEIGHT 1
VIEWPOINT 0 0 0 1 0 0 0
POINTS 1024
DATA ascii
5.4660192 -3.4301479 -0.91565514 3.6878252e-40
5.4649477 -3.4046168 -0.90215969 2.7658689e-40
5.4454679 -3.4351132 -0.91443396 3.6878252e-40
5.4344726 -3.4136477 -0.90872473 4.6097815e-40
5.4062386 -3.4128792 -0.9164173 3.6878252e-40
5.3792224 -3.384999 -0.9266901 2.7658689e-40
5.3696747 -3.3637571 -0.92394626 2.7658689e-40
5.3597069 -3.3416047 -0.92137039 3.6878252e-40
5.3201232 -3.281657 -0.94455147 4.6097815e-40
5.3101358 -3.2605326 -0.95238745 2.7658689e-40
5.2890153 -3.2401886 -0.95524955 3.6878252e-40
5.2598825 -3.2313659 -0.95630825 2.7658689e-40
5.2332845 -3.2280655 -0.95534891 2.7658689e-40
5.2143722 -3.2088194 -0.97180891 2.7658689e-40
5.2029581 -3.2084899 -0.95563245 3.6878252e-40
5.1846666 -3.1889064 -0.97118598 2.7658689e-40
5.1682091 -3.1627958 -0.96157956 2.7658689e-40
5.5201101 -3.3838816 -0.88209087 2.7658689e-40
5.4927602 -3.4192367 -0.89489758 7.3756504e-40
5.4931793 -3.393539 -0.88246477 3.6878252e-40
5.4679556 -3.4226041 -0.88024521 3.6878252e-40
5.4666777 -3.4012363 -0.88738853 5.5317378e-40
5.4348474 -3.4083221 -0.88246477 3.6878252e-40
5.4014482 -3.4035935 -0.88546234 3.6878252e-40
5.3181453 -3.2738531 -0.90285552 4.6097815e-40
5.303452 -3.2559457 -0.92085606 2.7658689e-40
5.2882614 -3.2372124 -0.9393487 3.6878252e-40
5.2681789 -3.2395875 -0.92571932 3.6878252e-40
5.2404127 -3.2461717 -0.92344785 3.6878252e-40
5.2139268 -3.2292449 -0.93664032 2.7658689e-40
5.1911178 -3.2064788 -0.93046904 2.7658689e-40
5.1694827 -3.2105296 -0.92327952 2.7658689e-40
5.1568532 -3.1634877 -0.95060426 2.7658689e-40
5.5357823 -3.3547819 -0.85286057 2.7658689e-40
5.5166869 -3.3701634 -0.85655487 2.7658689e-40
5.4850283 -3.4130244 -0.85387099 3.6878252e-40
5.4944892 -3.3870428 -0.85151553 2.7658689e-40
5.4631233 -3.4187214 -0.85460371 2.7658689e-40
5.4718671 -3.3910947 -0.84307486 3.6878252e-40
5.4285851 -3.4040248 -0.85292232 3.6878252e-40
5.3994761 -3.3998713 -0.85657167 3.6878252e-40
5.3174038 -3.2709265 -0.88721949 3.6878252e-40
5.2915797 -3.2526743 -0.88932461 2.7658689e-40
5.2600865 -3.2359073 -0.89694649 3.6878252e-40
5.235168 -3.2419584 -0.89562136 2.7658689e-40
5.2020698 -3.2361715 -0.89981323 2.7658689e-40
5.5373907 -3.3501577 -0.83169121 2.7658689e-40
5.5325327 -3.3262155 -0.82662982 2.7658689e-40
5.51056 -3.357127 -0.83254176 1.8439126e-40
5.5078363 -3.3324745 -0.82662982 2.7658689e-40
5.4903769 -3.3824809 -0.82337987 2.7658689e-40
5.4610491 -3.4155993 -0.83628821 2.7658689e-40
5.4624844 -3.3897948 -0.82461077 2.7658689e-40
5.4308882 -3.3978024 -0.82461083 2.7658689e-40
5.3987503 -3.3929465 -0.82857442 2.7658689e-40
5.3653693 -3.3467691 -0.83317858 3.6878252e-40
5.3362074 -3.3085566 -0.84687144 2.7658689e-40
5.3154917 -3.2879543 -0.843678 2.7658689e-40
5.3058767 -3.2686574 -0.86115956 2.7658689e-40
5.2851453 -3.2490714 -0.86304849 2.7658689e-40
5.264143 -3.2533472 -0.85779321 2.7658689e-40
5.2590809 -3.2319393 -0.87574542 2.7658689e-40
5.2306228 -3.2383068 -0.8715052 3.6878252e-40
5.2029295 -3.2447622 -0.86867833 3.6878252e-40
5.534019 -3.3450825 -0.80192173 2.7658689e-40
5.5381694 -3.3208013 -0.8066178 1.8439126e-40
5.5331998 -3.2982097 -0.80292267 4.6097815e-40
5.5104132 -3.3506699 -0.79993713 2.7658689e-40
5.481389 -3.4013653 -0.79070318 4.6097815e-40
5.4918203 -3.3765111 -0.79524416 2.7658689e-40
5.4579325 -3.4083631 -0.7959944 3.6878252e-40
5.4257827 -3.3929667 -0.79383743 2.7658689e-40
5.4006004 -3.385447 -0.7978912 3.6878252e-40
5.3644128 -3.342994 -0.81300795 2.7658689e-40
5.3349919 -3.3037601 -0.82124382 4.6097815e-40
5.3242264 -3.2795639 -0.8126654 2.7658689e-40
5.3147559 -3.2850523 -0.82817167 3.6878252e-40
5.2965512 -3.2642729 -0.82728153 2.7658689e-40
5.2767854 -3.269109 -0.82641286 2.7658689e-40
5.2565603 -3.2524774 -0.84377921 2.7658689e-40
5.2372046 -3.2559874 -0.83677226 3.6878252e-40
5.2180147 -3.2601528 -0.83326876 2.7658689e-40
5.2104778 -3.2379224 -0.84394372 7.3756504e-40
5.5543814 -3.3087206 -0.76659364 2.7658689e-40
5.5422001 -3.2919114 -0.7827521 2.7658689e-40
5.5334926 -3.3388913 -0.77016765 2.7658689e-40
5.5398011 -3.313412 -0.77159667 1.8439126e-40
5.5327215 -3.2963221 -0.79283738 2.7658689e-40
5.5107379 -3.3493025 -0.76887101 2.7658689e-40
5.4806166 -3.3983181 -0.77442282 2.7658689e-40
5.4875746 -3.3714225 -0.76429492 3.6878252e-40
5.4578056 -3.4028015 -0.76791078 3.6878252e-40
5.4681306 -3.3763502 -0.76429492 6.4536941e-40
5.4263978 -3.3866463 -0.76288813 3.6878252e-40
5.3974123 -3.3737733 -0.77215225 4.6097815e-40
5.3815074 -3.3525321 -0.76659364 3.6878252e-40
5.3534374 -3.3168652 -0.78918409 2.7658689e-40
5.3232455 -3.2756939 -0.7919904 2.7658689e-40
5.3029099 -3.2569516 -0.79861557 4.6097815e-40
5.282403 -3.2382522 -0.80524087 3.6878252e-40
5.27075 -3.2651019 -0.79861557 3.6878252e-40
5.2720265 -3.2408819 -0.80524081 2.7658689e-40
5.2487574 -3.2701566 -0.7960096 3.6878252e-40
5.2307696 -3.2523842 -0.81049609 2.7658689e-40
5.2201438 -3.2540305 -0.80524081 3.6878252e-40
5.1942172 -3.235287 -0.810022 2.7658689e-40
5.5619416 -3.3277287 -0.75032133 1.8439126e-40
5.5484929 -3.3062267 -0.74658161 3.6878252e-40
5.5455041 -3.2840433 -0.74745357 2.7658689e-40
5.5422416 -3.2609153 -0.74851149 2.7658689e-40
5.5320807 -3.3333197 -0.74039817 2.7658689e-40
5.5388517 -3.3096666 -0.75158459 2.7658689e-40
5.5303297 -3.2868845 -0.7424109 2.7658689e-40
5.5041714 -3.3832691 -0.72883785 5.5317378e-40
5.5136337 -3.3542826 -0.7360155 3.6878252e-40
5.4881487 -3.4082692 -0.72319216 3.6878252e-40
5.4853473 -3.3899851 -0.7386061 4.6097815e-40
5.4963622 -3.3652728 -0.74459994 9.219563e-40
5.4740248 -3.4128137 -0.72803843 3.6878252e-40
5.4589424 -3.3971634 -0.74104816 2.7658689e-40
5.4278412 -3.3806765 -0.73475248 3.6878252e-40
5.3963561 -3.3712089 -0.73946983 2.7658689e-40
5.361064 -3.3297813 -0.7424109 4.6097815e-40
5.3421531 -3.3021781 -0.76175058 4.6097815e-40
5.3166509 -3.2951365 -0.75461203 6.4536941e-40
5.3016081 -3.2760303 -0.7661466 3.6878252e-40
5.2916298 -3.2556579 -0.77776754 2.7658689e-40
5.2758484 -3.2815289 -0.7609778 3.6878252e-40
5.2710476 -3.2608743 -0.77776754 3.6878252e-40
5.2522774 -3.287091 -0.7589103 2.7658689e-40
5.2347813 -3.269027 -0.77255559 3.6878252e-40
5.2186027 -3.2700126 -0.75691956 3.6878252e-40
5.208272 -3.2507586 -0.77370942 3.6878252e-40
5.1920142 -3.2309887 -0.78564072 3.6878252e-40
5.1756716 -3.2112584 -0.79766208 4.6097815e-40
5.5668263 -3.2956014 -0.71656346 3.6878252e-40
5.5488081 -3.2761753 -0.71215498 2.7658689e-40
5.5412769 -3.2571094 -0.72817504 1.8439126e-40
5.5344634 -3.3372841 -0.70794451 2.7658689e-40
5.5369534 -3.3021758 -0.71156049 2.7658689e-40
5.5298514 -3.2849967 -0.73232561 2.7658689e-40
5.5314794 -3.2606046 -0.7332592 1.8439126e-40
5.5032449 -3.3796129 -0.70930135 2.7658689e-40
5.5152116 -3.3528953 -0.70644093 5.5317378e-40
5.4920135 -3.4034281 -0.70380712 3.6878252e-40
5.4815373 -3.4289687 -0.70792949 3.6878252e-40
5.4726458 -3.4073715 -0.69896078 5.5317378e-40
5.4524994 -3.3919864 -0.70685935 3.6878252e-40
5.4237289 -3.3761144 -0.70661676 3.6878252e-40
5.3962116 -3.3660235 -0.7095601 3.6878252e-40
5.3739576 -3.3434837 -0.71156049 3.6878252e-40
5.3567886 -3.3268471 -0.72224027 3.6878252e-40
5.3345785 -3.3098977 -0.73020875 2.7658689e-40
5.3103476 -3.3125093 -0.7276563 3.6878252e-40
5.2774348 -3.3012831 -0.73557431 2.7658689e-40
5.2597733 -3.3044467 -0.72898442 3.6878252e-40
5.2389026 -3.2857447 -0.73513401 3.6878252e-40
5.2245665 -3.3248689 -0.72605836 2.7658689e-40
5.2235937 -3.2896242 -0.73513401 4.6097815e-40
5.2016826 -3.2680719 -0.72564757 2.7658689e-40
5.5748062 -3.2856071 -0.67653936 3.6878252e-40
5.5552864 -3.2915504 -0.68154246 1.8439126e-40
5.5483298 -3.2742877 -0.7020697 2.7658689e-40
5.5305543 -3.3658817 -0.67511266 2.7658689e-40
5.5368419 -3.341284 -0.67566752 2.7658689e-40
5.5357671 -3.2974942 -0.68654543 2.7658689e-40
5.5093126 -3.3913219 -0.66503686 3.6878252e-40
5.5114985 -3.3716836 -0.67999685 5.5317378e-40
5.5217915 -3.3431368 -0.66582006 1.2907388e-39
5.4891162 -3.3986924 -0.67634487 2.7658689e-40
5.4856272 -3.3775921 -0.67674065 3.6878252e-40
5.4658465 -3.404654 -0.67666793 2.7658689e-40
5.448698 -3.3871129 -0.67755473 4.6097815e-40
5.4338851 -3.3894076 -0.67022854 3.6878252e-40
5.4178638 -3.3719268 -0.67812937 2.7658689e-40
5.3929672 -3.3707395 -0.67741495 3.6878252e-40
5.3599105 -3.3636112 -0.67341691 3.6878252e-40
5.3480749 -3.3450606 -0.68654543 2.7658689e-40
5.3442154 -3.3260162 -0.7020697 4.6097815e-40
5.3280802 -3.3491313 -0.6815424 2.7658689e-40
5.3191643 -3.3316951 -0.69870794 3.6878252e-40
5.299386 -3.3143609 -0.70783877 5.5317378e-40
5.282155 -3.3128664 -0.69863212 3.6878252e-40
5.2522907 -3.3004215 -0.69925636 2.7658689e-40
5.2379217 -3.2818751 -0.71445894 2.7658689e-40
5.2084417 -3.3143926 -0.71360785 2.7658689e-40
5.2171016 -3.2854357 -0.70584434 2.7658689e-40
5.2063341 -3.264817 -0.71522355 3.6878252e-40
5.5743318 -3.2837346 -0.66653335 2.7658689e-40
5.5713081 -3.2604289 -0.6617285 1.8439126e-40
5.5513453 -3.2878516 -0.65795684 1.8439126e-40
5.5561337 -3.2632701 -0.65668583 1.8439126e-40
5.5579782 -3.2386994 -0.65699792 2.7658689e-40
5.5293961 -3.3613112 -0.65069211 3.6878252e-40
5.5381627 -3.3290415 -0.6475327 2.7658689e-40
5.5348177 -3.2937486 -0.66653335 1.8439126e-40
5.512948 -3.3855741 -0.64080548 3.6878252e-40
5.5141516 -3.365953 -0.65459943 3.6878252e-40
5.5208578 -3.3394506 -0.64612508 3.6878252e-40
5.5063715 -3.4073508 -0.63099438 4.6097815e-40
5.4878883 -3.3928902 -0.64565182 3.6878252e-40
5.4816408 -3.3753595 -0.66046035 3.6878252e-40
5.4653325 -3.3986065 -0.64565182 3.6878252e-40
5.4426022 -3.3833075 -0.65069205 3.6878252e-40
5.4334216 -3.3875794 -0.66046035 3.6878252e-40
5.4178977 -3.365936 -0.64809459 3.6878252e-40
5.3934994 -3.3693869 -0.64668512 3.6878252e-40
5.3583732 -3.3642404 -0.65000331 3.6878252e-40
5.336338 -3.3631618 -0.64116663 2.7658689e-40
5.3210616 -3.3463261 -0.65852851 2.7658689e-40
5.2897897 -3.3307695 -0.65668583 2.7658689e-40
5.2808867 -3.3116233 -0.67055541 2.7658689e-40
5.2522168 -3.3098149 -0.67049694 3.6878252e-40
5.2183495 -3.3024895 -0.666453 2.7658689e-40
5.2111816 -3.2835042 -0.68861514 3.6878252e-40
5.1958899 -3.3073647 -0.66235262 2.7658689e-40
5.1953826 -3.2854493 -0.67827767 5.5317378e-40
5.5818372 -3.2718673 -0.61650324 9.219563e-41
5.5644164 -3.2541401 -0.6213873 2.7658689e-40
5.5492253 -3.2814608 -0.62317395 1.8439126e-40
5.5519381 -3.2606509 -0.63819617 1.8439126e-40
5.5572548 -3.2358449 -0.64174569 1.8439126e-40
5.5386043 -3.3729591 -0.61011231 3.6878252e-40
5.5396709 -3.3532593 -0.62334108 2.7658689e-40
5.5411277 -3.3073092 -0.62132031 2.7658689e-40
5.5149536 -3.4013448 -0.61176062 2.7658689e-40
5.5177794 -3.3795233 -0.61657411 3.6878252e-40
5.4981103 -3.4046555 -0.60695219 3.6878252e-40
5.486146 -3.3883126 -0.62045109 2.7658689e-40
5.4720006 -3.4112725 -0.60695219 2.7658689e-40
5.4568915 -3.395437 -0.61899722 4.6097815e-40
5.4416757 -3.3796508 -0.63115567 4.6097815e-40
5.4325089 -3.3996854 -0.60930467 4.6097815e-40
5.4220791 -3.3833201 -0.6246435 2.7658689e-40
5.4108639 -3.4046884 -0.6068815 2.7658689e-40
5.3927617 -3.3891287 -0.61650336 2.7658689e-40
5.3611932 -3.3743103 -0.61798936 3.6878252e-40
5.3296456 -3.3702953 -0.61923146 3.6878252e-40
5.3024273 -3.3664849 -0.61470491 5.5317378e-40
5.2895651 -3.3492596 -0.63317996 2.7658689e-40
5.2758403 -3.3504124 -0.62150621 4.6097815e-40
5.2595534 -3.3334105 -0.63147259 4.6097815e-40
5.2462988 -3.3156629 -0.64682978 3.6878252e-40
5.2237191 -3.3039415 -0.64013469 3.6878252e-40
5.1914825 -3.2807751 -0.64984947 2.7658689e-40
5.1724939 -3.2609358 -0.65267956 2.7658689e-40
5.1607833 -3.2376721 -0.64758372 3.6878252e-40
5.5768418 -3.268749 -0.59448993 2.7658689e-40
5.5639381 -3.2522526 -0.61130202 2.7658689e-40
5.5518436 -3.2981696 -0.58907008 2.7658689e-40
5.5572748 -3.2745049 -0.59849238 1.8439126e-40
5.5463591 -3.3857241 -0.57329309 7.3756504e-40
5.544064 -3.3677137 -0.59072733 2.7658689e-40
5.5459037 -3.345454 -0.5920828 3.6878252e-40
5.5447206 -3.3145845 -0.58856893 4.6097815e-40
5.522851 -3.3926392 -0.57810152 2.7658689e-40
5.5156636 -3.3761988 -0.59718889 5.5317378e-40
5.4949808 -3.4069533 -0.57934099 2.7658689e-40
5.4869566 -3.3834739 -0.59718895 3.6878252e-40
5.4656157 -3.4148209 -0.58147806 4.6097815e-40
5.4327478 -3.4184473 -0.58248043 2.7658689e-40
5.4199734 -3.4004495 -0.59718895 2.7658689e-40
5.4056783 -3.422015 -0.57649869 4.6097815e-40
5.3958206 -3.4056048 -0.59234267 4.6097815e-40
5.3824229 -3.3888302 -0.60185105 2.7658689e-40
5.3712082 -3.4089468 -0.57780379 2.7658689e-40
5.3674941 -3.3906682 -0.5920828 2.7658689e-40
5.3316727 -3.3768041 -0.59294862 2.7658689e-40
5.2971478 -3.3713992 -0.59111863 2.7658689e-40
5.2747335 -3.3669152 -0.58162773 3.6878252e-40
5.2614822 -3.3490691 -0.59649116 4.6097815e-40
5.2450814 -3.332056 -0.60625935 2.7658689e-40
5.2294288 -3.3330097 -0.59113139 4.6097815e-40
5.2168469 -3.3102472 -0.61249697 2.7658689e-40
5.198596 -3.3070478 -0.6035431 3.6878252e-40
5.171505 -3.2570336 -0.63183159 2.7658689e-40
5.5772552 -3.2853062 -0.5568198 2.7658689e-40
5.5771132 -3.263598 -0.56897455 1.8439126e-40
5.5816989 -3.2387121 -0.56591815 2.7658689e-40
5.5539255 -3.336611 -0.55789405 2.7658689e-40
5.5603256 -3.300945 -0.55840856 2.7658689e-40
5.5601816 -3.2693834 -0.57647908 2.7658689e-40
5.5484085 -3.3894482 -0.55239862 3.6878252e-40
5.5525608 -3.3610559 -0.5681113 1.1063476e-39
5.5201421 -3.4044933 -0.54976898 6.4536941e-40
5.4927893 -3.4345839 -0.53944057 4.6097815e-40
5.4948206 -3.4157741 -0.55308914 4.6097815e-40
5.4710426 -3.4404094 -0.54101932 3.6878252e-40
5.4637117 -3.4249256 -0.55945235 3.6878252e-40
5.4523387 -3.4451494 -0.54101932 3.6878252e-40
5.4323616 -3.431241 -0.55127108 3.6878252e-40
5.4039092 -3.4314561 -0.55131555 2.7658689e-40
5.3741755 -3.4328651 -0.55132729 3.6878252e-40
5.3455486 -3.4363978 -0.54582667 4.6097815e-40
5.3418117 -3.413501 -0.56326503 2.7658689e-40
5.3279924 -3.3967876 -0.57254636 2.7658689e-40
5.3174291 -3.4177494 -0.55357248 2.7658689e-40
5.2983661 -3.4013774 -0.55789405 3.6878252e-40
5.2714362 -3.3806906 -0.56351125 2.7658689e-40
5.24189 -3.3920059 -0.55503577 2.7658689e-40
5.2341905 -3.3519995 -0.57647908 2.7658689e-40
5.2247601 -3.3958569 -0.55257392 2.7658689e-40
5.2144332 -3.3570063 -0.57647908 2.7658689e-40
5.5878081 -3.2088614 -0.54514807 2.7658689e-40
5.5683994 -3.2603257 -0.54145801 1.8439126e-40
5.5757637 -3.2361987 -0.54574758 1.8439126e-40
5.552999 -3.3329546 -0.53835762 2.7658689e-40
5.5604329 -3.2962396 -0.53491986 2.7658689e-40
5.54984 -3.3831661 -0.52267992 3.6878252e-40
5.5444183 -3.3099427 -0.52795517 3.6878252e-40
5.5198703 -3.3977468 -0.52322727 4.6097815e-40
5.4979758 -3.4288669 -0.51733744 3.6878252e-40
5.4710894 -3.4563782 -0.51575202 3.6878252e-40
5.475441 -3.4342005 -0.51544291 4.6097815e-40
5.4465394 -3.4419024 -0.51733744 3.6878252e-40
5.4242082 -3.4273326 -0.52127308 2.7658689e-40
5.404006 -3.4507949 -0.50786471 3.6878252e-40
5.4065962 -3.4320335 -0.52246618 2.7658689e-40
5.3770924 -3.4392731 -0.52127308 3.6878252e-40
5.3468351 -3.4424472 -0.5221557 3.6878252e-40
5.3170719 -3.4338713 -0.52328527 2.7658689e-40
5.3023863 -3.4186661 -0.53903365 5.5317378e-40
5.2825584 -3.420795 -0.52449489 2.7658689e-40
5.273562 -3.4047453 -0.54324168 2.7658689e-40
5.2445121 -3.4314024 -0.5293411 4.6097815e-40
5.2498608 -3.408417 -0.53151983 3.6878252e-40
5.2344832 -3.4320133 -0.51964855 2.7658689e-40
5.2235923 -3.3912494 -0.52795517 2.7658689e-40
5.5963736 -3.2462604 -0.50643688 2.7658689e-40
5.5895033 -3.2276947 -0.52053434 2.7658689e-40
5.594398 -3.1901872 -0.52717876 1.8439126e-40
5.59724 -3.1568394 -0.54388988 2.7658689e-40
5.5757971 -3.2532189 -0.51519227 2.7658689e-40
5.5800247 -3.2321057 -0.53061962 2.7658689e-40
5.5504508 -3.3228996 -0.4846324 3.6878252e-40
5.5549431 -3.2884307 -0.51246738 2.7658689e-40
5.557097 -3.2572107 -0.51143992 2.7658689e-40
5.5454779 -3.3804176 -0.48926455 3.6878252e-40
5.5493426 -3.3483577 -0.50026345 4.6097815e-40
5.5434842 -3.3062565 -0.50826025 5.5317378e-40
5.5190191 -3.4165258 -0.48215291 3.6878252e-40
5.5245299 -3.3958247 -0.49072966 4.6097815e-40
5.5039978 -3.4400806 -0.47579905 3.6878252e-40
5.497077 -3.4253211 -0.49839193 5.5317378e-40
5.4683471 -3.4297721 -0.48418278 2.7658689e-40
5.4410801 -3.436425 -0.48289105 2.7658689e-40
5.4233027 -3.4237597 -0.50218344 2.7658689e-40
5.4136438 -3.4430065 -0.48102519 2.7658689e-40
5.4023576 -3.4268498 -0.4910478 3.6878252e-40
5.3828411 -3.4507341 -0.48063052 3.6878252e-40
5.3782029 -3.4337635 -0.49502483 2.7658689e-40
5.3650255 -3.4540701 -0.47471005 4.6097815e-40
5.3436532 -3.4374206 -0.49052626 3.6878252e-40
5.3116779 -3.428534 -0.48962626 2.7658689e-40
5.2793574 -3.4162004 -0.49735573 2.7658689e-40
5.2625008 -3.4220171 -0.50510973 2.7658689e-40
5.2413969 -3.4038169 -0.49765676 2.7658689e-40
5.223258 -3.4087384 -0.49928471 2.7658689e-40
5.2221909 -3.3857203 -0.49841273 2.7658689e-40
5.6429644 -3.3159437 -0.45664698 2.7658689e-40
5.6250601 -3.2350044 -0.48642486 2.7658689e-40
5.6184168 -3.2163496 -0.50036371 1.8439126e-40
5.6331654 -3.317462 -0.4518007 2.7658689e-40
5.607543 -3.2608302 -0.472473 1.8439126e-40
5.602952 -3.2411053 -0.48892635 2.7658689e-40
5.5985031 -3.2213964 -0.50036371 2.7658689e-40
5.6009369 -3.197433 -0.50447536 1.8439126e-40
5.5812802 -3.2682765 -0.47644225 2.7658689e-40
5.5784931 -3.2483006 -0.49392939 1.8439126e-40
5.5519352 -3.3186324 -0.46509597 2.7658689e-40
5.558207 -3.283556 -0.48225713 2.7658689e-40
5.5427537 -3.3687339 -0.45703271 3.6878252e-40
5.5169516 -3.4121084 -0.45734331 3.6878252e-40
5.518261 -3.3895552 -0.45127773 3.6878252e-40
5.4984655 -3.4377377 -0.45699766 3.6878252e-40
5.4960384 -3.4156115 -0.44832164 3.6878252e-40
5.4845443 -3.4412658 -0.45699766 3.6878252e-40
5.4655495 -3.4236414 -0.44984403 3.6878252e-40
5.4387183 -3.4306772 -0.45102814 3.6878252e-40
5.4200144 -3.4354174 -0.45102814 5.5317378e-40
5.397481 -3.4207981 -0.45445934 6.4536941e-40
5.3754797 -3.4462318 -0.44865996 3.6878252e-40
5.3796673 -3.4256926 -0.4563683 4.6097815e-40
5.3639021 -3.4496379 -0.45102814 4.6097815e-40
5.3409414 -3.4351268 -0.45445934 3.6878252e-40
5.3133197 -3.4330943 -0.4560003 3.6878252e-40
5.2845378 -3.4290912 -0.45789045 3.6878252e-40
5.2510309 -3.3968358 -0.47486418 3.6878252e-40
5.2356062 -3.3774168 -0.47379401 2.7658689e-40
5.211391 -3.3738689 -0.48055694 4.6097815e-40
5.1998091 -3.3407831 -0.47641882 3.6878252e-40
5.6418147 -3.3114088 -0.43241552 1.8439126e-40
5.6297388 -3.3139865 -0.42999244 1.8439126e-40
5.6105871 -3.2969582 -0.43090719 2.7658689e-40
5.6054549 -3.269083 -0.45586255 2.7658689e-40
5.5958896 -3.2997105 -0.4260231 2.7658689e-40
5.5836983 -3.2676735 -0.45187655 1.8439126e-40
5.5556936 -3.3332345 -0.43241552 2.7658689e-40
5.5577779 -3.3113146 -0.43579125 2.7658689e-40
5.5587707 -3.278681 -0.45256516 2.7658689e-40
5.5410852 -3.3703632 -0.42616358 4.6097815e-40
5.5463543 -3.3365664 -0.43726185 5.5317378e-40
5.5164137 -3.4034398 -0.41313711 5.5317378e-40
5.5153885 -3.3857567 -0.42855197 6.4536941e-40
5.4907465 -3.4115617 -0.42125663 6.4536941e-40
5.4952927 -3.3912568 -0.43059728 4.6097815e-40
5.4654264 -3.4182482 -0.42260987 4.6097815e-40
5.4373703 -3.4253583 -0.42260987 7.3756504e-40
5.3995128 -3.4330659 -0.41313711 6.4536941e-40
5.4020691 -3.4141698 -0.42701799 6.4536941e-40
5.385088 -3.458045 -0.41469455 1.3829344e-39
5.3851786 -3.4393401 -0.42639896 5.5317378e-40
5.3587232 -3.4449124 -0.4207153 3.6878252e-40
5.3373408 -3.4308112 -0.42821106 3.6878252e-40
5.3160257 -3.4357376 -0.42582488 3.6878252e-40
5.2831697 -3.4236917 -0.42903981 3.6878252e-40
5.226861 -3.3528588 -0.4501459 2.7658689e-40
5.1986222 -3.3361011 -0.45140377 3.6878252e-40
5.1865616 -3.318563 -0.46405664 3.6878252e-40
5.1773863 -3.2966721 -0.4638027 3.6878252e-40
5.6512184 -3.3292994 -0.3970533 1.8439126e-40
5.6343699 -3.3276637 -0.39377791 2.7658689e-40
5.6182609 -3.3122294 -0.40656883 1.8439126e-40
5.6089001 -3.3334799 -0.39057228 3.6878252e-40
5.5948677 -3.3170321 -0.40091479 3.6878252e-40
5.5804973 -3.2997198 -0.40648666 4.6097815e-40
5.5784025 -3.2807353 -0.42455658 2.7658689e-40
5.5618844 -3.3473108 -0.40018916 9.219563e-40
5.5612612 -3.3250663 -0.39849165 5.5317378e-40
5.5597568 -3.3056247 -0.40974265 5.5317378e-40
5.5619845 -3.2795446 -0.4253816 3.6878252e-40
5.5480227 -3.3907123 -0.3894552 5.5317378e-40
5.5468335 -3.3622832 -0.4034622 4.6097815e-40
5.5227413 -3.4166064 -0.3817921 8.2976067e-40
5.5202661 -3.3990042 -0.3957704 8.2976067e-40
5.5224304 -3.3796263 -0.40673524 7.3756504e-40
5.5019703 -3.422338 -0.38414228 5.5317378e-40
5.4905338 -3.4073567 -0.39987525 1.3829344e-39
5.4533572 -3.4351263 -0.38649246 5.5317378e-40
5.4640789 -3.4129295 -0.39419159 6.4536941e-40
5.4440765 -3.4374783 -0.38649246 7.3756504e-40
5.4324613 -3.4216969 -0.39798069 8.2976067e-40
5.4033742 -3.4483552 -0.38931265 1.1985432e-39
5.4116173 -3.4258471 -0.39229706 1.1985432e-39
5.4093523 -3.4082837 -0.40673524 6.4536941e-40
5.3886137 -3.4524705 -0.39119279 8.2976067e-40
5.3799105 -3.4342601 -0.39419159 7.3756504e-40
5.36201 -3.4193311 -0.40196282 7.3756504e-40
5.3614306 -3.4398868 -0.39892796 5.5317378e-40
5.3401799 -3.4236412 -0.39582688 5.5317378e-40
5.3136525 -3.4283657 -0.39751562 6.4536941e-40
5.2818012 -3.418292 -0.40018916 4.6097815e-40
5.2473245 -3.38221 -0.39671844 4.6097815e-40
5.2299328 -3.359103 -0.41893792 6.4536941e-40
5.192615 -3.3331389 -0.4288902 6.4536941e-40
5.1869264 -3.3116405 -0.42976665 3.6878252e-40
5.1772041 -3.3345535 -0.41638264 8.2976067e-40
5.6539664 -3.3284574 -0.36994722 2.7658689e-40
5.626976 -3.3250678 -0.37133855 1.8439126e-40
5.6000271 -3.336447 -0.37073618 4.6097815e-40
5.5625038 -3.3199246 -0.37426034 5.5317378e-40
5.5496922 -3.4060311 -0.36299074 5.5317378e-40
5.5564761 -3.3847964 -0.37050971 6.4536941e-40
5.550312 -3.3513212 -0.37043503 6.4536941e-40
5.5429063 -3.3229611 -0.36456773 5.5317378e-40
5.5250621 -3.4166131 -0.36133587 9.219563e-40
5.5286446 -3.3927929 -0.37524608 4.6097815e-40
5.4984694 -3.4215701 -0.36264288 7.3756504e-40
5.466732 -3.4340312 -0.35844898 6.4536941e-40
5.463068 -3.4089403 -0.37287787 7.3756504e-40
5.4367604 -3.442095 -0.36079919 6.4536941e-40
5.4257717 -3.4188638 -0.37524608 1.0141519e-39
5.4115691 -3.4546785 -0.36115167 6.4536941e-40
5.3852181 -3.4514339 -0.36056849 1.1985432e-39
5.3696594 -3.4330842 -0.37524608 5.5317378e-40
5.3503265 -3.4353423 -0.36198422 5.5317378e-40
5.3379002 -3.4191675 -0.37046489 7.3756504e-40
5.3121881 -3.4255412 -0.36974904 4.6097815e-40
5.2819805 -3.4159124 -0.37088674 4.6097815e-40
5.246398 -3.3785539 -0.37718195 7.3756504e-40
5.2234535 -3.356674 -0.39111474 9.219563e-40
5.194972 -3.3483899 -0.38713387 5.5317378e-40
5.1930356 -3.3278842 -0.4030413 1.2907388e-39
5.1767292 -3.3326807 -0.40637663 6.4536941e-40
5.6546392 -3.3719451 -0.32538795 2.7658689e-40
5.6575513 -3.3516338 -0.33261865 2.7658689e-40
5.651639 -3.3354745 -0.34946629 3.6878252e-40
5.6407175 -3.3754733 -0.32538795 3.6878252e-40
5.6437478 -3.3560753 -0.33735505 2.7658689e-40
5.6303234 -3.3404009 -0.34708011 2.7658689e-40
5.616951 -3.3616085 -0.33103988 5.5317378e-40
5.5987415 -3.340781 -0.34397054 4.6097815e-40
5.568368 -3.333025 -0.33671772 5.5317378e-40
5.5614696 -3.3158431 -0.35245201 8.2976067e-40
5.5462198 -3.4081328 -0.3339572 6.4536941e-40
5.5455513 -3.3809612 -0.33735505 6.4536941e-40
5.5485921 -3.3494372 -0.34120467 5.5317378e-40
5.5209203 -3.443996 -0.3112638 5.5317378e-40
5.5250263 -3.4186268 -0.33330363 1.1063476e-39
5.4959698 -3.4345307 -0.33222222 9.219563e-40
5.4735565 -3.456737 -0.31496787 6.4536941e-40
5.4697828 -3.4416986 -0.33488753 8.2976067e-40
5.4525738 -3.4622393 -0.31589389 6.4536941e-40
5.4395223 -3.4493673 -0.33488753 8.2976067e-40
5.4130821 -3.4555371 -0.33222219 5.5317378e-40
5.3871365 -3.4552734 -0.33305368 6.4536941e-40
5.3457575 -3.4315948 -0.33735505 6.4536941e-40
5.3092585 -3.4203424 -0.33992147 7.3756504e-40
5.2821612 -3.4135392 -0.34162039 6.4536941e-40
5.245008 -3.3730693 -0.34787729 5.5317378e-40
5.2253737 -3.3574536 -0.3605479 6.4536941e-40
5.204813 -3.3602757 -0.3608641 6.4536941e-40
5.6537471 -3.3684261 -0.30658656 2.7658689e-40
5.6564283 -3.3472016 -0.30893677 2.7658689e-40
5.6382251 -3.3786485 -0.29979551 4.6097815e-40
5.6125522 -3.3858092 -0.29623005 5.5317378e-40
5.6053286 -3.3615665 -0.31604135 4.6097815e-40
5.567688 -3.3376791 -0.31400385 4.6097815e-40
5.5423765 -3.3966508 -0.30658656 5.5317378e-40
5.5464292 -3.3746068 -0.30656859 7.3756504e-40
5.5475307 -3.3423073 -0.3146061 6.4536941e-40
5.5232358 -3.440335 -0.29583019 7.3756504e-40
5.5291901 -3.4160295 -0.29918635 1.0141519e-39
5.5017576 -3.4451635 -0.29274344 6.4536941e-40
5.4950852 -3.4310389 -0.31356496 5.5317378e-40
5.4743309 -3.4521141 -0.29274344 6.4536941e-40
5.4468498 -3.458848 -0.29158592 6.4536941e-40
5.4350004 -3.4453373 -0.30890065 1.1985432e-39
5.4242687 -3.4657235 -0.29737353 7.3756504e-40
5.4081488 -3.4477177 -0.29987481 7.3756504e-40
5.3819098 -3.4443254 -0.30220699 9.219563e-40
5.3563123 -3.4419322 -0.29718587 8.2976067e-40
5.3443594 -3.4265249 -0.31012088 5.5317378e-40
5.3148537 -3.4328229 -0.30420041 1.4751301e-39
5.3132882 -3.4150438 -0.31844562 8.2976067e-40
5.2823477 -3.4111867 -0.31246209 5.5317378e-40
5.2535362 -3.3866434 -0.31610492 1.0141519e-39
5.2304506 -3.3696246 -0.31206048 4.6097815e-40
5.224206 -3.3528459 -0.33592919 5.5317378e-40
5.2142234 -3.3730884 -0.30880445 5.5317378e-40
5.2022586 -3.3526354 -0.33156222 6.4536941e-40
5.660161 -3.3705502 -0.27266207 2.7658689e-40
5.6411414 -3.4039373 -0.26311091 4.6097815e-40
5.6472468 -3.3836508 -0.26925394 4.6097815e-40
5.608923 -3.3850317 -0.26962677 5.5317378e-40
5.5865512 -3.3760931 -0.25958309 4.6097815e-40
5.5798144 -3.3590703 -0.27104574 5.5317378e-40
5.5660715 -3.3401175 -0.28500274 5.5317378e-40
5.5482831 -3.3963265 -0.27291086 6.4536941e-40
5.5522075 -3.3679535 -0.2805185 5.5317378e-40
5.5493579 -3.3343668 -0.28409925 5.5317378e-40
5.5274272 -3.4312804 -0.25570276 5.5317378e-40
5.5267892 -3.4143331 -0.27003133 1.2907388e-39
5.5004396 -3.4399643 -0.26496294 6.4536941e-40
5.4730134 -3.4469149 -0.26496294 7.3756504e-40
5.4455867 -3.4538655 -0.26496294 5.5317378e-40
5.4376144 -3.4363134 -0.26692179 1.0141519e-39
5.4149666 -3.4610107 -0.26187623 6.4536941e-40
5.4164195 -3.4429233 -0.27314088 1.2907388e-39
5.3776455 -3.442827 -0.27127755 6.4536941e-40
5.3503342 -3.43783 -0.26898378 5.5317378e-40
5.333549 -3.4241226 -0.2843076 6.4536941e-40
5.3101668 -3.4290581 -0.2793344 1.0141519e-39
5.2762418 -3.4104381 -0.28335184 8.2976067e-40
5.2450953 -3.3834734 -0.28945047 5.5317378e-40
5.2229404 -3.3669879 -0.28926796 6.4536941e-40
5.210886 -3.3700426 -0.28926802 5.5317378e-40
5.1936388 -3.3547084 -0.30638671 5.5317378e-40
5.1802516 -3.3499248 -0.30226034 3.6878252e-40
5.1522264 -3.3189604 -0.30631635 4.6097815e-40
5.1408806 -3.2971957 -0.29865775 4.6097815e-40
5.131402 -3.3016064 -0.30874306 3.6878252e-40
5.1194763 -3.2789433 -0.30111194 3.6878252e-40
5.6634617 -3.392194 -0.23255236 2.7658689e-40
5.6577635 -3.3768048 -0.24826454 2.7658689e-40
5.6509705 -3.3966508 -0.23903449 5.5317378e-40
5.6318836 -3.3810413 -0.23660377 4.6097815e-40
5.6104813 -3.3846371 -0.23914902 5.5317378e-40
5.5847359 -3.3806953 -0.2381777 5.5317378e-40
5.5664463 -3.3586845 -0.25210023 4.6097815e-40
5.546411 -3.3894005 -0.24015445 1.9361082e-39
5.5508595 -3.3626347 -0.25210023 1.1985432e-39
5.5531063 -3.3423848 -0.25879049 1.1063476e-39
5.5174065 -3.4301307 -0.23718244 6.4536941e-40
5.5283842 -3.4077353 -0.2389359 6.4536941e-40
5.5008211 -3.438694 -0.2368004 8.2976067e-40
5.4725533 -3.4436789 -0.23699516 5.5317378e-40
5.4442692 -3.4486659 -0.23718247 7.3756504e-40
5.4195175 -3.4552023 -0.23850532 7.3756504e-40
5.3992262 -3.4395387 -0.23427159 8.2976067e-40
5.3760986 -3.4348576 -0.23995332 6.4536941e-40
5.3489962 -3.4325519 -0.24078171 5.5317378e-40
5.3264103 -3.4195168 -0.25210026 6.4536941e-40
5.3077059 -3.4242568 -0.25210023 8.2976067e-40
5.2890019 -3.428997 -0.25210023 6.4536941e-40
5.2701836 -3.4131351 -0.2540181 9.219563e-40
5.2507668 -3.395509 -0.24631901 8.2976067e-40
5.238019 -3.3789926 -0.25794959 5.5317378e-40
5.2217822 -3.3624172 -0.26484749 6.4536941e-40
5.221611 -3.3812199 -0.24825709 4.6097815e-40
5.2038703 -3.3659835 -0.25996342 4.6097815e-40
5.192471 -3.350101 -0.28176799 4.6097815e-40
5.182282 -3.3507216 -0.27192047 4.6097815e-40
5.1505651 -3.3124061 -0.27129525 3.6878252e-40
5.1404023 -3.2953084 -0.28857246 3.6878252e-40
5.1297278 -3.2950001 -0.2734445 5.5317378e-40
5.1137338 -3.2773609 -0.28585967 3.6878252e-40
5.0974226 -3.2588143 -0.29331502 2.7658689e-40
5.6669226 -3.4005275 -0.20362788 3.6878252e-40
5.6449943 -3.3980298 -0.20077011 4.6097815e-40
5.639987 -3.3743422 -0.21328215 4.6097815e-40
5.6178331 -3.3986197 -0.20675616 6.4536941e-40
5.6057825 -3.3844042 -0.22027864 6.4536941e-40
5.5806751 -3.3809204 -0.21040404 5.5317378e-40
5.5590882 -3.3558323 -0.22841834 7.3756504e-40
5.5613604 -3.4116139 -0.20014174 8.2976067e-40
5.551538 -3.3928988 -0.21500736 6.4536941e-40
5.5497365 -3.3582025 -0.22841834 5.5317378e-40
5.5196581 -3.4236579 -0.20754988 7.3756504e-40
5.5297513 -3.4020801 -0.21228264 9.219563e-40
5.503365 -3.4649205 -0.19353317 6.4536941e-40
5.5037894 -3.4407473 -0.20634244 6.4536941e-40
5.4717479 -3.4497993 -0.20494607 6.4536941e-40
5.442863 -3.446178 -0.21037444 7.3756504e-40
5.4200959 -3.449259 -0.20940194 7.3756504e-40
5.3981199 -3.4351737 -0.21095 5.5317378e-40
5.3767552 -3.433697 -0.2115172 6.4536941e-40
5.3481731 -3.4327888 -0.21078135 6.4536941e-40
5.3250623 -3.4141984 -0.22368194 7.3756504e-40
5.3147297 -3.4337461 -0.20317891 6.4536941e-40
5.3063583 -3.4189384 -0.22368193 8.2976067e-40
5.2881036 -3.4254515 -0.23315473 9.219563e-40
5.2725043 -3.4064631 -0.22347465 6.4536941e-40
5.2415862 -3.3934572 -0.22433759 6.4536941e-40
5.23072 -3.376981 -0.23856455 5.5317378e-40
5.2136297 -3.3798642 -0.23129514 3.6878252e-40
5.1912293 -3.3633506 -0.23065867 4.6097815e-40
5.1632061 -3.3413899 -0.24510759 4.6097815e-40
5.1390257 -3.3083549 -0.23627414 6.4536941e-40
5.1180968 -3.2909169 -0.23814595 8.2976067e-40
5.7094011 -3.4079804 -0.16981271 1.8439126e-40
5.696373 -3.3911154 -0.16878901 2.7658689e-40
5.6699219 -3.390393 -0.17159669 2.7658689e-40
5.6684809 -3.3610823 -0.18296413 1.8439126e-40
5.6488404 -3.4036191 -0.17108701 4.6097815e-40
5.6188388 -3.4073846 -0.17494789 5.5317378e-40
5.5946555 -3.3990259 -0.17930639 5.5317378e-40
5.5755506 -3.3850052 -0.18482988 4.6097815e-40
5.5572882 -3.4083424 -0.17853473 7.3756504e-40
5.5534692 -3.3906941 -0.18529631 1.2907388e-39
5.5251508 -3.4226453 -0.17938711 7.3756504e-40
5.5351605 -3.3957987 -0.18762845 1.5673257e-39
5.5116796 -3.4599056 -0.17893596 6.4536941e-40
5.5016928 -3.4357548 -0.17025658 8.2976067e-40
5.4723792 -3.4429803 -0.17424732 7.3756504e-40
5.4390221 -3.4389293 -0.18162145 1.1063476e-39
5.4108829 -3.4460607 -0.18162142 6.4536941e-40
5.375742 -3.435271 -0.18296413 6.4536941e-40
5.3487144 -3.4375153 -0.18328622 8.2976067e-40
5.3169303 -3.4363546 -0.18390644 9.219563e-40
5.2948303 -3.4331722 -0.17497686 6.4536941e-40
5.2811809 -3.4177718 -0.18579093 6.4536941e-40
5.2709103 -3.4028115 -0.20311235 8.2976067e-40
5.241147 -3.3929718 -0.19789651 8.2976067e-40
5.2176294 -3.3943293 -0.19823459 4.6097815e-40
5.2001739 -3.3769999 -0.19979437 4.6097815e-40
5.1799641 -3.3593955 -0.19646995 4.6097815e-40
5.1577296 -3.332525 -0.21578634 4.6097815e-40
5.1343894 -3.3273759 -0.20454781 5.5317378e-40
5.1284351 -3.3080494 -0.22126512 4.6097815e-40
5.7085352 -3.4045651 -0.15156622 2.7658689e-40
5.6964483 -3.3856955 -0.14167348 2.7658689e-40
5.6745973 -3.3886788 -0.14707361 3.6878252e-40
5.6438837 -3.3884108 -0.1441057 4.6097815e-40
5.6152167 -3.4050031 -0.14360671 7.3756504e-40
5.5827966 -3.4049926 -0.14406344 9.219563e-40
5.570672 -3.3812249 -0.15964255 5.5317378e-40
5.5545511 -3.439955 -0.13331974 7.3756504e-40
5.5567622 -3.4122477 -0.15121593 7.3756504e-40
5.5292072 -3.425525 -0.14707358 6.4536941e-40
5.5185232 -3.4490855 -0.13331974 6.4536941e-40
5.5012593 -3.4357567 -0.14466089 6.4536941e-40
5.4690847 -3.4409285 -0.14510621 1.0141519e-39
5.4394026 -3.4448638 -0.14812218 7.3756504e-40
5.4073768 -3.4435794 -0.15038587 7.3756504e-40
5.3852434 -3.4461026 -0.14921083 7.3756504e-40
5.367836 -3.4317002 -0.15497826 5.5317378e-40
5.3494167 -3.4363682 -0.15497823 6.4536941e-40
5.3186679 -3.4372361 -0.15537731 6.4536941e-40
5.2939386 -3.4296534 -0.15617546 5.5317378e-40
5.2799454 -3.4128962 -0.15974085 5.5317378e-40
5.2652035 -3.3934848 -0.14902507 5.5317378e-40
5.2462335 -3.3994153 -0.16345407 7.3756504e-40
5.2257452 -3.4011495 -0.16367765 5.5317378e-40
5.198565 -3.3706508 -0.1658704 6.4536941e-40
5.1889124 -3.3542092 -0.18181764 4.6097815e-40
5.1788058 -3.3548253 -0.17204934 3.6878252e-40
5.1551385 -3.3326919 -0.18378781 4.6097815e-40
5.136447 -3.3268631 -0.18243521 6.4536941e-40
5.1065426 -3.3046293 -0.176238 2.7658689e-40
5.6977973 -3.400018 -0.11507327 2.7658689e-40
5.6883578 -3.400593 -0.10595 2.7658689e-40
5.6723685 -3.3869004 -0.11708571 2.7658689e-40
5.6401782 -3.3799849 -0.11657579 5.5317378e-40
5.6423593 -3.3546958 -0.11766373 8.2976067e-40
5.6139073 -3.3998368 -0.11600304 7.3756504e-40
5.5807066 -3.4296923 -0.11507327 1.1063476e-39
5.5872397 -3.4082456 -0.1159368 5.5317378e-40
5.5638556 -3.4334438 -0.11246657 7.3756504e-40
5.5513778 -3.4191654 -0.12512843 6.4536941e-40
5.527873 -3.4596658 -0.10338506 8.2976067e-40
5.5355992 -3.4408209 -0.11355265 7.3756504e-40
5.5332284 -3.4237649 -0.12512843 8.2976067e-40
5.511776 -3.4637454 -0.10338506 1.1063476e-39
5.4998288 -3.4509678 -0.11898319 8.2976067e-40
5.4702945 -3.4728146 -0.096138351 7.3756504e-40
5.4709773 -3.4568951 -0.11203212 8.2976067e-40
5.4680486 -3.4396732 -0.12206453 8.2976067e-40
5.4523568 -3.4622197 -0.11507325 6.4536941e-40
5.4320645 -3.447572 -0.11593671 1.0141519e-39
5.4029045 -3.4373686 -0.11669673 1.1985432e-39
5.3701396 -3.4242151 -0.12032904 7.3756504e-40
5.356719 -3.4487207 -0.12606043 5.5317378e-40
5.3478479 -3.4301779 -0.12190407 6.4536941e-40
5.319458 -3.4357238 -0.12241582 9.219563e-40
5.2887993 -3.424964 -0.12609327 1.5673257e-39
5.2742586 -3.4100924 -0.13842715 2.489282e-39
5.246202 -3.4172025 -0.13842715 6.4536941e-40
5.246798 -3.3943467 -0.1299354 8.2976067e-40
5.2219343 -3.3911898 -0.13519832 5.5317378e-40
5.1976452 -3.3670228 -0.14648533 4.6097815e-40
5.1865959 -3.3450682 -0.13297655 6.4536941e-40
5.1774158 -3.3493407 -0.14274469 4.6097815e-40
5.1572332 -3.3335328 -0.15375064 5.5317378e-40
5.1369343 -3.3168483 -0.15493204 5.5317378e-40
5.1154718 -3.2983804 -0.15622593 7.3756504e-40
5.1011286 -3.3040082 -0.16623195 4.6097815e-40
5.0893779 -3.2821248 -0.15746358 2.7658689e-40
5.6907258 -3.3783579 -0.097553276 2.7658689e-40
5.6874924 -3.3971779 -0.087703452 2.7658689e-40
5.668704 -3.3795381 -0.089778505 2.7658689e-40
5.6600385 -3.4023185 -0.078580208 3.6878252e-40
5.643837 -3.388639 -0.089510582 4.6097815e-40
5.6059966 -3.4160144 -0.078580208 7.3756504e-40
5.6144328 -3.396028 -0.089197218 7.3756504e-40
5.5827513 -3.422632 -0.082229547 4.6097815e-40
5.5851116 -3.4036591 -0.090199903 5.5317378e-40
5.5625134 -3.4450619 -0.074139431 6.4536941e-40
5.5645409 -3.4289436 -0.090744466 5.5317378e-40
5.5289831 -3.4540317 -0.076511867 7.3756504e-40
5.5368848 -3.4350872 -0.086400069 8.2976067e-40
5.5062714 -3.4598627 -0.076889262 7.3756504e-40
5.4895544 -3.4482498 -0.092265062 1.8439126e-39
5.4746294 -3.4673858 -0.074398197 6.4536941e-40
5.4758277 -3.4508202 -0.087703392 8.2976067e-40
5.4604921 -3.4716902 -0.078021578 1.4751301e-39
5.4460182 -3.4580114 -0.085878797 8.2976067e-40
5.4271269 -3.4433308 -0.088361554 6.4536941e-40
5.4015884 -3.4321761 -0.088954233 7.3756504e-40
5.3693438 -3.4183116 -0.089677818 8.2976067e-40
5.3463192 -3.4241467 -0.089677796 6.4536941e-40
5.3153009 -3.4318388 -0.088829786 1.2907388e-39
5.2881694 -3.4198809 -0.099771291 8.2976067e-40
5.2693439 -3.4037907 -0.1005361 6.4536941e-40
5.2439556 -3.4083381 -0.091063321 5.5317378e-40
5.243113 -3.387924 -0.10618693 8.2976067e-40
5.2171168 -3.3877745 -0.10438666 5.5317378e-40
5.196496 -3.3624873 -0.12225393 4.6097815e-40
5.1862373 -3.3621917 -0.1077151 5.5317378e-40
5.1764889 -3.3456838 -0.12320834 7.3756504e-40
5.1558318 -3.3280039 -0.12420818 7.3756504e-40
5.1355224 -3.3112769 -0.12516259 1.0141519e-39
5.114048 -3.2927623 -0.12620783 5.5317378e-40
5.0933995 -3.2770882 -0.13729301 4.6097815e-40
5.0720878 -3.2605739 -0.14858939 4.6097815e-40
5.667964 -3.3957672 -0.055772081 2.7658689e-40
5.6667314 -3.3789463 -0.069978148 2.7658689e-40
5.6587405 -3.3971958 -0.051210474 3.6878252e-40
5.6404386 -3.3831685 -0.057722595 5.5317378e-40
5.6137595 -3.4088228 -0.052350778 7.3756504e-40
5.6163306 -3.3896596 -0.059637524 6.4536941e-40
5.5844049 -3.4348745 -0.050846409 5.5317378e-40
5.591188 -3.4143159 -0.051210415 6.4536941e-40
5.5850601 -3.3996441 -0.069978148 1.1985432e-39
5.5620246 -3.4431701 -0.049411774 5.5317378e-40
5.5307469 -3.448473 -0.050846435 9.219563e-40
5.5039182 -3.4552722 -0.050846435 7.3756504e-40
5.4770889 -3.4620714 -0.050846435 8.2976067e-40
5.4470758 -3.4508381 -0.051210415 7.3756504e-40
5.425601 -3.4373097 -0.056190588 7.3756504e-40
5.4021044 -3.4309316 -0.061088242 7.3756504e-40
5.3731093 -3.431129 -0.058593463 6.4536941e-40
5.3638539 -3.4159868 -0.071020551 6.4536941e-40
5.3417478 -3.4408333 -0.067412674 9.219563e-40
5.3449917 -3.4189088 -0.061691947 6.4536941e-40
5.3114614 -3.4272375 -0.060843881 1.3829344e-39
5.2763481 -3.4159217 -0.064854421 9.219563e-40
5.2622104 -3.401825 -0.081590571 7.3756504e-40
5.2547874 -3.421319 -0.064518698 7.3756504e-40
5.239316 -3.4057403 -0.07211782 6.4536941e-40
5.2431884 -3.3857563 -0.082211293 1.1063476e-39
5.2096205 -3.387136 -0.072803661 1.1985432e-39
5.185318 -3.3585634 -0.088329978 7.3756504e-40
5.1624651 -3.3409693 -0.081693381 6.4536941e-40
5.1548977 -3.3243175 -0.10451317 4.6097815e-40
5.1452413 -3.3438752 -0.074367225 8.2976067e-40
5.1368437 -3.3154817 -0.092567481 6.4536941e-40
5.1128616 -3.2880802 -0.10119274 6.4536941e-40
5.0922036 -3.2723689 -0.11207976 9.219563e-40
5.0797148 -3.2485144 -0.097748481 4.6097815e-40
5.6578751 -3.3937809 -0.032963984 5.5317378e-40
5.6393414 -3.3737178 -0.025581418 5.5317378e-40
5.6034002 -3.4057693 -0.023840768 8.2976067e-40
5.6146412 -3.3829935 -0.024019651 1.0141519e-39
5.5845609 -3.4279788 -0.016424527 5.5317378e-40
5.5898895 -3.4091935 -0.023840709 6.4536941e-40
5.561861 -3.4353509 -0.018224925 5.5317378e-40
5.529243 -3.442539 -0.01914205 6.4536941e-40
5.5024142 -3.4493382 -0.01914205 7.3756504e-40
5.4789243 -3.4567947 -0.026690712 1.1063476e-39
5.4620018 -3.4403923 -0.017758567 8.2976067e-40
5.4481378 -3.4455717 -0.026121529 2.7658689e-39
5.4276175 -3.4300249 -0.022181243 1.2907388e-39
5.3980374 -3.4198048 -0.033458695 7.3756504e-40
5.3706112 -3.4267557 -0.033458695 6.4536941e-40
5.3390598 -3.4148381 -0.033706047 7.3756504e-40
5.31143 -3.42184 -0.033706136 1.0141519e-39
5.2752376 -3.4104254 -0.035846572 1.1063476e-39
5.2430449 -3.3991346 -0.043699577 8.2976067e-40
5.2046471 -3.3776863 -0.045409419 5.5317378e-40
5.1790185 -3.3715515 -0.034747548 5.5317378e-40
5.1736803 -3.3528252 -0.044713508 6.4536941e-40
5.158896 -3.3370099 -0.057272833 7.3756504e-40
5.1428404 -3.3175662 -0.055275757 5.5317378e-40
5.0910077 -3.2676501 -0.086866483 4.6097815e-40
5.630373 -3.3548639 -0.0030324662 8.2976067e-40
5.6021018 -3.4006467 0.0035290234 5.5317378e-40
5.612587 -3.3758013 0.0035660646 7.3756504e-40
5.5813971 -3.4230068 0.012562336 6.4536941e-40
5.5894055 -3.403501 0.0053536491 6.4536941e-40
5.5602984 -3.4285178 0.011738819 7.3756504e-40
5.5297856 -3.4371691 0.0071272608 6.4536941e-40
5.510283 -3.4428334 0.0035039359 7.3756504e-40
5.4952307 -3.4265199 0.0096112266 1.2907388e-39
5.4669971 -3.4348865 0.0035290536 1.2907388e-39
5.4487667 -3.4385979 0.0080906311 1.2907388e-39
5.4342194 -3.4236832 0.0012575946 1.2907388e-39
5.4001131 -3.4126387 -0.00012204866 8.2976067e-40
5.3722677 -3.4204953 -0.004134791 9.219563e-40
5.3607564 -3.4037652 -0.0057201162 9.219563e-40
5.3396425 -3.4088509 -0.0043875002 8.2976067e-40
5.3126154 -3.4112964 -0.0057219923 1.0141519e-39
5.2845955 -3.4025302 -0.0081145177 8.2976067e-40
5.261291 -3.3883789 -0.012913106 9.219563e-40
5.2404509 -3.3945091 -0.017175833 6.4536941e-40
5.2397928 -3.3723581 -0.010625136 1.0141519e-39
5.2093248 -3.378408 -0.015421064 5.5317378e-40
5.1828532 -3.3667486 -0.015513763 1.1985432e-39
5.162962 -3.3507154 -0.020482143 6.4536941e-40
5.6239567 -3.3514838 0.022102302 6.4536941e-40
5.6168599 -3.3314288 0.031594392 1.0141519e-39
5.6012363 -3.3972318 0.021775512 8.2976067e-40
5.6018691 -3.3654699 0.030097561 1.1985432e-39
5.6076503 -3.3337629 0.031594392 7.3756504e-40
5.5767851 -3.4016113 0.030898727 7.3756504e-40
5.5782719 -3.3728509 0.033089101 2.3970864e-39
5.554173 -3.4060442 0.037415411 6.4536941e-40
5.5268803 -3.4332147 0.030679107 9.219563e-40
5.5293307 -3.4126468 0.035875123 7.3756504e-40
5.4970069 -3.4209208 0.035460424 1.1063476e-39
5.4659152 -3.4306178 0.026337268 7.3756504e-40
5.4573212 -3.4100475 0.040322341 1.1063476e-39
5.4479012 -3.4351828 0.02633715 6.4536941e-40
5.4286366 -3.408679 0.033578731 8.2976067e-40
5.4043245 -3.4062228 0.026732353 9.219563e-40
5.391221 -3.3886123 0.031594392 1.751717e-39
5.3771181 -3.4140401 0.022102302 6.4536941e-40
5.364778 -3.3964288 0.025997175 7.3756504e-40
5.3410096 -3.4031954 0.022265814 7.3756504e-40
5.3098936 -3.4007914 0.021176634 7.3756504e-40
5.2686281 -3.3813307 0.013136975 9.219563e-40
5.2390132 -3.3888359 0.013136975 8.2976067e-40
5.2423396 -3.3665795 0.015145816 7.3756504e-40
5.2103915 -3.3750563 0.013236887 1.0141519e-39
5.1817131 -3.3622489 0.0085284263 5.5317378e-40
5.1511784 -3.3268056 0.0037785722 1.0141519e-39
5.1415348 -3.3292494 0.0037785126 6.4536941e-40
5.6164174 -3.3296828 0.040922966 6.4536941e-40
5.5949926 -3.3523686 0.054512955 5.5317378e-40
5.6006103 -3.3274875 0.04568439 1.1985432e-39
5.5827928 -3.2922783 0.060500808 1.1985432e-39
5.5726581 -3.3627424 0.058181949 8.2976067e-40
5.5455294 -3.3762805 0.060035817 7.3756504e-40
5.5184426 -3.4109454 0.058268551 8.2976067e-40
5.5185461 -3.3817463 0.064423092 8.2976067e-40
5.4957809 -3.4160831 0.06130968 9.219563e-40
5.5013866 -3.3933878 0.067897521 7.3756504e-40
5.4594698 -3.3969829 0.060225796 1.1063476e-39
5.4302139 -3.3932059 0.059143007 1.5673257e-39
5.4073586 -3.3989983 0.059143007 9.219563e-40
5.3919449 -3.3850226 0.048696857 7.3756504e-40
5.3663101 -3.3888645 0.050302807 7.3756504e-40
5.3325577 -3.3833563 0.050569605 1.1985432e-39
5.309763 -3.3849175 0.04828966 6.4536941e-40
5.2871685 -3.3693995 0.049449231 9.219563e-40
5.2706223 -3.3761082 0.036818862 7.3756504e-40
5.2604079 -3.3547761 0.051416229 6.4536941e-40
5.2381144 -3.3852901 0.032082472 8.2976067e-40
5.2372093 -3.3596826 0.043113001 8.2976067e-40
5.2045965 -3.3614523 0.042019814 8.2976067e-40
5.1700025 -3.3383131 0.032826945 6.4536941e-40
5.1500201 -3.3222349 0.028199028 4.6097815e-40
5.5406942 -3.3607805 0.081367418 7.3756504e-40
5.5092196 -3.3690336 0.079978414 1.1985432e-39
5.5080719 -3.3469217 0.092230543 7.3756504e-40
5.4884753 -3.3820388 0.084031701 5.5317378e-40
5.4710112 -3.3553846 0.09689483 8.2976067e-40
5.4578462 -3.3849382 0.082197756 1.9361082e-39
5.4479871 -3.3612196 0.09689483 1.8439126e-39
5.4339066 -3.3885815 0.077663325 6.4536941e-40
5.4193583 -3.3698022 0.090231545 7.3756504e-40
5.3926349 -3.3766139 0.078312702 6.4536941e-40
5.3590178 -3.371043 0.078723647 8.2976067e-40
5.3389225 -3.3733146 0.069441214 9.219563e-40
5.3188114 -3.3551695 0.080630355 6.4536941e-40
5.2923174 -3.3635347 0.072341748 8.2976067e-40
5.2920313 -3.3410585 0.080050692 5.5317378e-40
5.2614574 -3.3504362 0.071869418 7.3756504e-40
5.2316303 -3.3488803 0.070742413 6.4536941e-40
5.207459 -3.3442311 0.066229783 4.6097815e-40
5.1877613 -3.3280203 0.061904609 1.1063476e-39
5.4995546 -3.3251162 0.10704397 7.3756504e-40
5.4865761 -3.3053417 0.1173373 7.3756504e-40
5.4790297 -3.3373768 0.10677044 1.5673257e-39
5.4678721 -3.310082 0.1173373 8.2976067e-40
5.445734 -3.3431139 0.11153917 1.2907388e-39
5.4147701 -3.3500896 0.11064015 6.4536941e-40
5.3886299 -3.3551002 0.097643301 8.2976067e-40
5.3820128 -3.3325958 0.11354823 6.4536941e-40
5.3468657 -3.3656845 0.097643301 7.3756504e-40
5.3563213 -3.3411822 0.10312819 1.0141519e-39
5.3226967 -3.3487604 0.10786452 6.4536941e-40
5.2898912 -3.3375609 0.1003334 9.219563e-40
5.2582984 -3.3361773 0.094730251 6.4536941e-40
5.2300549 -3.3337159 0.090271942 8.2976067e-40
5.5078573 -3.2537353 0.13835637 6.4536941e-40
5.4870148 -3.264792 0.13046263 8.2976067e-40
5.4816432 -3.2419591 0.12005988 6.4536941e-40
5.4576216 -3.3089061 0.13628286 1.1063476e-39
5.4618778 -3.2822533 0.13280633 6.4536941e-40
5.4391069 -3.3350523 0.13407096 9.219563e-40
5.4482694 -3.3112762 0.13628286 7.3756504e-40
5.4149122 -3.341886 0.13054572 7.3756504e-40
5.4088111 -3.3205214 0.14007191 1.1063476e-39
5.3874812 -3.3266816 0.13628286 9.219563e-40
5.3649268 -3.3121283 0.13254711 1.0141519e-39
5.3463068 -3.3177979 0.12777479 8.2976067e-40
5.3181372 -3.3188739 0.12807095 7.3756504e-40
5.5107207 -3.267122 0.15793124 9.219563e-40
5.4819679 -3.2659106 0.15705726 6.4536941e-40
5.4676385 -3.3225942 0.16031456 8.2976067e-40
5.4673166 -3.300034 0.1684902 8.2976067e-40
5.4619532 -3.2769754 0.15041563 7.3756504e-40
5.439642 -3.3299177 0.16670585 9.219563e-40
5.4464722 -3.3041844 0.17417391 6.4536941e-40
5.413496 -3.3373282 0.17632964 7.3756504e-40
5.4026117 -3.3176584 0.16233297 7.3756504e-40
5.3894801 -3.338969 0.17754917 8.2976067e-40
5.3845744 -3.321758 0.16470113 6.4536941e-40
5.3637948 -3.3076622 0.1564092 1.2907388e-39
5.3419662 -3.3061147 0.15678687 1.1063476e-39
5.3170576 -3.2982583 0.15759011 5.5317378e-40
5.5092602 -3.2463007 0.18896827 8.2976067e-40
5.4857998 -3.2891865 0.19943453 1.3829344e-39
5.4892569 -3.2646821 0.18618834 7.3756504e-40
5.4715595 -3.3120825 0.20810145 6.4536941e-40
5.464334 -3.2961202 0.19193536 9.219563e-40
5.4456024 -3.3579507 0.21656586 7.3756504e-40
5.444293 -3.3328342 0.20014578 6.4536941e-40
5.446023 -3.3024116 0.18364663 1.1063476e-39
5.4136047 -3.3660598 0.21656586 5.5317378e-40
5.4154906 -3.3490167 0.19950968 1.1985432e-39
5.4044628 -3.3683767 0.21656586 5.5317378e-40
5.3858953 -3.3517804 0.19984411 7.3756504e-40
5.3712063 -3.3213723 0.18364663 4.6097815e-40
5.3585057 -3.3460302 0.20260841 6.4536941e-40
5.3523526 -3.3255215 0.18680422 6.4536941e-40
5.3393292 -3.304266 0.17821629 1.4751301e-39
5.527945 -3.2722163 0.23101041 5.5317378e-40
5.5101027 -3.253962 0.21875887 6.4536941e-40
5.4888949 -3.3025398 0.23395334 4.6097815e-40
5.4894276 -3.2838645 0.22153762 7.3756504e-40
5.4927769 -3.2626171 0.21845056 6.4536941e-40
5.4703341 -3.3467643 0.24125968 5.5317378e-40
5.4699965 -3.3189485 0.22836713 8.2976067e-40
5.4722819 -3.2882097 0.22153762 4.6097815e-40
5.4557462 -3.3904915 0.2407335 7.3756504e-40
5.4510183 -3.3676696 0.23797597 7.3756504e-40
5.4514446 -3.3361886 0.21816695 8.2976067e-40
5.421648 -3.3664005 0.23325707 6.4536941e-40
5.4192104 -3.3443577 0.21816695 1.1985432e-39
5.3932614 -3.3753171 0.23892753 5.5317378e-40
5.3823714 -3.3536937 0.21816695 1.4751301e-39
5.3574343 -3.3747618 0.24434641 5.5317378e-40
5.3578086 -3.3582928 0.22632957 5.5317378e-40
5.3400426 -3.3607051 0.23682421 4.6097815e-40
5.5240788 -3.2700515 0.24679837 5.5317378e-40
5.5122814 -3.2505448 0.25424361 4.6097815e-40
5.5063362 -3.3897061 0.27525571 3.6878252e-40
5.4993458 -3.3434486 0.27110386 3.6878252e-40
5.4968467 -3.3146667 0.25672927 5.5317378e-40
5.4967642 -3.2768164 0.24758774 4.6097815e-40
5.4973936 -3.3919725 0.27525571 4.6097815e-40
5.4857559 -3.3765256 0.27266484 4.6097815e-40
5.4752154 -3.3441327 0.26257938 6.4536941e-40
5.4775252 -3.3230758 0.25081721 5.5317378e-40
5.45086 -3.3630667 0.26899457 9.219563e-40
5.4176955 -3.3625183 0.26672524 6.4536941e-40
5.3976922 -3.4009638 0.26202106 6.4536941e-40
5.3963165 -3.3731575 0.26974148 5.5317378e-40
5.3604541 -3.3734784 0.26126632 7.3756504e-40
5.3382716 -3.3759294 0.26286674 4.6097815e-40
5.3384938 -3.3545942 0.26947448 4.6097815e-40
5.5105529 -3.2470224 0.27412876 2.7658689e-40
