# .PCD v0.7 - Point Cloud Data file format
VERSION 0.7
FIELDS x y z rgb
SIZE 4 4 4 4
TYPE F F F F
COUNT 1 1 1 1
WIDTH 1025
HEIGHT 1
VIEWPOINT 0 0 0 1 0 0 0
POINTS 1025
DATA ascii
6.6705141 -3.0372305 -1.1800644 3.6878252e-40
6.6546736 -3.0142806 -1.1963569 4.6097815e-40
6.6320639 -3.0183063 -1.1963569 4.6097815e-40
6.6155281 -2.9943843 -1.2070625 3.6878252e-40
6.6040654 -2.9663482 -1.2066708 3.6878252e-40
6.5795674 -2.9410517 -1.2136875 2.7658689e-40
6.5457115 -2.9168317 -1.2176993 2.7658689e-40
6.7360597 -2.5034063 -1.260523 4.6097815e-40
6.7217879 -2.5451953 -1.2602048 4.6097815e-40
6.7227564 -2.5044956 -1.2539994 4.6097815e-40
6.7021518 -2.5474257 -1.2537497 6.4536941e-40
6.6832886 -2.5102432 -1.2474759 4.6097815e-40
6.6813397 -3.0331118 -1.168891 8.2976067e-40
6.6706767 -3.0059035 -1.168171 4.6097815e-40
6.6537194 -3.0089226 -1.1681709 4.6097815e-40
6.6254573 -3.0139546 -1.1681709 3.6878252e-40
6.6029673 -2.9899282 -1.1729368 3.6878252e-40
6.5878763 -2.9643531 -1.181798 3.6878252e-40
6.568368 -2.9659505 -1.1722317 2.7658689e-40
6.5509424 -2.9401829 -1.1832696 2.7658689e-40
6.5295753 -2.9436083 -1.1813384 2.7658689e-40
6.7351766 -2.4984462 -1.2344288 4.6097815e-40
6.7204771 -2.5378335 -1.2214742 4.6097815e-40
6.697351 -2.542964 -1.2266383 3.6878252e-40
6.6699133 -3.0016174 -1.1456223 4.6097815e-40
6.6630216 -3.0276084 -1.1241972 6.4536941e-40
6.6509447 -3.0042574 -1.1418642 5.5317378e-40
6.6350126 -3.0325954 -1.1241972 3.6878252e-40
6.6222806 -3.0092142 -1.1411126 3.6878252e-40
6.5960507 -3.0125577 -1.1343479 3.6878252e-40
6.5889692 -2.9868436 -1.1444988 2.7658689e-40
6.5677872 -2.9906149 -1.1444987 3.6878252e-40
6.5598521 -2.9625885 -1.1473589 2.7658689e-40
6.5441527 -2.9357102 -1.1543001 2.7658689e-40
6.524178 -2.9389427 -1.1526446 2.7658689e-40
6.7275882 -2.6361599 -1.159614 8.2976067e-40
6.7248759 -2.5703468 -1.1960838 4.6097815e-40
6.7007699 -2.6076386 -1.1744554 3.6878252e-40
6.7056584 -2.5737684 -1.1960838 2.7658689e-40
6.6784706 -2.6109889 -1.1712936 3.6878252e-40
6.6800361 -2.5783305 -1.1960838 7.3756504e-40
6.6581111 -3.0243742 -1.1032469 4.6097815e-40
6.6457777 -2.9970708 -1.1005249 4.6097815e-40
6.6342559 -3.0283475 -1.1018503 3.6878252e-40
6.6236043 -3.0035455 -1.1134099 5.5317378e-40
6.6122556 -2.9760048 -1.110373 3.6878252e-40
6.6009402 -3.0072649 -1.1117992 4.6097815e-40
6.5873165 -2.9813378 -1.1149231 3.6878252e-40
6.5666318 -2.9841282 -1.110373 5.5317378e-40
6.5580835 -2.9582133 -1.1234429 2.7658689e-40
6.5431724 -2.9302037 -1.1253304 2.7658689e-40
6.5199342 -2.9343417 -1.1253304 2.7658689e-40
6.4964995 -2.9373777 -1.1195366 2.7658689e-40
6.7269526 -2.6325901 -1.1408324 4.6097815e-40
6.7031908 -2.6028669 -1.1523228 5.5317378e-40
6.6778283 -2.6073828 -1.1523228 1.6595213e-39
6.6639667 -2.6425769 -1.1345719 4.6097815e-40
6.6595154 -3.0187373 -1.0757788 6.4536941e-40
6.6477451 -2.9917455 -1.0751576 5.5317378e-40
6.6238656 -2.9968264 -1.0793855 4.6097815e-40
6.6111007 -2.9695179 -1.0762473 3.6878252e-40
6.5999861 -3.0019073 -1.0836134 5.5317378e-40
6.5853601 -2.9760137 -1.0859976 2.7658689e-40
6.5658617 -2.9798033 -1.0876226 2.7658689e-40
6.5483823 -2.9537494 -1.0918735 3.6878252e-40
6.5206132 -2.9285393 -1.0963609 2.7658689e-40
6.5082889 -2.9620137 -1.0976135 2.7658689e-40
6.4957151 -2.932972 -1.096361 2.7658689e-40
6.7261052 -2.6278298 -1.1157904 8.2976067e-40
6.7135501 -2.6300652 -1.1157904 4.6097815e-40
6.6957803 -2.5979857 -1.1207049 3.6878252e-40
6.6736951 -2.6025381 -1.1238668 5.5317378e-40
6.6631188 -2.6378167 -1.1095297 4.6097815e-40
6.6478076 -2.9585209 -1.0534968 8.2976067e-40
6.6216416 -2.9925237 -1.0554276 5.5317378e-40
6.6178064 -2.9631188 -1.0497051 3.6878252e-40
6.5931888 -2.9964843 -1.0497903 1.8439126e-40
6.576232 -2.9995036 -1.0497904 3.6878252e-40
6.5647068 -2.9733164 -1.053497 2.7658689e-40
6.547411 -2.9482942 -1.0631742 2.7658689e-40
6.5263076 -2.9520516 -1.0631742 3.6878252e-40
6.5121632 -2.9243624 -1.0673913 2.7658689e-40
6.4949307 -2.9285669 -1.0731852 2.7658689e-40
6.4936557 -2.8962822 -1.0656524 1.8439126e-40
6.7483206 -2.6518002 -1.0735649 5.5317378e-40
6.7301521 -2.6214616 -1.0869919 5.5317378e-40
6.7073841 -2.6245334 -1.0819834 6.4536941e-40
6.680892 -2.6285136 -1.0782272 4.6097815e-40
6.6613221 -2.6672902 -1.0735649 6.4536941e-40
6.6622715 -2.6330566 -1.0844877 1.6595213e-39
6.6378832 -2.9547107 -1.0250587 5.5317378e-40
6.6178617 -2.9876695 -1.0272417 4.6097815e-40
6.6148787 -2.9576912 -1.0193712 6.4536941e-40
6.5922351 -2.9911265 -1.0216044 2.7658689e-40
6.5724516 -2.9946489 -1.0216044 2.7658689e-40
6.5560765 -2.9689045 -1.023163 2.7658689e-40
6.5404897 -2.9427726 -1.028735 2.7658689e-40
6.5289788 -2.9448221 -1.028735 2.7658689e-40
6.5111828 -2.9188557 -1.0384218 2.7658689e-40
6.4888887 -2.8921611 -1.0403112 2.7658689e-40
6.7633872 -2.5735471 -1.0574691 4.6097815e-40
6.7416868 -2.6505508 -1.06117 4.6097815e-40
6.7365408 -2.6136937 -1.0531851 4.6097815e-40
6.7051539 -2.6192825 -1.0531851 5.5317378e-40
6.6800442 -2.6237533 -1.0531851 7.3756504e-40
6.6480546 -2.6647911 -1.0487751 5.5317378e-40
6.6570978 -2.6282485 -1.055272 6.4536941e-40
6.6341653 -2.9503534 -0.99946451 5.5317378e-40
6.61483 -2.9804702 -0.98778141 1.5673257e-39
6.6084056 -2.9543822 -0.99662066 6.4536941e-40
6.5922971 -2.9849246 -0.99003631 6.4536941e-40
6.5769434 -2.9594264 -0.99377686 2.7658689e-40
6.5582967 -2.9637501 -0.9988957 2.7658689e-40
6.5432906 -2.9362705 -0.99812245 2.7658689e-40
6.5280075 -2.9393666 -1.0000358 2.7658689e-40
6.5102024 -2.9133487 -1.0094522 2.7658689e-40
6.5032058 -2.8819661 -1.0013249 1.8439126e-40
6.492774 -2.9164519 -1.0094522 2.7658689e-40
6.4829798 -2.8872879 -1.0100968 1.8439126e-40
6.7608032 -2.6044633 -1.028143 4.6097815e-40
6.7621031 -2.566335 -1.0195277 4.6097815e-40
6.7356935 -2.6089337 -1.028143 4.6097815e-40
6.7043061 -2.6145225 -1.028143 5.5317378e-40
6.6791968 -2.6189933 -1.028143 7.3756504e-40
6.6470056 -2.658901 -1.0177877 6.4536941e-40
6.6603646 -2.6223464 -1.028143 6.4536941e-40
6.6300626 -2.9438334 -0.96249497 3.4112383e-39
6.6156673 -2.9753463 -0.96241415 1.8439126e-39
6.6186566 -2.9458642 -0.96249497 3.226847e-39
6.5957885 -2.9783332 -0.95959556 3.6878252e-40
6.5789285 -2.9540534 -0.96818256 2.7658689e-40
6.5534019 -2.9295382 -0.97297639 2.7658689e-40
6.5380735 -2.9015687 -0.97468877 2.7658689e-40
6.5274248 -2.9360936 -0.98281616 2.7658689e-40
6.5196009 -2.9055395 -0.97816509 2.7658689e-40
6.5026121 -2.8786314 -0.98378098 2.7658689e-40
6.481463 -2.8821681 -0.98261136 2.7658689e-40
6.4700828 -2.8522675 -0.98333663 1.8439126e-40
6.7409115 -2.6018655 -0.99684042 3.6878252e-40
6.7145228 -2.6420178 -0.99299777 6.4536941e-40
6.6858954 -2.6468718 -0.99175829 5.5317378e-40
6.6722836 -2.6165407 -1.0093614 5.5317378e-40
6.645957 -2.6530106 -0.98680031 1.1063476e-39
6.6554027 -2.6187282 -1.0051877 1.3829344e-39
6.6335287 -2.6552234 -0.98680031 5.5317378e-40
6.6292925 -2.9395089 -0.93974447 5.5317378e-40
6.6065211 -2.9731059 -0.94268405 5.5317378e-40
6.6132474 -2.9419198 -0.93746942 5.5317378e-40
6.5851426 -2.947649 -0.94116634 4.6097815e-40
6.5719137 -2.919167 -0.93689722 1.8439126e-40
6.5606647 -2.950613 -0.93405688 2.7658689e-40
6.5490866 -2.9243572 -0.94263709 2.7658689e-40
6.5370932 -2.8960617 -0.94571924 3.6878252e-40
6.5196648 -2.8991654 -0.94571912 2.7658689e-40
6.5016222 -2.8730733 -0.95454121 2.7658689e-40
6.4898949 -2.8751614 -0.95454121 2.7658689e-40
6.4771099 -2.8459988 -0.95775342 1.8439126e-40
6.7361197 -2.6312857 -0.95787877 4.6097815e-40
6.7134743 -2.6361272 -0.9620105 5.5317378e-40
6.6935778 -2.6729779 -0.95250213 5.5317378e-40
6.6825709 -2.642602 -0.96696842 5.5317378e-40
6.6628141 -2.6784554 -0.95250213 6.4536941e-40
6.6483297 -2.648334 -0.96510917 6.4536941e-40
6.63205 -2.6839328 -0.95250213 5.5317378e-40
6.6331091 -2.6528673 -0.97440541 2.8580645e-39
6.6285229 -2.9351845 -0.91699398 5.5317378e-40
6.6162996 -2.9625204 -0.89758664 7.3756504e-40
6.6082735 -2.9371169 -0.90846258 5.5317378e-40
6.5911646 -2.9401631 -0.90846258 6.4536941e-40
6.5756631 -2.9135463 -0.91164178 2.7658689e-40
6.5550995 -2.9181085 -0.91623366 1.8439126e-40
6.5399203 -2.8894985 -0.91481835 1.8439126e-40
6.5186839 -2.8936584 -0.91674966 1.8439126e-40
6.5006328 -2.8675153 -0.92530137 2.7658689e-40
6.4879503 -2.83828 -0.9282344 1.8439126e-40
6.752676 -2.6912086 -0.92504328 3.6878252e-40
6.7449422 -2.6584175 -0.92488921 3.6878252e-40
6.7310677 -2.6269178 -0.93102312 4.6097815e-40
6.7107902 -2.662693 -0.91568488 4.6097815e-40
6.712635 -2.6314154 -0.93722057 5.5317378e-40
6.6877418 -2.6687226 -0.92550284 5.5317378e-40
6.6593466 -2.6742592 -0.9279573 6.4536941e-40
6.6438594 -2.6412299 -0.92482561 3.226847e-39
6.6302166 -2.7443948 -0.91626734 6.4536941e-40
6.6159182 -2.9603775 -0.88631231 6.4536941e-40
6.6100664 -2.9306626 -0.87718064 1.5673257e-39
6.5892196 -2.9347458 -0.8790766 8.2976067e-40
6.5739374 -2.9083004 -0.8833251 1.1985432e-39
6.5619817 -2.8787529 -0.88005495 2.7658689e-40
6.5588489 -2.912488 -0.89097828 1.8439126e-40
6.5409417 -2.8840146 -0.88778001 1.8439126e-40
6.5207067 -2.8881853 -0.89067703 2.7658689e-40
6.5042553 -2.8606775 -0.89372236 2.7658689e-40
6.4871507 -2.8337908 -0.90461916 2.7658689e-40
6.4875197 -2.8618219 -0.88436568 2.7658689e-40
6.7709317 -2.5424404 -0.90570325 4.6097815e-40
6.7548761 -2.6166017 -0.90003574 3.6878252e-40
6.7628427 -2.5795448 -0.90293252 3.6878252e-40
6.7534442 -2.6526916 -0.90341246 3.6878252e-40
6.7385845 -2.6211233 -0.90829897 3.6878252e-40
6.7437987 -2.5817075 -0.89667201 4.6097815e-40
6.7138171 -2.6583033 -0.89604896 3.6878252e-40
6.6855559 -2.6635759 -0.89727622 5.5317378e-40
6.6547508 -2.6688201 -0.89604896 7.3756504e-40
6.6558685 -2.6366611 -0.9124307 8.2976067e-40
6.6294017 -2.7398183 -0.89219093 5.5317378e-40
6.6293731 -2.7048204 -0.88250595 4.6097815e-40
6.6156816 -2.8661618 -0.86460447 4.6097815e-40
6.6157303 -2.8344066 -0.86097383 7.3756504e-40
6.6157866 -2.8016248 -0.85738868 6.4536941e-40
6.603786 -2.9284346 -0.86011779 8.2976067e-40
6.601346 -2.897717 -0.85424316 5.5317378e-40
6.59238 -2.9304655 -0.86011779 4.6097815e-40
6.5807047 -2.9018424 -0.85653913 6.4536941e-40
6.5631995 -2.8743701 -0.85881054 5.5317378e-40
6.5399613 -2.8785076 -0.85881054 1.8439126e-40
6.5219107 -2.8511112 -0.86097383 2.7658689e-40
6.5227289 -2.8827121 -0.86460447 2.7658689e-40
6.5045176 -2.855355 -0.86682183 2.7658689e-40
6.4810624 -2.8595312 -0.86682183 2.7658689e-40
6.4737129 -2.826921 -0.85738868 2.7658689e-40
6.7536173 -2.6095333 -0.86285096 5.5317378e-40
6.7619953 -2.5747845 -0.87789041 3.6878252e-40
6.7321825 -2.6151731 -0.87214714 3.6878252e-40
6.7433748 -2.5793273 -0.88415092 4.6097815e-40
6.7078981 -2.6535809 -0.86659515 5.5317378e-40
6.7167516 -2.6185284 -0.87524587 4.6097815e-40
6.684525 -2.6897571 -0.8557682 6.4536941e-40
6.6787801 -2.6611719 -0.87886757 4.6097815e-40
6.6649036 -2.6925356 -0.85212219 4.6097815e-40
6.6502972 -2.6641808 -0.86834836 1.3829344e-39
6.6289616 -2.7025104 -0.87035245 4.6097815e-40
6.6289349 -2.6664367 -0.86045891 4.6097815e-40
6.61585 -2.7678137 -0.85383821 7.3756504e-40
6.5910497 -2.8932467 -0.82209992 6.4536941e-40
6.5999813 -2.8621397 -0.82984096 5.5317378e-40
6.5710034 -2.8973787 -0.82496983 1.0141519e-39
6.5719018 -2.8671391 -0.82984102 5.5317378e-40
6.5505681 -2.8993287 -0.81636006 3.6878252e-40
6.5361743 -2.8740687 -0.83273792 1.8439126e-40
6.5185494 -2.8760707 -0.82694399 1.8439126e-40
6.5024343 -2.8504505 -0.83992112 2.7658689e-40
6.4859366 -2.8529289 -0.83758199 1.8439126e-40
6.4731135 -2.8235543 -0.83967721 1.8439126e-40
6.4602318 -2.7943521 -0.84787679 1.8439126e-40
6.4469151 -2.7640471 -0.85005713 2.7658689e-40
6.7531977 -2.6071773 -0.85045606 3.6878252e-40
6.7447991 -2.6397903 -0.8297779 3.6878252e-40
6.7345552 -2.6104968 -0.85045606 3.6878252e-40
6.7142429 -2.6464341 -0.83591408 4.6097815e-40
6.6859751 -2.6837785 -0.82659978 5.5317378e-40
6.6640806 -2.6879151 -0.82781512 5.5317378e-40
6.6486826 -2.6585083 -0.83795947 8.2976067e-40
6.6267538 -2.7249444 -0.81394249 3.6878252e-40
6.633615 -2.6933396 -0.82781512 4.6097815e-40
6.6141882 -2.7926469 -0.81015819 4.6097815e-40
6.6150427 -2.7632809 -0.82999241 6.4536941e-40
6.596096 -2.8571501 -0.80087143 9.219563e-40
6.5672512 -2.8929813 -0.79914045 4.6097815e-40
6.574729 -2.8605757 -0.79894018 4.6097815e-40
6.5463767 -2.8957975 -0.79454857 2.7658689e-40
6.5319948 -2.8674271 -0.7950775 2.7658689e-40
6.5212083 -2.9011793 -0.79914045 2.7658689e-40
6.5127602 -2.8716092 -0.79894018 2.7658689e-40
6.4966745 -2.8452828 -0.80834222 1.8439126e-40
6.4849467 -2.8473709 -0.80834222 2.7658689e-40
6.4721146 -2.8179433 -0.81015819 2.7658689e-40
6.4592228 -2.7886863 -0.81806946 2.7658689e-40
6.4523392 -2.7595401 -0.83199978 2.7658689e-40
6.4447269 -2.7269711 -0.82781512 2.7658689e-40
6.7424693 -2.6691914 -0.8035081 3.6878252e-40
6.7159972 -2.6735075 -0.8014825 4.6097815e-40
6.7259254 -2.640744 -0.81750542 4.6097815e-40
6.6876307 -2.6789553 -0.8035081 4.6097815e-40
6.6571651 -2.6843798 -0.8035081 7.3756504e-40
6.6257873 -2.754353 -0.79422367 1.5673257e-39
6.6380095 -2.7182186 -0.78986603 5.5317378e-40
6.639091 -2.6887896 -0.80958486 5.5317378e-40
6.6121521 -2.8463378 -0.76031405 4.6097815e-40
6.6131573 -2.8199556 -0.78495038 2.0283039e-39
6.6248288 -2.7838051 -0.77473533 6.4536941e-40
6.5944738 -2.8791292 -0.75322157 5.5317378e-40
6.5953116 -2.8527448 -0.77769578 1.3829344e-39
6.5774021 -2.8832943 -0.75896138 3.6878252e-40
6.5628037 -2.8577213 -0.77355719 4.6097815e-40
6.5370202 -2.8619878 -0.77190179 1.8439126e-40
6.5167847 -2.8661585 -0.77479881 1.8439126e-40
6.5002966 -2.8384452 -0.77676314 1.8439126e-40
6.4831548 -2.8113461 -0.78654295 2.7658689e-40
6.4839573 -2.8418128 -0.77910239 1.8439126e-40
6.4649959 -2.8122635 -0.77473533 1.8439126e-40
6.4703712 -2.7820249 -0.79422367 3.6878252e-40
6.457356 -2.7527447 -0.80190426 2.7658689e-40
6.7414412 -2.6634159 -0.77312428 4.6097815e-40
6.7133708 -2.6985047 -0.75776416 3.6878252e-40
6.7193737 -2.6689336 -0.78122663 4.6097815e-40
6.691309 -2.7028265 -0.75977045 5.5317378e-40
6.6931071 -2.6744049 -0.78527778 4.6097815e-40
6.6613359 -2.7093439 -0.76578951 7.3756504e-40
6.6361284 -2.7431588 -0.74653196 5.5317378e-40
6.6373982 -2.7147863 -0.77180868 5.5317378e-40
6.6115637 -2.8430336 -0.74293232 3.6878252e-40
6.6240296 -2.7793164 -0.75112015 3.6878252e-40
6.5938911 -2.8758559 -0.73600197 3.6878252e-40
6.5728531 -2.879977 -0.73791522 6.4536941e-40
6.5572758 -2.8523204 -0.74100107 2.7658689e-40
6.5360394 -2.8564806 -0.74293232 1.8439126e-40
6.5092764 -2.8610187 -0.74177355 1.8439126e-40
6.4948931 -2.8352783 -0.7557106 2.7658689e-40
6.473546 -2.8377032 -0.74869299 1.8439126e-40
6.4586763 -2.8110731 -0.76292771 2.7658689e-40
6.7465057 -2.6565552 -0.74274045 4.6097815e-40
6.7206712 -2.6928773 -0.73569399 3.6878252e-40
6.6904941 -2.6982501 -0.73569405 3.6878252e-40
6.6592312 -2.7343688 -0.72268611 4.6097815e-40
6.6634369 -2.7036576 -0.73870361 4.6097815e-40
6.6394405 -2.738672 -0.72666043 5.5317378e-40
6.6101909 -2.8353243 -0.70237488 6.4536941e-40
6.6148896 -2.8070316 -0.72062284 8.2976067e-40
6.6232305 -2.7748272 -0.72750491 4.6097815e-40
6.587553 -2.8736074 -0.71878237 4.6097815e-40
6.5942378 -2.8399827 -0.71164519 6.4536941e-40
6.5641065 -2.8458021 -0.71396267 4.6097815e-40
6.535059 -2.8509741 -0.71396267 2.7658689e-40
6.506011 -2.8561461 -0.71396267 1.8439126e-40
6.4702506 -2.8327847 -0.72062284 1.8439126e-40
6.7595196 -2.6155083 -0.71932602 4.6097815e-40
6.743794 -2.6828575 -0.70559853 3.6878252e-40
6.7572527 -2.6462998 -0.70020312 3.6878252e-40
6.723774 -2.7158623 -0.68691736 2.7658689e-40
6.7258916 -2.6872256 -0.71161759 4.6097815e-40
6.6926689 -2.7532012 -0.68027443 7.3756504e-40
6.6984091 -2.723496 -0.70281458 4.6097815e-40
6.6715174 -2.7578936 -0.68499744 5.5317378e-40
6.6626782 -2.7306373 -0.7067889 4.6097815e-40
6.6332479 -2.7968819 -0.68553507 7.3756504e-40
6.6399903 -2.7660542 -0.69798583 3.6878252e-40
6.646873 -2.7342312 -0.71076322 5.5317378e-40
6.6096025 -2.83202 -0.68499315 4.6097815e-40
6.6217179 -2.8000817 -0.691383 4.6097815e-40
6.5899653 -2.864923 -0.67669004 4.6097815e-40
6.5981798 -2.8351903 -0.69078708 4.6097815e-40
6.5689273 -2.8690438 -0.67860329 6.4536941e-40
6.551703 -2.8434653 -0.69078708 4.6097815e-40
6.5514669 -2.8710272 -0.67286342 3.6878252e-40
6.5340786 -2.8454671 -0.68499315 2.7658689e-40
6.5050306 -2.8506393 -0.68499309 1.8439126e-40
6.4817924 -2.8547766 -0.68499315 2.7658689e-40
6.4692607 -2.8272266 -0.691383 2.7658689e-40
6.4564786 -2.7987285 -0.69798583 1.8439126e-40
6.4430308 -2.7670178 -0.69287884 1.8439126e-40
6.7408996 -2.7081366 -0.66307151 3.6878252e-40
6.742979 -2.6782811 -0.68152201 3.6878252e-40
6.7566357 -2.6428347 -0.68197286 4.6097815e-40
6.7231684 -2.7124627 -0.66903299 3.6878252e-40
6.6906977 -2.7797718 -0.65044731 8.2976067e-40
6.697989 -2.7487805 -0.66256297 3.6878252e-40
6.7054377 -2.7167888 -0.67499447 3.6878252e-40
6.6731062 -2.7829039 -0.65044731 6.4536941e-40
6.6685901 -2.7551732 -0.66846681 4.6097815e-40
6.6407762 -2.7906263 -0.66047239 5.5317378e-40
6.6163683 -2.825134 -0.65602368 3.6878252e-40
6.6207285 -2.7945235 -0.66214323 8.2976067e-40
6.5966768 -2.8581531 -0.64826411 4.6097815e-40
6.5740442 -2.8935752 -0.65536362 4.6097815e-40
6.5677614 -2.8624976 -0.64416414 4.6097815e-40
6.5510397 -2.8965559 -0.64967597 3.6878252e-40
6.5419598 -2.8676546 -0.64703405 5.5317378e-40
6.5272884 -2.8409946 -0.65602368 1.8439126e-40
6.5054536 -2.8445988 -0.65457505 1.8439126e-40
6.4935246 -2.8790925 -0.66138369 2.7658689e-40
6.4808121 -2.8492699 -0.65602368 2.7658689e-40
6.4654384 -2.8227465 -0.6650672 2.7658689e-40
6.4550796 -2.7908728 -0.65665919 2.7658689e-40
6.4543805 -2.7614896 -0.67499447 1.8439126e-40
6.4432402 -2.7929809 -0.65665919 1.8439126e-40
6.4424257 -2.7636182 -0.67499447 1.8439126e-40
6.7563014 -2.7022765 -0.6471743 3.6878252e-40
6.7540312 -2.6704111 -0.65142649 3.6878252e-40
6.7243805 -2.7392187 -0.63776702 3.6878252e-40
6.6959677 -2.7753928 -0.6329034 3.6878252e-40
6.6655412 -2.8095615 -0.62126011 4.6097815e-40
6.6745334 -2.7795916 -0.63485277 6.4536941e-40
6.6490574 -2.7837453 -0.6329034 5.5317378e-40
6.621624 -2.8187442 -0.62821281 5.5317378e-40
6.59342 -2.8532012 -0.62005669 4.6097815e-40
6.5669847 -2.8581333 -0.62120467 3.6878252e-40
6.5458169 -2.861527 -0.61929137 3.6878252e-40
6.5302463 -2.8351655 -0.6289854 2.7658689e-40
6.5030699 -2.8396261 -0.62705398 1.8439126e-40
6.4672818 -2.8161104 -0.6329034 1.8439126e-40
6.4426408 -2.7896144 -0.63894773 1.8439126e-40
6.4294615 -2.7600808 -0.64518714 1.8439126e-40
6.7708106 -2.754039 -0.5919677 4.6097815e-40
6.7582479 -2.7270522 -0.60647678 4.6097815e-40
6.7514424 -2.6980755 -0.62134129 8.2976067e-40
6.7289085 -2.763335 -0.60132438 3.6878252e-40
6.7380285 -2.733547 -0.62123632 3.6878252e-40
6.7024207 -2.7978821 -0.59518754 3.6878252e-40
6.7127671 -2.7678142 -0.60951161 3.6878252e-40
6.6797514 -2.8028111 -0.59973985 4.6097815e-40
6.6550269 -2.8357034 -0.58676547 4.6097815e-40
6.6495261 -2.8093827 -0.60580975 4.6097815e-40
6.6397848 -2.8662546 -0.57573688 5.5317378e-40
6.6213894 -2.8413174 -0.58485222 5.5317378e-40
6.6262879 -2.8135202 -0.60580975 4.6097815e-40
6.5945458 -2.8765397 -0.58711219 4.6097815e-40
6.6006422 -2.8470752 -0.5953753 4.6097815e-40
6.5790815 -2.8778059 -0.57952869 4.6097815e-40
6.5649395 -2.8533194 -0.59480131 4.6097815e-40
6.5386267 -2.8572724 -0.59107041 2.7658689e-40
6.5257196 -2.8321841 -0.60967231 2.7658689e-40
6.5082655 -2.8618343 -0.58676547 1.8439126e-40
6.4994788 -2.8362882 -0.60677534 1.8439126e-40
6.4850497 -2.8648424 -0.5810256 2.7658689e-40
6.4719582 -2.8399384 -0.60040206 1.8439126e-40
6.4545646 -2.8126404 -0.60366362 2.7658689e-40
6.4381843 -2.8454974 -0.59808451 1.8439126e-40
6.4369731 -2.8157725 -0.60366362 1.8439126e-40
6.763062 -2.7512903 -0.57091498 4.6097815e-40
6.7484694 -2.7235835 -0.57990968 3.6878252e-40
6.7332945 -2.7861354 -0.56332099 5.5317378e-40
6.7348366 -2.755857 -0.56857586 4.6097815e-40
6.7115579 -2.7902899 -0.56476945 4.6097815e-40
6.6823659 -2.8248856 -0.55642623 5.5317378e-40
6.6561236 -2.8588839 -0.55298644 6.4536941e-40
6.6323509 -2.8889091 -0.53680754 4.6097815e-40
6.6301212 -2.8648522 -0.55981159 4.6097815e-40
6.6042418 -2.8947985 -0.54131728 6.4536941e-40
6.6012516 -2.8701408 -0.56057 8.2976067e-40
6.5778384 -2.8993521 -0.54056567 5.5317378e-40
6.5669055 -2.8755128 -0.55677819 5.5317378e-40
6.547575 -2.8770957 -0.54729879 3.6878252e-40
6.5328374 -2.8521523 -0.55970615 3.6878252e-40
6.5082316 -2.8874469 -0.56436169 1.8439126e-40
6.5070996 -2.855288 -0.55232632 2.7658689e-40
6.4842725 -2.8604782 -0.55806613 1.8439126e-40
6.4660554 -2.8337171 -0.56332105 2.7658689e-40
6.4533768 -2.8059709 -0.56857586 2.7658689e-40
6.4370379 -2.809339 -0.57091498 1.8439126e-40
6.7715487 -2.7160006 -0.56219822 7.3756504e-40
6.7549963 -2.7467628 -0.54050559 9.219563e-40
6.74787 -2.7202168 -0.56219822 4.6097815e-40
6.7323141 -2.7806287 -0.53435147 1.0141519e-39
6.7135153 -2.814033 -0.52936685 7.3756504e-40
6.6859956 -2.8482111 -0.52568585 5.5317378e-40
6.659945 -2.8801267 -0.51707745 4.6097815e-40
6.6496506 -2.8555748 -0.53023595 6.4536941e-40
6.6366205 -2.9117904 -0.50965697 1.2907388e-39
6.6299582 -2.8863873 -0.52177507 9.219563e-40
6.6142135 -2.9157798 -0.50965697 1.0141519e-39
6.601294 -2.8913436 -0.52102345 5.5317378e-40
6.5752549 -2.8957586 -0.51989603 4.6097815e-40
6.5497236 -2.8997519 -0.51707745 5.5317378e-40
6.5412946 -2.8748677 -0.53023595 5.5317378e-40
6.5237827 -2.8489406 -0.53510672 2.7658689e-40
6.5123944 -2.8777821 -0.51886076 2.7658689e-40
6.5065169 -2.8520148 -0.53510672 1.8439126e-40
6.4885092 -2.8251746 -0.54014534 2.7658689e-40
6.4831071 -2.8539317 -0.52362698 2.7658689e-40
6.4708843 -2.8271761 -0.53435147 2.7658689e-40
6.4584489 -2.8004804 -0.54518402 2.7658689e-40
6.4532599 -2.8291781 -0.52855754 2.7658689e-40
6.4404621 -2.801389 -0.53348809 2.7658689e-40
6.4396439 -2.7727809 -0.5503906 2.7658689e-40
6.7603817 -2.7699504 -0.50538182 3.6878252e-40
6.7298102 -2.8055031 -0.50066751 4.6097815e-40
6.7429528 -2.7730532 -0.50538194 5.5317378e-40
6.7167387 -2.8358216 -0.49042264 5.5317378e-40
6.718688 -2.8097351 -0.51214725 4.6097815e-40
6.6930556 -2.8695724 -0.49332079 5.5317378e-40
6.6939268 -2.8398833 -0.49042264 4.6097815e-40
6.6590867 -2.8753047 -0.49171016 5.5317378e-40
6.6304517 -2.9096017 -0.4928968 1.0141519e-39
6.6304431 -2.8781936 -0.48043582 5.5317378e-40
6.6078553 -2.9125295 -0.48731005 4.6097815e-40
6.5916395 -2.8895249 -0.50298452 4.6097815e-40
6.5908608 -2.9144595 -0.48172334 7.3756504e-40
6.5743008 -2.8904009 -0.49171019 5.5317378e-40
6.5570607 -2.9193819 -0.47613662 5.5317378e-40
6.5446734 -2.8959525 -0.49311948 3.6878252e-40
6.5136304 -2.9005716 -0.48848891 2.7658689e-40
6.5063066 -2.8766356 -0.50748551 2.7658689e-40
6.4836717 -2.9054317 -0.48607299 1.8439126e-40
6.4746513 -2.8805985 -0.49895406 1.8439126e-40
6.4644866 -2.8249066 -0.51696974 2.7658689e-40
6.4494724 -2.8247392 -0.50248492 1.8439126e-40
6.435761 -2.7976389 -0.51009625 1.8439126e-40
6.4266052 -2.7681553 -0.51496774 1.8439126e-40
6.7635651 -2.7949905 -0.47770804 4.6097815e-40
6.7533956 -2.7643764 -0.47061843 4.6097815e-40
6.7442513 -2.7976792 -0.47388148 4.6097815e-40
6.7144656 -2.8588116 -0.45788711 3.6878252e-40
6.7236371 -2.8305035 -0.46956807 5.5317378e-40
6.6946821 -2.862334 -0.45788711 4.6097815e-40
6.6894193 -2.8365958 -0.46956807 9.219563e-40
6.6612263 -2.8686066 -0.45949772 6.4536941e-40
6.6330214 -2.9008486 -0.45059729 8.2976067e-40
6.6357141 -2.8750441 -0.46916145 4.6097815e-40
6.6067209 -2.9061575 -0.45378968 5.5317378e-40
6.578712 -2.9111445 -0.45378968 4.6097815e-40
6.5564938 -2.9161959 -0.45937642 6.4536941e-40
6.5416098 -2.8892727 -0.45627651 4.6097815e-40
6.5124407 -2.8950584 -0.45929641 2.7658689e-40
6.482718 -2.9000742 -0.45788711 1.8439126e-40
6.4652309 -2.8772564 -0.47335976 2.7658689e-40
6.4638982 -2.8460951 -0.46622831 2.7658689e-40
6.4514952 -2.8192661 -0.47641233 1.8439126e-40
6.432817 -2.7924285 -0.48085648 2.7658689e-40
6.7625937 -2.7895353 -0.44900873 4.6097815e-40
6.756484 -2.7592809 -0.44744283 4.6097815e-40
6.7480736 -2.7282691 -0.43992075 7.3756504e-40
6.727479 -2.7924104 -0.43178913 6.4536941e-40
6.741188 -2.7631409 -0.4532367 4.6097815e-40
6.7137027 -2.8545251 -0.43533844 4.6097815e-40
6.7150707 -2.826452 -0.44112992 4.6097815e-40
6.6886797 -2.8580961 -0.43082869 4.6097815e-40
6.6811738 -2.8343463 -0.4506093 4.6097815e-40
6.6599894 -2.8915601 -0.42771828 6.4536941e-40
6.6681018 -2.8604333 -0.42406407 1.1985432e-39
6.6337843 -2.8958607 -0.42585602 5.5317378e-40
6.6057754 -2.9008477 -0.42585602 4.6097815e-40
6.5777664 -2.9058347 -0.42585602 5.5317378e-40
6.5439401 -2.8836458 -0.42970124 3.6878252e-40
6.510026 -2.8896842 -0.42970124 2.7658689e-40
6.4986787 -2.8668396 -0.4506093 1.8439126e-40
6.4817638 -2.8947163 -0.42970124 1.8439126e-40
6.4631214 -2.8417308 -0.44326887 1.8439126e-40
6.444705 -2.8147938 -0.44744271 1.8439126e-40
6.4261613 -2.7890263 -0.45746464 1.8439126e-40
6.7533436 -2.7238903 -0.4223769 4.6097815e-40
6.7283921 -2.7586017 -0.41847321 4.6097815e-40
6.7080522 -2.8200793 -0.40226457 4.6097815e-40
6.7151914 -2.7900956 -0.40882966 4.6097815e-40
6.6867728 -2.8530025 -0.403126 6.4536941e-40
6.6556244 -2.8886852 -0.40909585 1.4751301e-39
6.6597385 -2.8571317 -0.39963633 4.6097815e-40
6.6314383 -2.8908005 -0.3979224 7.3756504e-40
6.6048298 -2.8955381 -0.3979224 5.5317378e-40
6.5768209 -2.9005251 -0.3979224 4.6097815e-40
6.5488119 -2.9055121 -0.3979224 5.5317378e-40
6.5316815 -2.880301 -0.40151539 3.6878252e-40
6.5090718 -2.8843267 -0.40151539 2.7658689e-40
6.4820166 -2.889586 -0.40377027 1.8439126e-40
6.4686236 -2.8632674 -0.40510836 1.8439126e-40
6.4619555 -2.8351843 -0.40882966 1.8439126e-40
6.4482307 -2.7770686 -0.41652891 2.7658689e-40
6.4497299 -2.8093538 -0.42426711 2.7658689e-40
6.4367013 -2.7802684 -0.42237687 2.7658689e-40
6.765954 -2.6845779 -0.39689159 4.6097815e-40
6.750258 -2.7467546 -0.37791583 3.6878252e-40
6.7526507 -2.7199996 -0.40190902 4.6097815e-40
6.726119 -2.7847731 -0.39161012 4.6097815e-40
6.7388349 -2.7499249 -0.38370976 6.4536941e-40
6.7166266 -2.8131614 -0.37477446 4.6097815e-40
6.6889944 -2.8467636 -0.37332952 4.6097815e-40
6.6568179 -2.8791597 -0.36160865 4.6097815e-40
6.6663847 -2.8507893 -0.37332952 4.6097815e-40
6.6331048 -2.8839297 -0.36440206 5.5317378e-40
6.6089244 -2.9165554 -0.36111173 4.6097815e-40
6.6036954 -2.8891661 -0.36440203 4.6097815e-40
6.5869069 -2.9215615 -0.36664799 5.5317378e-40
6.5724316 -2.8944197 -0.36280581 4.6097815e-40
6.5434289 -2.8996224 -0.36300534 3.6878252e-40
6.5309181 -2.8760147 -0.37896669 6.4536941e-40
6.5081177 -2.8789687 -0.37332952 2.7658689e-40
6.4855084 -2.8829944 -0.37332952 2.7658689e-40
6.4733644 -2.8568461 -0.37667027 2.7658689e-40
6.4615669 -2.8330023 -0.39734995 1.8439126e-40
6.4599767 -2.7995756 -0.38370976 2.7658689e-40
6.4485536 -2.8027456 -0.38950372 1.8439126e-40
6.4357119 -2.7747102 -0.3931371 1.8439126e-40
6.7765946 -2.6757367 -0.36146873 4.6097815e-40
6.7572279 -2.71173 -0.36389726 3.6878252e-40
6.7380505 -2.7455196 -0.36053407 6.4536941e-40
6.7110314 -2.8395236 -0.35641798 7.3756504e-40
6.7134461 -2.8078854 -0.34498212 4.6097815e-40
6.684865 -2.8422871 -0.34675425 4.6097815e-40
6.6587682 -2.8738823 -0.33646837 4.6097815e-40
6.6307592 -2.8788693 -0.33646837 7.3756504e-40
6.6027498 -2.8838563 -0.33646837 4.6097815e-40
6.5747409 -2.8888433 -0.33646837 4.6097815e-40
6.5467319 -2.8938303 -0.33646837 4.6097815e-40
6.5295825 -2.8685138 -0.33950645 7.3756504e-40
6.507164 -2.873611 -0.34514365 2.7658689e-40
6.4845543 -2.8776367 -0.34514365 1.8439126e-40
6.4724016 -2.8514404 -0.34823221 1.8439126e-40
6.460207 -2.8253648 -0.35717091 1.8439126e-40
6.4359541 -2.7993081 -0.36053401 1.8439126e-40
6.7702751 -2.6745462 -0.34966111 5.5317378e-40
6.7482972 -2.7357411 -0.31997669 4.6097815e-40
6.7562385 -2.706172 -0.33465746 4.6097815e-40
6.7351046 -2.7685397 -0.31699187 4.6097815e-40
6.7372661 -2.7411141 -0.33735844 5.5317378e-40
6.7093143 -2.8298795 -0.30568343 5.5317378e-40
6.7186322 -2.8023939 -0.32169002 5.5317378e-40
6.6868958 -2.8349767 -0.3113206 4.6097815e-40
6.6578226 -2.8685725 -0.30853477 4.6097815e-40
6.6298137 -2.8735595 -0.30853474 5.5317378e-40
6.5955167 -2.9344132 -0.29757488 4.6097815e-40
6.6043687 -2.9070523 -0.30851701 9.219563e-40
6.5803299 -2.9103551 -0.30353436 4.6097815e-40
6.5654874 -2.8855605 -0.31132808 5.5317378e-40
6.5415378 -2.889003 -0.30713806 3.6878252e-40
6.5290103 -2.8652992 -0.32259494 3.6878252e-40
6.5060191 -2.8671818 -0.3113206 2.7658689e-40
6.4836006 -2.8722792 -0.31695774 1.8439126e-40
6.4714394 -2.8460348 -0.31979409 1.8439126e-40
6.4584079 -2.7907648 -0.33735844 2.7658689e-40
6.4511261 -2.7593503 -0.3288095 1.8439126e-40
6.4353657 -2.7960036 -0.3431524 1.8439126e-40
6.4265304 -2.7334342 -0.33785349 1.8439126e-40
6.7726421 -2.6963701 -0.29956973 4.6097815e-40
6.7515163 -2.7313805 -0.30066374 7.3756504e-40
6.7613106 -2.7006814 -0.31126565 3.6878252e-40
6.7343273 -2.7641752 -0.29403239 4.6097815e-40
6.712256 -2.8245654 -0.28125569 4.6097815e-40
6.7216001 -2.7970321 -0.29704362 4.6097815e-40
6.6859417 -2.8296189 -0.28313473 5.5317378e-40
6.656877 -2.8632629 -0.28060108 5.5317378e-40
6.6277566 -2.8936591 -0.26145861 4.6097815e-40
6.63447 -2.8672523 -0.28060108 6.4536941e-40
6.5944023 -2.9281545 -0.26464906 4.6097815e-40
6.6091518 -2.8994534 -0.27411297 6.4536941e-40
6.5796671 -2.9304192 -0.26281983 4.6097815e-40
6.5727129 -2.9061742 -0.27529931 5.5317378e-40
6.5616465 -2.8802187 -0.28060108 4.6097815e-40
6.5392394 -2.8842082 -0.28060108 4.6097815e-40
6.5170212 -2.8892598 -0.2861878 5.5317378e-40
6.5027661 -2.8620124 -0.28200728 2.7658689e-40
6.482265 -2.8647783 -0.27749756 2.7658689e-40
6.4780807 -2.8392751 -0.29135606 1.8439126e-40
6.465744 -2.8119965 -0.29403239 1.8439126e-40
6.4522228 -2.7541857 -0.30346838 1.8439126e-40
6.4436903 -2.7269056 -0.32014206 2.7658689e-40
6.4293957 -2.6656499 -0.33241361 2.7658689e-40
6.4194121 -2.7277548 -0.30243066 1.8439126e-40
6.4241405 -2.6955578 -0.3113454 1.8439126e-40
6.4154701 -2.6332669 -0.32344395 2.7658689e-40
6.4143934 -2.6023481 -0.33888078 1.8439126e-40
6.3937979 -2.5690749 -0.3298687 1.8439126e-40
6.3861718 -2.5373397 -0.34574592 1.8439126e-40
6.3880734 -2.7008104 -0.30538392 1.8439126e-40
6.3807054 -2.6719587 -0.32037538 1.8439126e-40
6.3669305 -2.643101 -0.3295207 1.8439126e-40
6.3466339 -2.7105267 -0.31730688 1.8439126e-40
6.356564 -2.6762571 -0.32037538 1.8439126e-40
6.3528657 -2.6133032 -0.33888078 9.219563e-41
6.7976761 -2.6569314 -0.28471923 3.6878252e-40
6.7718506 -2.6919236 -0.27617788 4.6097815e-40
6.7858367 -2.6590395 -0.28471923 3.6878252e-40
6.7555404 -2.7259297 -0.27652237 4.6097815e-40
6.7318511 -2.7885141 -0.26291788 6.4536941e-40
6.7448668 -2.7566705 -0.26533306 4.6097815e-40
6.7132497 -2.8192291 -0.25494888 5.5317378e-40
6.6793084 -2.8529141 -0.24819805 5.5317378e-40
6.6908312 -2.8243265 -0.26058605 4.6097815e-40
6.6559319 -2.8579531 -0.25266743 4.6097815e-40
6.627007 -2.8894496 -0.23931345 4.6097815e-40
6.6363254 -2.861444 -0.25266743 4.6097815e-40
6.5971422 -2.9222856 -0.23721081 4.6097815e-40
6.6105409 -2.8934672 -0.24484974 5.5317378e-40
6.5874262 -2.9494011 -0.22423013 5.5317378e-40
6.5770593 -2.9263997 -0.23995464 4.6097815e-40
6.564218 -2.9013531 -0.24300432 5.5317378e-40
6.5600877 -2.9267311 -0.22623552 6.4536941e-40
6.5492897 -2.9032872 -0.23931345 4.6097815e-40
6.5369406 -2.8794131 -0.25406411 3.6878252e-40
6.5102849 -2.8838854 -0.25266743 2.7658689e-40
6.4885559 -2.9394672 -0.22623552 2.7658689e-40
6.4771237 -2.9161363 -0.23931345 2.7658689e-40
6.4867573 -2.8880746 -0.25266743 1.8439126e-40
6.4762311 -2.8636415 -0.26622322 1.8439126e-40
6.4665461 -2.9433861 -0.22623552 2.7658689e-40
6.4604702 -2.9191015 -0.23931345 3.6878252e-40
6.4462729 -2.8944061 -0.24819802 2.7658689e-40
6.4536214 -2.8676672 -0.26622322 2.7658689e-40
6.4354892 -2.842397 -0.2686055 1.8439126e-40
6.4334044 -2.7849901 -0.28521329 2.7658689e-40
6.424787 -2.8694844 -0.24931169 1.8439126e-40
6.4240832 -2.8444278 -0.2686055 2.7658689e-40
6.411056 -2.8161054 -0.26533306 1.8439126e-40
6.4101667 -2.7891278 -0.28521323 2.7658689e-40
6.3918009 -2.7591331 -0.27383867 1.8439126e-40
6.3834939 -2.7318344 -0.29062304 1.8439126e-40
6.368227 -2.6718194 -0.30833715 1.8439126e-40
6.3576207 -2.7029588 -0.28869185 1.8439126e-40
6.351861 -2.6731594 -0.30031174 9.219563e-41
6.3316073 -2.6759784 -0.29629901 1.8439126e-40
6.3169513 -2.6448495 -0.29306012 1.8439126e-40
6.7981591 -2.681123 -0.24498877 6.4536941e-40
6.7970767 -2.6535647 -0.2670078 5.5317378e-40
6.7767243 -2.6853216 -0.24693805 4.6097815e-40
6.7852373 -2.6556728 -0.2670078 4.6097815e-40
6.7550178 -2.7469835 -0.22515401 3.6878252e-40
6.762784 -2.7161181 -0.23306802 4.6097815e-40
6.7593312 -2.6895652 -0.25278604 4.6097815e-40
6.7344337 -2.7809899 -0.22689639 4.6097815e-40
6.7403173 -2.7533531 -0.24428692 5.5317378e-40
6.7050247 -2.8415425 -0.21356034 3.6878252e-40
6.7142434 -2.8138931 -0.22864208 4.6097815e-40
6.6760087 -2.8473661 -0.21691237 5.5317378e-40
6.6916337 -2.8179188 -0.22864208 5.5317378e-40
6.6480875 -2.8791821 -0.20609576 4.6097815e-40
6.6559935 -2.8518064 -0.22138178 6.4536941e-40
6.6363788 -2.9088426 -0.20428498 5.5317378e-40
6.6316214 -2.8831997 -0.21163206 4.6097815e-40
6.630775 -2.8573191 -0.22659601 4.6097815e-40
6.6071563 -2.9147627 -0.20794341 4.6097815e-40
6.6153426 -2.8882697 -0.2227046 3.6878252e-40
6.5825534 -2.9457357 -0.20111436 4.6097815e-40
6.5707211 -2.9226851 -0.21526027 4.6097815e-40
6.5595303 -2.9236016 -0.20977263 8.2976067e-40
6.5487275 -2.9001303 -0.2227046 6.4536941e-40
6.5352292 -2.8725052 -0.21728481 3.6878252e-40
6.5154238 -2.9558215 -0.19159614 2.7658689e-40
6.5100083 -2.9324191 -0.20977263 1.8439126e-40
6.5154829 -2.9064114 -0.22455004 2.7658689e-40
6.4966121 -2.9607708 -0.19975463 1.8439126e-40
6.4824963 -2.9373176 -0.20977263 1.8439126e-40
6.4706359 -2.9118631 -0.21163206 1.8439126e-40
6.4606719 -2.9422793 -0.21526027 2.7658689e-40
6.4523191 -2.9162099 -0.21716832 2.7658689e-40
6.439033 -2.8894501 -0.2163537 2.7658689e-40
6.4251232 -2.8924744 -0.21914707 1.8439126e-40
6.4113297 -2.8388908 -0.22879218 2.7658689e-40
6.4104733 -2.8128321 -0.24811348 1.8439126e-40
6.3967824 -2.7812848 -0.23306802 1.8439126e-40
6.3899155 -2.7553396 -0.25278604 1.8439126e-40
6.3851633 -2.7833536 -0.23306802 1.8439126e-40
6.3719282 -2.756249 -0.24109012 1.8439126e-40
6.3706555 -2.7283313 -0.26110396 1.8439126e-40
6.3507957 -2.6992638 -0.26365373 2.7658689e-40
6.3247576 -2.672477 -0.27222249 1.8439126e-40
6.8024707 -2.7033706 -0.20409848 4.6097815e-40
6.7980962 -2.6762412 -0.22003742 4.6097815e-40
6.7792325 -2.7075081 -0.20409848 5.5317378e-40
6.7817965 -2.679831 -0.22354624 4.6097815e-40
6.7582068 -2.7426634 -0.20602114 4.6097815e-40
6.7680054 -2.7117796 -0.21568628 3.6878252e-40
6.7354364 -2.7756066 -0.20035411 7.3756504e-40
6.7079396 -2.8362758 -0.18935119 1.0141519e-39
6.717185 -2.808579 -0.2042143 4.6097815e-40
6.6818609 -2.8412845 -0.1912134 5.5317378e-40
6.694766 -2.8136761 -0.20985149 7.3756504e-40
6.6584406 -2.8729956 -0.18395062 6.4536941e-40
6.6387806 -2.9041104 -0.18233436 4.6097815e-40
6.625133 -2.878926 -0.18395062 4.6097815e-40
6.6081238 -2.9095688 -0.18233436 5.5317378e-40
6.5803156 -2.9410675 -0.17527916 5.5317378e-40
6.5586019 -2.9183857 -0.18233442 3.6878252e-40
6.5418649 -2.8937521 -0.18395062 4.6097815e-40
6.5148716 -2.9527199 -0.17527916 3.6878252e-40
6.5252156 -2.922178 -0.17135914 2.7658689e-40
6.5253987 -2.8977695 -0.18948688 4.6097815e-40
6.4930568 -2.956604 -0.17527916 1.8439126e-40
6.4819388 -2.9341881 -0.19330969 2.7658689e-40
6.4700737 -2.9087059 -0.19502318 2.7658689e-40
6.4648743 -2.9339979 -0.1768468 2.7658689e-40
6.458971 -2.9106827 -0.19502318 2.7658689e-40
6.4429135 -2.8841941 -0.19307566 2.7658689e-40
6.4339933 -2.8556848 -0.1873028 2.7658689e-40
6.424367 -2.8882267 -0.19680014 2.7658689e-40
6.4155335 -2.8611825 -0.19857715 2.7658689e-40
6.8012938 -2.6967623 -0.16933499 5.5317378e-40
6.7982001 -2.6700292 -0.1884585 4.6097815e-40
6.7760963 -2.7319739 -0.1677554 6.4536941e-40
6.782321 -2.7024131 -0.18092288 4.6097815e-40
6.7592187 -2.7372303 -0.1792351 4.6097815e-40
6.7344737 -2.7702007 -0.17191604 8.2976067e-40
6.7033229 -2.831985 -0.1632798 7.3756504e-40
6.7158494 -2.8010778 -0.16475411 8.2976067e-40
6.6795211 -2.8627279 -0.15073292 4.6097815e-40
6.6826239 -2.8362963 -0.16647221 8.2976067e-40
6.6552458 -2.8679187 -0.15516192 9.219563e-40
6.6288338 -2.8983479 -0.14392096 7.3756504e-40
6.6299348 -2.873728 -0.16180548 4.6097815e-40
6.6046004 -2.9299881 -0.14083217 4.6097815e-40
6.6090913 -2.9043739 -0.15672541 4.6097815e-40
6.5793953 -2.9358981 -0.14808416 5.5317378e-40
6.5517588 -2.9386854 -0.13720618 8.2976067e-40
6.5466681 -2.9151299 -0.15489618 3.6878252e-40
6.5216894 -2.9458678 -0.14653015 3.6878252e-40
6.5024629 -2.9219244 -0.14940856 2.7658689e-40
6.4992852 -2.9494503 -0.14445814 1.8439126e-40
6.4849296 -2.9254766 -0.15160364 1.8439126e-40
6.4687619 -2.9013393 -0.15626919 2.7658689e-40
6.4576597 -2.903316 -0.15626919 2.7658689e-40
6.4456396 -2.8778656 -0.1632798 2.7658689e-40
6.4332299 -2.8513982 -0.16475411 1.8439126e-40
6.8173585 -2.630271 -0.16664305 1.2907388e-39
6.8122592 -2.6910224 -0.15002203 1.6595213e-39
6.8026786 -2.6612039 -0.14752278 3.5034339e-39
6.7810745 -2.7265849 -0.14479592 7.3756504e-40
6.7892828 -2.6966286 -0.15774716 5.5317378e-40
6.7587123 -2.7599895 -0.14185289 5.5317378e-40
6.7260094 -2.7926359 -0.13093108 1.6595213e-39
6.7347288 -2.7650247 -0.145753 4.6097815e-40
6.7077904 -2.8246157 -0.12975945 6.4536941e-40
6.678772 -2.8585184 -0.12858778 5.5317378e-40
6.6813817 -2.8293176 -0.12975942 6.4536941e-40
6.656642 -2.8628926 -0.13080227 4.6097815e-40
6.6328278 -2.9199843 -0.11545016 6.4536941e-40
6.644598 -2.8912361 -0.12197036 4.6097815e-40
6.6110129 -2.9238687 -0.11545013 5.5317378e-40
6.5782909 -2.9296947 -0.11545016 9.219563e-40
6.5510225 -2.9345498 -0.11545016 5.5317378e-40
6.5239525 -2.9650137 -0.10906371 2.7658689e-40
6.5239015 -2.940232 -0.11980138 4.6097815e-40
6.4914212 -2.9702773 -0.10636763 3.6878252e-40
6.4912529 -2.9464719 -0.12197697 1.8439126e-40
6.4681997 -2.8981822 -0.13966034 1.8439126e-40
6.4653358 -2.948384 -0.10819813 3.6878252e-40
6.463017 -2.9235666 -0.12197036 2.7658689e-40
6.453022 -2.8987131 -0.12858775 2.7658689e-40
6.4390926 -2.873553 -0.13534613 2.7658689e-40
6.4341431 -2.8999031 -0.11751517 2.7658689e-40
6.4192972 -2.8759818 -0.12975939 1.8439126e-40
6.8255396 -2.653693 -0.1299789 4.6097815e-40
6.8064952 -2.7451079 -0.10935219 4.6097815e-40
6.8099689 -2.6568475 -0.13192821 4.6097815e-40
6.803998 -2.7721169 -0.097107984 3.6878252e-40
6.7882457 -2.7483573 -0.10935216 4.6097815e-40
6.7971749 -2.7169642 -0.11035673 4.6097815e-40
6.7608714 -2.7532315 -0.10935219 5.5317378e-40
6.7252464 -2.7883496 -0.10838233 6.4536941e-40
6.7380595 -2.7572925 -0.10935222 4.6097815e-40
6.7068448 -2.8193059 -0.10182571 4.6097815e-40
6.6863046 -2.84936 -0.088726528 4.6097815e-40
6.6790247 -2.8253548 -0.10741249 6.4536941e-40
6.6598086 -2.8549459 -0.093155488 4.6097815e-40
6.6317229 -2.9137812 -0.082816124 4.6097815e-40
6.6436691 -2.8860202 -0.094532117 4.6097815e-40
6.6099086 -2.9176655 -0.082816154 4.6097815e-40
6.5767422 -2.9482121 -0.071318612 1.4751301e-39
6.5788498 -2.923805 -0.085924119 5.5317378e-40
6.5552979 -2.953088 -0.076710761 4.6097815e-40
6.5510087 -2.9281526 -0.082816154 3.6878252e-40
6.5195575 -2.9612141 -0.085697703 3.6878252e-40
6.5296755 -2.9305286 -0.075564116 3.6878252e-40
6.4961891 -2.9657271 -0.087495089 2.7658689e-40
6.4854174 -2.9389777 -0.07846497 2.7658689e-40
6.4626594 -2.9438832 -0.082816124 2.7658689e-40
6.445581 -2.9212899 -0.094532117 2.7658689e-40
6.4343905 -2.9222064 -0.089044489 4.6097815e-40
6.4262419 -2.8984146 -0.10275172 2.7658689e-40
6.4099488 -2.8721681 -0.10182571 2.7658689e-40
6.3972168 -2.84565 -0.10274517 1.8439126e-40
6.8249459 -2.650358 -0.11243498 5.5317378e-40
6.8145399 -2.7658179 -0.074559294 4.6097815e-40
6.8053398 -2.738621 -0.075226501 5.5317378e-40
6.8127117 -2.7971694 -0.085065559 4.6097815e-40
6.8036165 -2.7699738 -0.085833661 3.6878252e-40
6.7865868 -2.7434473 -0.082810014 4.6097815e-40
6.7960095 -2.7104177 -0.07591752 4.6097815e-40
6.7622285 -2.7476354 -0.082051605 4.6097815e-40
6.7336826 -2.779583 -0.07133802 4.6097815e-40
6.7372894 -2.7529681 -0.086601712 3.6878252e-40
6.706944 -2.8133719 -0.071657464 4.6097815e-40
6.6803489 -2.8459325 -0.065843202 4.6097815e-40
6.6890941 -2.8169885 -0.073892079 5.5317378e-40
6.6600571 -2.8499074 -0.067688629 5.5317378e-40
6.6380787 -2.8801284 -0.059411202 1.4751301e-39
6.6089878 -2.9124961 -0.055621143 4.6097815e-40
6.5760121 -2.9441123 -0.049749963 3.6878252e-40
6.5871735 -2.9163802 -0.055621143 5.5317378e-40
6.5543857 -2.947963 -0.049749963 8.2976067e-40
6.5325761 -2.9507887 -0.044357814 8.2976067e-40
6.5195847 -2.9286273 -0.056708924 4.6097815e-40
6.489007 -2.9338586 -0.055621143 3.6878252e-40
6.4617386 -2.9387138 -0.055621143 3.6878252e-40
6.4444666 -2.9150314 -0.061606254 2.7658689e-40
6.4437466 -2.8895073 -0.073224925 3.6878252e-40
6.4324565 -2.8904316 -0.067688629 2.7658689e-40
6.4205852 -2.8669875 -0.085065559 2.7658689e-40
6.4151044 -2.8369374 -0.074559294 5.5317378e-40
6.4006219 -2.8117967 -0.08091408 2.7658689e-40
6.8159761 -2.7322657 -0.052475967 4.6097815e-40
6.8067431 -2.704004 -0.052958053 4.6097815e-40
6.7817583 -2.738358 -0.052476082 4.6097815e-40
6.7954268 -2.7071445 -0.05869795 1.0141519e-39
6.757062 -2.7705243 -0.046373472 5.5317378e-40
6.7675972 -2.7414374 -0.055319812 4.6097815e-40
6.7344522 -2.7745497 -0.046373472 4.6097815e-40
6.7103667 -2.806627 -0.040371757 5.5317378e-40
6.6868763 -2.8397038 -0.04000717 4.6097815e-40
6.6566873 -2.8447683 -0.038425386 3.6878252e-40
6.6298823 -2.9034424 -0.028426191 4.6097815e-40
6.6361237 -2.8755257 -0.034168076 9.219563e-40
6.6080675 -2.9073267 -0.028426191 7.3756504e-40
6.5788589 -2.9118159 -0.024800232 4.6097815e-40
6.5513468 -2.943428 -0.023867641 5.5317378e-40
6.523159 -2.9480243 -0.021710806 3.6878252e-40
6.5137825 -2.9255359 -0.035678167 9.219563e-40
6.4880867 -2.9286892 -0.028426191 3.6878252e-40
6.4662719 -2.9325733 -0.028426249 2.7658689e-40
6.4545431 -2.9078562 -0.034168076 2.7658689e-40
6.4426222 -2.8831933 -0.040007226 1.8439126e-40
6.43152 -2.88517 -0.040007226 2.7658689e-40
6.8152061 -2.727941 -0.029725542 6.4536941e-40
6.8059659 -2.6996398 -0.029998643 8.2976067e-40
6.7967839 -2.6714315 -0.036075003 5.5317378e-40
6.7807956 -2.7329526 -0.024037967 5.5317378e-40
6.7561078 -2.7651665 -0.018187594 4.6097815e-40
6.7693896 -2.7349834 -0.024037967 6.4536941e-40
6.7334986 -2.769192 -0.018187594 5.5317378e-40
6.7056236 -2.8016281 -0.010575889 8.2976067e-40
6.6814609 -2.835022 -0.011218554 4.6097815e-40
6.6868248 -2.8042448 -0.006851376 6.4536941e-40
6.6513309 -2.8652849 0.0042454195 7.3756504e-40
6.6591811 -2.8385546 -0.0090040732 4.6097815e-40
6.628778 -2.897239 0.004207788 4.6097815e-40
6.6406975 -2.8693302 -0.0067298985 5.5317378e-40
6.6069632 -2.9011233 0.0042077298 4.6097815e-40
6.5794115 -2.931875 0.0095637245 4.6097815e-40
6.5746093 -2.9090171 -0.0066702045 4.6097815e-40
6.5511632 -2.9376976 0.0055196132 4.6097815e-40
6.5201201 -2.9434893 0.0041715764 3.6878252e-40
6.4869823 -2.9224858 0.0042077298 1.8439126e-40
6.4655356 -2.9284377 -0.0066702045 1.8439126e-40
6.4562726 -2.9016292 -0.0039860103 1.8439126e-40
6.4368629 -2.8502114 -0.014300343 1.8439126e-40
6.4278879 -2.8213949 -0.0069132191 1.8439126e-40
6.7998071 -2.6659694 -0.010968123 4.6097815e-40
6.7796407 -2.7264657 0.010087725 3.6878252e-40
6.7877288 -2.6972587 -0.0012993356 3.6878252e-40
6.7637877 -2.7299576 0.0066752024 5.5317378e-40
6.7325444 -2.7638342 0.009998342 4.6097815e-40
6.7028742 -2.7970047 0.015495525 5.5317378e-40
6.6737127 -2.8301044 0.020891869 4.6097815e-40
6.6860685 -2.7999969 0.015495583 4.6097815e-40
6.6504025 -2.8600693 0.031683598 5.5317378e-40
6.6589718 -2.8330908 0.019046439 5.5317378e-40
6.6278572 -2.8920696 0.0314028 1.0141519e-39
6.6395831 -2.8630714 0.026195997 7.3756504e-40
6.6060429 -2.8959539 0.03140286 4.6097815e-40
6.5769401 -2.9284377 0.029334992 5.5317378e-40
6.5696235 -2.9020827 0.03321581 1.1985432e-39
6.5464239 -2.934576 0.025740227 5.5317378e-40
6.5458684 -2.905601 0.036841825 4.6097815e-40
6.5214071 -2.9381845 0.030053899 3.6878252e-40
6.5076923 -2.9123983 0.036841825 2.7658689e-40
6.4860616 -2.9173164 0.031402741 1.8439126e-40
6.4635048 -2.8944223 0.026195997 1.8439126e-40
6.4516635 -2.8696401 0.020891869 1.8439126e-40
6.439589 -2.8438826 0.015495525 1.8439126e-40
6.4273157 -2.8181803 0.0099982843 1.8439126e-40
6.4146509 -2.7914522 0.010087725 1.8439126e-40
6.7790632 -2.7232223 0.027150629 5.5317378e-40
6.7583017 -2.7255802 0.033975791 4.6097815e-40
6.7279496 -2.7598619 0.034426056 8.2976067e-40
6.7019286 -2.7916951 0.043429166 4.6097815e-40
6.6764765 -2.8241835 0.04857333 4.6097815e-40
6.6853123 -2.7957492 0.037842482 5.5317378e-40
6.6570582 -2.854938 0.051804956 4.6097815e-40
6.6616735 -2.8268192 0.04857333 3.6878252e-40
6.6325746 -2.8869631 0.053158842 4.6097815e-40
6.6325951 -2.8557062 0.070097148 4.6097815e-40
6.6051221 -2.8907845 0.058597811 4.6097815e-40
6.5724001 -2.8966105 0.05859787 7.3756504e-40
6.5453157 -2.9024994 0.053158786 4.6097815e-40
6.5390534 -2.8723612 0.070097148 3.6878252e-40
6.5164104 -2.9071894 0.055489846 5.5317378e-40
6.5060387 -2.8782396 0.070097148 4.6097815e-40
6.4926586 -2.9122307 0.051345836 2.7658689e-40
6.478898 -2.8852246 0.059121832 3.6878252e-40
6.4614544 -2.8602967 0.059645917 2.7658689e-40
6.4627619 -2.89025 0.048146516 1.8439126e-40
6.4496584 -2.8355162 0.049015906 3.6878252e-40
6.426743 -2.8149657 0.026909787 2.7658689e-40
6.7687144 -2.6905131 0.050359439 5.5317378e-40
6.7438831 -2.7239091 0.055588745 4.6097815e-40
6.7572036 -2.6925626 0.050359439 4.6097815e-40
6.7585931 -2.658915 0.062421534 5.5317378e-40
6.728611 -2.7262561 0.057484504 4.6097815e-40
6.7218943 -2.6943469 0.073318966 4.6097815e-40
6.7013612 -2.7885091 0.060189441 5.5317378e-40
6.7021837 -2.7570791 0.072007224 4.6097815e-40
6.6744666 -2.7904801 0.074555278 4.6097815e-40
6.6440825 -2.8245225 0.076254793 3.6878252e-40
6.6501884 -2.7932377 0.08253634 3.6878252e-40
6.6192608 -2.8552108 0.084730849 4.6097815e-40
6.6268668 -2.8243308 0.092863612 2.7658689e-40
6.5989323 -2.8876197 0.080353796 9.219563e-40
6.5933352 -2.8583918 0.092047669 4.6097815e-40
6.5771174 -2.8915038 0.080353796 8.2976067e-40
6.5660086 -2.8643336 0.086560011 4.6097815e-40
6.5547009 -2.8371799 0.092863612 5.5317378e-40
6.5441842 -2.8692956 0.081072412 4.6097815e-40
6.5273194 -2.8442264 0.081791081 4.6097815e-40
6.5166721 -2.8741941 0.081072412 4.6097815e-40
6.4995637 -2.8491685 0.081791081 7.3756504e-40
6.4721823 -2.8562152 0.070718497 1.8439126e-40
6.4711199 -2.8262165 0.076949604 2.7658689e-40
6.4644022 -2.7972052 0.083281539 1.8439126e-40
6.7099953 -2.6942143 0.084798701 3.6878252e-40
6.6972966 -2.7266266 0.084026858 3.6878252e-40
6.6980958 -2.6940815 0.096278436 3.6878252e-40
6.669826 -2.7866735 0.098179229 5.5317378e-40
6.6438303 -2.7899873 0.1048833 4.6097815e-40
6.6153898 -2.8242025 0.1039362 4.6097815e-40
6.6230388 -2.7922287 0.11233227 4.6097815e-40
6.5929976 -2.8271039 0.10947248 4.6097815e-40
6.5709801 -2.8321097 0.1039362 8.2976067e-40
6.5596776 -2.8042405 0.10860775 6.4536941e-40
6.5377746 -2.8110619 0.093709819 3.6878252e-40
6.5260057 -2.7829204 0.10019305 2.7658689e-40
6.5217638 -2.7541621 0.10298546 4.6097815e-40
6.4922824 -2.7900302 0.094555914 3.6878252e-40
6.4916048 -2.7610192 0.095402069 2.7658689e-40
6.4678817 -2.7350712 0.096278436 2.7658689e-40
6.4553199 -2.7060955 0.097184956 2.7658689e-40
6.6479478 -2.8140626 0.1260813 3.6878252e-40
6.6372833 -2.785675 0.13281688 3.6878252e-40
6.6149139 -2.7898772 0.13169955 4.6097815e-40
6.6151085 -2.7593167 0.1396533 3.6878252e-40
6.5868669 -2.7946517 0.13281688 6.4536941e-40
6.5700617 -2.7976439 0.13281688 4.6097815e-40
6.5533137 -2.7725303 0.12837887 3.6878252e-40
6.5363569 -2.7755497 0.12837899 4.6097815e-40
6.5248604 -2.749521 0.12384018 2.7658689e-40
6.5072951 -2.7229881 0.1221078 3.6878252e-40
6.5010118 -2.6934147 0.12036061 4.6097815e-40
6.4905148 -2.7287903 0.10775811 3.6878252e-40
6.4756069 -2.6988473 0.11572553 3.6878252e-40
