# .PCD v0.7 - Point Cloud Data file format
VERSION 0.7
FIELDS x y z rgb
SIZE 4 4 4 4
TYPE F F F F
COUNT 1 1 1 1
WIDTH 688
HEIGHT 1
VIEWPOINT 0 0 0 1 0 0 0
POINTS 688
DATA ascii
0.82807869 -4.160183 -1.4750947 3.0374265e-39
0.85677111 -4.1500597 -1.4724329 2.0254046e-39
0.88493043 -4.1385369 -1.4750947 1.3789716e-39
0.83262372 -4.2298126 -1.4596097 4.6075702e-39
0.82931834 -4.2965117 -1.4711636 7.2805331e-39
0.83671254 -4.1673169 -1.4404923 3.0363237e-39
0.85711932 -4.1587458 -1.443154 1.7470282e-39
0.88056648 -4.2139955 -1.4515185 1.194939e-39
0.90332222 -4.2028947 -1.4596097 1.1956621e-39
0.93474376 -4.1909313 -1.4596096 9.2194789e-40
0.81503755 -4.3068881 -1.4547623 3.5862703e-39
0.8282907 -4.370935 -1.457878 3.9568255e-39
0.82015431 -4.2443075 -1.4272451 3.2200031e-39
0.83215892 -4.1786704 -1.4085517 1.9335747e-39
0.86316895 -4.1668634 -1.4085517 7.3647903e-40
0.89417899 -4.155057 -1.4085517 6.4357294e-40
0.93509656 -4.1997323 -1.4299423 5.5137311e-40
0.95999092 -4.2566385 -1.4383612 2.7623096e-40
0.8035481 -4.1967788 -1.3845962 4.7869519e-39
0.83455813 -4.1849718 -1.3845962 2.9480699e-39
0.86556816 -4.1731648 -1.3845962 1.1074097e-39
0.89657819 -4.1613584 -1.3845962 1.1041797e-39
0.98921937 -4.380928 -1.461161 2.7658969e-40
1.0053704 -4.4482241 -1.4645902 4.5989635e-40
0.93337095 -4.210948 -1.3948807 9.1979129e-40
0.8059473 -4.2030802 -1.3606409 4.5099978e-39
0.83695734 -4.1912732 -1.3606409 1.9339306e-39
0.86796737 -4.1794662 -1.3606409 1.6573451e-39
0.8989774 -4.1676598 -1.3606409 1.1052559e-39
1.0079377 -4.4549665 -1.4389551 7.361203e-40
1.040346 -4.5147352 -1.450515 5.5173885e-40
1.0542058 -4.5767655 -1.4890883 4.5990055e-40
0.93580198 -4.2173333 -1.3706074 7.361203e-40
1.0730354 -4.5748911 -1.4715072 2.7622535e-40
0.7745167 -4.1629529 -1.319537 4.4185309e-39
0.78668845 -4.2224369 -1.3207151 4.141567e-39
0.80914605 -4.2114816 -1.3287002 3.4987186e-39
0.84015602 -4.1996746 -1.3287002 1.5658698e-39
0.87116611 -4.1878676 -1.3287002 2.1165296e-39
0.8944236 -4.1790128 -1.3287002 1.4729609e-39
0.92252225 -4.2297001 -1.346334 8.2940894e-40
0.95145923 -4.2821145 -1.3645555 5.5209058e-40
1.0105052 -4.46171 -1.4133199 4.6025508e-40
1.0270973 -4.4553928 -1.4133199 3.6806786e-40
1.0589072 -4.512888 -1.4331847 1.8403113e-40
1.0757325 -4.5064816 -1.4331847 1.012703e-39
1.1106946 -4.5711427 -1.436345 1.8381463e-39
0.77925348 -4.1753941 -1.2722408 3.4054481e-39
0.78828776 -4.2266374 -1.3047448 4.0475791e-39
0.81234503 -4.2198834 -1.2967596 3.4058125e-39
0.84335506 -4.2080765 -1.2967596 1.9346509e-39
0.87151432 -4.1965537 -1.2994213 1.2878521e-39
0.87109005 -4.1404281 -1.2722408 1.6548368e-39
0.89762259 -4.1874146 -1.2967596 1.9343146e-39
0.92576367 -4.2382131 -1.3139695 1.2896514e-39
0.96822816 -4.3501973 -1.3498232 8.2759706e-40
0.99850267 -4.4053102 -1.3684672 5.5173184e-40
1.0379608 -4.4589772 -1.3876848 2.7622535e-40
1.0628489 -4.449501 -1.3876848 3.6806085e-40
1.1124555 -4.5757675 -1.4187639 1.1027448e-39
0.7922864 -4.2371397 -1.264819 2.2079994e-39
0.81554389 -4.2282848 -1.264819 2.9451973e-39
0.84655386 -4.2164779 -1.264819 2.2101616e-39
0.87756395 -4.2046709 -1.264819 1.2896444e-39
0.90082145 -4.195816 -1.264819 2.0232522e-39
0.94210619 -4.3054342 -1.2989504 1.5658768e-39
0.97239035 -4.3611293 -1.3082638 5.5352691e-40
0.98467225 -4.41819 -1.3431871 6.4428621e-40
1.0164957 -4.4774437 -1.3535047 4.5989635e-40
1.0330878 -4.4711266 -1.3535047 2.7586662e-40
1.0649818 -4.5288429 -1.3725288 2.7586662e-40
1.0662721 -4.4584918 -1.3535047 1.8403113e-40
0.79003888 -4.3069472 -1.2573316 2.0239696e-39
0.81360507 -4.2979746 -1.2573316 2.5771378e-39
0.82569551 -4.2316346 -1.2408637 2.7619004e-39
0.84895301 -4.2227793 -1.2408637 2.8555338e-39
0.87996304 -4.2109723 -1.2408637 1.3829176e-39
0.90322053 -4.2021174 -1.2408637 1.0123443e-39
0.93143588 -4.2531114 -1.2573316 1.3825575e-39
0.97405535 -4.3655024 -1.29164 9.1943396e-40
1.019063 -4.4841866 -1.3278695 7.350441e-40
1.0356551 -4.4778695 -1.3278695 6.4321842e-40
1.0675852 -4.5356808 -1.3465333 2.7622676e-40
1.0688394 -4.4652348 -1.3278695 1.8438986e-40
0.79165965 -4.3112035 -1.2411494 1.3811212e-39
0.78933221 -4.2526941 -1.2169082 1.9321341e-39
0.80899107 -4.3094783 -1.2249672 2.209793e-39
0.82034218 -4.2408872 -1.2169082 2.5814552e-39
0.85135216 -4.2290802 -1.2169082 3.3136239e-39
0.88236225 -4.2172732 -1.2169082 1.6580752e-39
0.90561974 -4.2084184 -1.2169082 1.3793289e-39
0.93386692 -4.2594962 -1.2330583 1.380045e-39
0.96295744 -4.312314 -1.2497467 7.361203e-40
1.006942 -4.4274759 -1.2842002 2.7622535e-40
1.0465187 -4.4814544 -1.3022344 4.5953902e-40
1.0714068 -4.4719782 -1.3022344 4.5953902e-40
0.76927358 -4.2699509 -1.1849676 1.0112681e-39
0.79253107 -4.261096 -1.1849676 1.9321341e-39
0.82354105 -4.249289 -1.1849676 3.1317479e-39
0.85455108 -4.2374821 -1.1849676 3.3125378e-39
0.88556111 -4.2256751 -1.1849676 2.0254046e-39
0.9088186 -4.2168202 -1.1849676 1.2867745e-39
0.93629795 -4.2658811 -1.2087849 7.3647903e-40
0.95114046 -4.3291621 -1.2087436 9.1979269e-40
0.9798823 -4.3808064 -1.2334567 5.5209058e-40
1.0094738 -4.4341259 -1.2589201 2.7694282e-40
1.0259094 -4.5021682 -1.2595092 9.1907383e-40
1.0499418 -4.4904447 -1.2680542 3.6806085e-40
0.77247244 -4.2783523 -1.1530271 6.4356874e-40
0.79572994 -4.2694974 -1.1530271 2.3009181e-39
0.82673991 -4.2576904 -1.1530271 3.5905569e-39
0.83780307 -4.1910863 -1.1461176 3.0398998e-39
0.85854971 -4.2479844 -1.1450418 3.5909156e-39
0.86076224 -4.1823444 -1.1461176 1.9364417e-39
0.88955975 -4.2361774 -1.1450418 2.3945402e-39
0.88372135 -4.1736031 -1.1461176 1.8410161e-39
0.92463875 -4.2825041 -1.1683294 1.471163e-39
0.95278317 -4.3334765 -1.1923423 6.439541e-40
0.9679051 -4.3978834 -1.1918972 7.35791e-40
0.99733132 -4.4514384 -1.2167865 5.5209058e-40
1.0284768 -4.5089116 -1.2338741 6.4464354e-40
1.045069 -4.5025945 -1.2338741 2.7660791e-40
1.0762635 -4.5584741 -1.2598819 2.7586802e-40
0.77567142 -4.2867541 -1.1210865 8.2723833e-40
0.79892892 -4.2778993 -1.1210865 2.9466602e-39
0.82993889 -4.2660923 -1.1210865 3.4076061e-39
0.86094886 -4.2542853 -1.1210865 3.4976424e-39
0.89195895 -4.2424784 -1.1210865 2.1183163e-39
0.98350066 -4.4643178 -1.1915064 8.2831593e-40
0.92788017 -4.2910175 -1.1359649 1.2896444e-39
1.0227481 -4.5188131 -1.208239 6.4392607e-40
1.0629095 -4.573997 -1.2252213 4.5991036e-40
0.77887017 -4.2951555 -1.0891458 1.0105506e-39
0.80212766 -4.2863007 -1.0891458 2.7597326e-39
0.83313763 -4.2744937 -1.0891458 3.2221443e-39
0.8641476 -4.2626867 -1.0891458 2.8544352e-39
0.89230692 -4.251164 -1.0918075 1.9346509e-39
0.9303112 -4.2974024 -1.1116915 9.1979129e-40
0.97206753 -4.4088154 -1.1503377 6.442848e-40
1.0023949 -4.4647379 -1.1662263 4.6061381e-40
1.0336115 -4.5223975 -1.1826038 5.5173184e-40
1.0655129 -4.5808344 -1.1992258 4.5990335e-40
1.1152517 -4.7113676 -1.2344253 2.7586662e-40
0.77644467 -4.3657327 -1.079327 7.350441e-40
0.79215544 -4.3597512 -1.079327 9.187151e-40
0.80452687 -4.2926021 -1.0651904 2.2991174e-39
0.83553684 -4.2807951 -1.0651904 2.4831471e-39
0.86654687 -4.2689881 -1.0651904 2.0243284e-39
0.88980436 -4.2601333 -1.0651904 2.2983999e-39
0.91703153 -4.3097687 -1.0874182 2.0246871e-39
0.93274224 -4.3037872 -1.0874182 1.3804037e-39
0.97539729 -4.4175611 -1.1170901 5.5209058e-40
1.0057707 -4.4736042 -1.1325195 2.7622535e-40
1.0370346 -4.5313883 -1.1484237 2.7586942e-40
1.0681164 -4.5876727 -1.1732304 2.7658409e-40
1.1179316 -4.7184062 -1.2076669 1.8438986e-40
0.76736379 -4.3115616 -1.0492201 4.5953761e-40
0.74841124 -4.2036686 -1.0069672 2.7622535e-40
0.77390409 -4.2534003 -1.0199943 1.2867745e-39
0.7828688 -4.3056579 -1.0492201 1.3782513e-39
0.78921014 -4.2475729 -1.0199943 3.1270732e-39
0.80924356 -4.2972188 -1.0438967 3.0359664e-39
0.83793604 -4.287097 -1.041235 3.311819e-39
0.86894608 -4.27529 -1.041235 1.7499051e-39
0.89763844 -4.2651672 -1.0385733 7.3755523e-40
0.91946244 -4.3161535 -1.0631448 1.1041797e-39
0.94917917 -4.3718953 -1.0693328 7.3576157e-40
0.97872704 -4.4263062 -1.0838425 4.5989635e-40
1.02301 -4.5444489 -1.1227885 2.7622535e-40
1.0623072 -4.5977139 -1.1472349 2.7586942e-40
1.1041853 -4.734385 -1.171989 2.7586662e-40
0.77115685 -4.2028208 -0.98102713 1.2871333e-39
0.80151927 -4.2492166 -0.99897373 1.9328586e-39
0.84113491 -4.2954984 -1.0092944 1.8402986e-39
0.87214488 -4.2836914 -1.0092944 2.2087266e-39
0.90315497 -4.2718844 -1.0092944 1.564795e-39
0.93922484 -4.3208137 -1.0226891 4.6025788e-40
0.98122424 -4.4328651 -1.0589068 3.6806085e-40
1.0116782 -4.48912 -1.0735325 8.268796e-40
1.0338736 -4.5480337 -1.0971534 5.5137591e-40
1.0657785 -4.6068311 -1.1125743 1.8403253e-40
1.089421 -4.6692567 -1.1374662 1.8438986e-40
0.79957521 -4.2594533 -0.96744287 1.0112751e-39
0.79997808 -4.2027845 -0.94471097 1.6580668e-39
0.83379102 -4.2495914 -0.9569326 1.4725979e-39
0.84353399 -4.3017993 -0.98533893 6.4464354e-40
0.87534386 -4.2920933 -0.97735375 8.2867326e-40
0.90635395 -4.2802863 -0.97735375 8.279572e-40
0.94797331 -4.328042 -0.98762763 1.0130645e-39
0.97085172 -4.3809328 -1.0119284 7.393587e-40
0.98288924 -4.4372382 -1.0422829 2.7622535e-40
1.0372967 -4.5570245 -1.0629733 1.8439126e-40
1.0767946 -4.6104655 -1.0865788 4.5954042e-40
0.7986837 -4.2724547 -0.92540181 1.1023903e-39
0.80797046 -4.3249598 -0.95339835 7.3504691e-40
0.80231637 -4.2089257 -0.9213649 2.6725592e-39
0.83615947 -4.2558117 -0.93328452 2.487103e-39
0.85990804 -4.2491441 -0.92540181 1.6566291e-39
0.88086027 -4.298811 -0.94807494 9.2052137e-40
0.90955269 -4.2886877 -0.94541317 7.371993e-40
0.93281019 -4.2798328 -0.94541317 1.1034623e-39
0.96060783 -4.3297296 -0.96605134 1.3818386e-39
0.99006027 -4.3834982 -0.97912598 9.1979129e-40
1.0023583 -4.4398384 -1.0090353 5.5244931e-40
1.0634406 -4.625989 -1.0519183 2.7586662e-40
0.79110259 -4.2249141 -0.88245475 1.6544865e-39
0.8109929 -4.2740984 -0.90438122 2.7615277e-39
0.8393172 -4.2641053 -0.90175366 3.3146986e-39
0.86227638 -4.2553639 -0.90175366 1.7488219e-39
0.88523555 -4.2466221 -0.90175366 6.4392607e-40
0.91970438 -4.292037 -0.92145777 6.4429181e-40
0.90898407 -4.2399545 -0.89387095 6.4429041e-40
0.93520939 -4.2861338 -0.92145777 4.6061381e-40
0.96303886 -4.3361144 -0.94177794 1.103112e-39
0.97874969 -4.3301325 -0.94177794 1.0112681e-39
0.79266137 -4.2290082 -0.86689067 1.9307006e-39
0.81872642 -4.2790675 -0.87810552 3.4962074e-39
0.84168553 -4.2703261 -0.87810552 2.9466294e-39
0.86464471 -4.2615848 -0.87810552 2.1197512e-39
0.87995082 -4.2557569 -0.87810552 1.2896444e-39
0.91515088 -4.3033905 -0.88951713 1.196374e-39
0.93760848 -4.2924352 -0.8975023 6.442848e-40
0.96628028 -4.3446279 -0.90941352 4.6061381e-40
0.98199111 -4.3386459 -0.90941352 4.6025508e-40
1.012554 -4.3946924 -0.91352093 4.5989635e-40
1.0251575 -4.4511843 -0.94254023 9.1979129e-40
1.0284774 -4.3886294 -0.91352093 3.6806225e-40
0.80046266 -4.3518672 -0.87354684 4.5989635e-40
0.81423134 -4.2902751 -0.84657472 3.6827497e-39
0.82372016 -4.3430123 -0.87354684 2.7615249e-39
0.84405398 -4.2765465 -0.85445744 2.854438e-39
0.86701316 -4.2678051 -0.85445744 2.211228e-39
0.88231927 -4.2619772 -0.85445744 1.4740679e-39
0.91754997 -4.3096919 -0.86556172 1.0119855e-39
0.94080746 -4.300837 -0.86556172 5.5244931e-40
0.9695217 -4.3531413 -0.87704897 3.6841958e-40
0.99308783 -4.3441687 -0.87704897 2.7622535e-40
1.0216208 -4.3324924 -0.87974602 2.7622535e-40
0.82425261 -4.2935815 -0.82292664 3.8714429e-39
0.81996614 -4.3564658 -0.83362114 2.1129409e-39
0.84721172 -4.2848401 -0.82292664 3.1346234e-39
0.85933882 -4.2223711 -0.80463445 2.4856611e-39
0.86938149 -4.2740254 -0.83080935 1.658064e-39
0.87444937 -4.2166176 -0.80463445 2.0232536e-39
0.89541805 -4.2656941 -0.82555419 1.5640747e-39
0.92770153 -4.3130417 -0.84160632 1.1041812e-39
0.9168787 -4.2606888 -0.81504393 1.4704455e-39
0.94890803 -4.3065705 -0.83628285 9.1979269e-40
0.98766333 -4.3535438 -0.85277563 4.5989635e-40
1.0174818 -4.4076347 -0.86431718 2.7622535e-40
1.0190848 -4.3415804 -0.85277563 2.7622676e-40
1.047686 -4.3911953 -0.88071841 1.8403113e-40
0.83946979 -4.3610644 -0.79369539 3.3164853e-39
0.81556576 -4.2437243 -0.78907037 3.0406187e-39
0.85265756 -4.2914715 -0.79402339 3.5927093e-39
0.85497481 -4.3551612 -0.79369539 3.9582562e-39
0.86167687 -4.2285118 -0.78128833 2.8526429e-39
0.87756693 -4.2248054 -0.77350634 2.2983999e-39
0.8985759 -4.2739882 -0.79402339 1.5644334e-39
0.93170017 -4.3235435 -0.80168056 1.2875018e-39
0.95495772 -4.3146887 -0.80168056 1.1027504e-39
0.97357327 -4.3637824 -0.83659339 8.2760127e-40
0.99009436 -4.3599286 -0.82850224 5.5137311e-40
1.0199457 -4.4141064 -0.8397153 4.5953761e-40
1.0414507 -4.4067411 -0.83698177 2.7622535e-40
0.83541757 -4.4261317 -0.8042289 1.3778954e-39
0.82291538 -4.3130836 -0.75986499 2.3920305e-39
0.85071355 -4.3017082 -0.76249254 4.0500931e-39
0.85801852 -4.2416239 -0.74237818 3.407253e-39
0.87569731 -4.2906132 -0.7677477 3.0348832e-39
0.88068438 -4.2329936 -0.74237818 2.8558939e-39
0.90173388 -4.2822824 -0.76249254 1.9328516e-39
0.93409938 -4.329845 -0.7777251 1.7463108e-39
0.93084735 -4.2743626 -0.75198227 1.3811212e-39
0.95735693 -4.3209901 -0.7777251 1.2882207e-39
0.98061436 -4.3121347 -0.7777251 6.4356734e-40
1.0035394 -4.3637447 -0.7988348 4.5989775e-40
1.0247573 -4.3564787 -0.79613775 2.7586662e-40
1.0550777 -4.4106092 -0.80691284 1.8403113e-40
0.80232465 -4.3280449 -0.73621684 2.7658409e-40
0.82836103 -4.3197145 -0.73096174 2.7597312e-39
0.84903228 -4.3126359 -0.72833413 4.0508091e-39
0.86035657 -4.2477646 -0.71903211 3.2199947e-39
0.88224316 -4.2370872 -0.72681415 2.857689e-39
0.90541792 -4.2919583 -0.72570652 2.3019873e-39
0.9332158 -4.2805834 -0.72833419 1.197453e-39
0.96670884 -4.3222389 -0.76175481 7.3791536e-40
0.96382803 -4.2689281 -0.72833419 7.3683777e-40
0.9822138 -4.3163357 -0.76175481 9.2015143e-40
0.99851841 -4.3125324 -0.75376964 9.187151e-40
1.0335057 -4.3637071 -0.76107621 6.4321001e-40
1.0575417 -4.4170804 -0.7823109 2.7586802e-40
1.0734652 -4.4110174 -0.7823109 1.8440808e-40
0.81565732 -4.3917751 -0.72182906 2.7586662e-40
0.83609462 -4.3246837 -0.70468599 2.855154e-39
0.83116227 -4.3858719 -0.72182906 1.4697281e-39
0.85140073 -4.3188562 -0.70468599 3.6809546e-39
0.86269486 -4.2539058 -0.69568598 3.6813148e-39
0.88536072 -4.2452755 -0.69568598 3.5876842e-39
0.92499208 -4.3525519 -0.71384388 2.6693292e-39
0.92793119 -4.2897177 -0.70468599 1.4729665e-39
0.96375459 -4.3377934 -0.71384388 6.4500227e-40
0.98701209 -4.328938 -0.71384388 4.5989635e-40
1.0094697 -4.3179822 -0.72182906 1.1023861e-39
1.0327272 -4.3091273 -0.72182906 6.4321001e-40
1.0626614 -4.3615413 -0.73140877 3.6770352e-40
1.0751077 -4.4153318 -0.76590967 3.6808047e-40
0.84514159 -4.4516711 -0.7071355 9.187151e-40
0.8449645 -4.3910379 -0.68722683 1.4718805e-39
0.86142218 -4.3221631 -0.6810379 3.8667808e-39
0.88438135 -4.3134217 -0.6810379 4.3266758e-39
0.89003682 -4.2575569 -0.64899385 2.9502181e-39
0.90505254 -4.3063421 -0.67841035 2.855154e-39
0.93434417 -4.3538008 -0.69787365 1.9314195e-39
0.93108892 -4.2980113 -0.67315525 1.6580654e-39
0.96383625 -4.3457785 -0.68722683 1.0116282e-39
0.96012229 -4.2822094 -0.68892062 1.0119855e-39
0.98941129 -4.3352394 -0.68988854 6.4393028e-40
1.0126687 -4.3263841 -0.68988854 3.6806085e-40
1.0351266 -4.3154287 -0.69787365 3.6770492e-40
1.0650924 -4.3679266 -0.7071355 3.6807907e-40
0.84531254 -4.3997235 -0.6579479 1.1034665e-39
0.86176568 -4.3307366 -0.65213472 2.1147289e-39
0.86970925 -4.2723284 -0.62564778 1.6559102e-39
0.88674957 -4.3196416 -0.65738982 3.591989e-39
0.89237511 -4.2636981 -0.62564778 1.6559102e-39
0.91815132 -4.31006 -0.64950716 2.0250458e-39
0.92337567 -4.2542386 -0.61786574 2.7586662e-40
0.94111043 -4.3013182 -0.64950716 1.196374e-39
0.96943468 -4.2913251 -0.64687961 6.4464354e-40
0.99181038 -4.3415403 -0.66593307 6.45361e-40
0.99547118 -4.2829947 -0.64162439 3.6770212e-40
1.0181851 -4.3331013 -0.66060966 7.3540284e-40
1.0518126 -4.3802929 -0.6828621 2.7622535e-40
1.0399247 -4.3280311 -0.64996278 1.8439266e-40
0.81495607 -4.3612208 -0.61009359 1.2907234e-39
0.83429295 -4.4704227 -0.65858871 1.8403113e-40
0.83712566 -4.3504057 -0.61797631 1.4729623e-39
0.8608743 -4.3437381 -0.61009359 6.4464354e-40
0.87096936 -4.3971696 -0.63399243 4.6061381e-40
0.87204731 -4.2784691 -0.60230166 3.6841958e-40
0.89471316 -4.2698388 -0.60230166 2.7622535e-40
0.92130917 -4.3183537 -0.61797631 2.7622535e-40
0.94708252 -4.3093319 -0.6153487 1.8403113e-40
0.97488052 -4.2979565 -0.61797625 1.8403113e-40
0.99705023 -4.2871418 -0.62585902 1.8438986e-40
1.0260193 -4.3381352 -0.63399243 2.7658409e-40
1.0415243 -4.332232 -0.63399243 2.7658689e-40
0.81653488 -4.3653674 -0.59432817 3.2228561e-39
0.84793639 -4.3557854 -0.58644551 1.012703e-39
0.84315807 -4.4173779 -0.60205191 2.3048585e-39
0.86324251 -4.3499579 -0.58644551 5.5209058e-40
0.87438548 -4.2846103 -0.57895559 3.6770212e-40
0.9046067 -4.2731037 -0.57895559 3.6770212e-40
0.91681385 -4.3295608 -0.58644551 1.8438986e-40
0.94742602 -4.3179054 -0.58644551 1.8403113e-40
0.97522408 -4.3065305 -0.58907306 9.2201235e-41
0.96128589 -4.1961169 -0.55623084 1.8403113e-40
1.0009973 -4.2975087 -0.58644551 2.7586662e-40
1.0229834 -4.3457041 -0.61269873 9.219563e-41
1.0439234 -4.3385334 -0.61003703 9.219563e-41
1.0740061 -4.3913374 -0.61813313 1.8403113e-40
1.086606 -4.4455314 -0.65110087 2.7622535e-40
0.8145473 -4.4354863 -0.57809645 2.3942067e-39
0.82127166 -4.3778086 -0.54703194 1.6594989e-39
0.83005232 -4.4295826 -0.57809645 2.3023488e-39
0.84625542 -4.3667135 -0.55228704 6.442848e-40
0.84555727 -4.4236794 -0.57809645 1.4718819e-39
0.85483718 -4.3014283 -0.54782748 6.4428761e-40
0.87750304 -4.2927985 -0.54782748 5.5173184e-40
0.8905403 -4.2346225 -0.51781517 2.7586942e-40
0.90772426 -4.281292 -0.54782748 3.6770352e-40
0.90545893 -4.2289419 -0.51781517 2.7622535e-40
0.94072372 -4.2695088 -0.54523343 2.7586662e-40
0.94214141 -4.3270402 -0.56279737 2.7586802e-40
0.96139067 -4.2632022 -0.54004538 2.7586802e-40
0.97275358 -4.3153849 -0.56279737 1.8441088e-40
0.96359426 -4.2021799 -0.53318143 1.8403113e-40
0.9916119 -4.2516956 -0.54004538 1.8403113e-40
1.0118083 -4.3028889 -0.55491465 9.219563e-41
1.0316173 -4.352838 -0.57809645 2.7586662e-40
1.0432098 -4.2933073 -0.54703194 2.7586662e-40
1.0548748 -4.3439832 -0.57809645 9.219563e-41
0.81302667 -4.2703061 -0.49732685 1.5658712e-39
0.8193987 -4.3219519 -0.52448136 1.4729567e-39
0.85039926 -4.3124928 -0.51669931 6.4320861e-40
0.85632193 -4.256907 -0.48708272 2.7587083e-40
0.87784213 -4.3012629 -0.51929337 3.6770212e-40
0.88538939 -4.2435255 -0.49476585 2.7622956e-40
0.91522658 -4.2321649 -0.49476585 3.6770212e-40
0.94332153 -4.2763319 -0.51929337 1.8403113e-40
0.96372885 -4.2693434 -0.51669931 1.8403113e-40
0.98361641 -4.2609897 -0.51929337 1.8403113e-40
1.0218297 -4.3061957 -0.53126651 1.8403113e-40
1.0371358 -4.3003683 -0.53126651 1.8403113e-40
1.066626 -4.3515329 -0.5381707 1.8403113e-40
0.82407492 -4.3342338 -0.47778916 2.1176128e-39
0.8512581 -4.3223219 -0.48297715 3.6770492e-40
0.86532009 -4.2581086 -0.47171646 3.6806365e-40
0.88769788 -4.2495885 -0.47171646 4.5954462e-40
0.91753507 -4.2382278 -0.47171646 2.7587223e-40
0.95095628 -4.2812371 -0.49335325 2.7586662e-40
0.93991286 -4.2297077 -0.47171646 2.7586662e-40
0.96684641 -4.2775316 -0.48557121 1.8403113e-40
0.98951226 -4.2689013 -0.48557121 1.8403113e-40
1.0188328 -4.3136673 -0.51024598 1.8403113e-40
1.0225116 -4.2571187 -0.48297715 1.8403113e-40
1.047157 -4.3036742 -0.50761837 2.7586662e-40
1.0682254 -4.3557343 -0.52220041 1.8403113e-40
0.81541353 -4.2840519 -0.44866714 1.8406658e-39
0.83779132 -4.2755318 -0.44866714 6.4356734e-40
0.86016917 -4.2670116 -0.44866714 3.6806365e-40
0.89000624 -4.2556515 -0.44866714 1.8439126e-40
0.91984344 -4.2442908 -0.44866714 9.2557165e-41
0.95407385 -4.2894254 -0.46222508 1.8474859e-40
0.95242345 -4.2326579 -0.44610608 9.2555764e-41
0.97282785 -4.2264314 -0.44098401 1.8438986e-40
0.99488825 -4.2754478 -0.45703709 2.7586662e-40
1.0175834 -4.2093911 -0.44098401 9.2199834e-41
1.0200726 -4.2658591 -0.45703709 1.8403253e-40
1.0571786 -4.3069811 -0.48397025 1.8403113e-40
1.0730237 -4.3683367 -0.47428951 9.219563e-41
1.0462961 -4.2589998 -0.44666106 9.219563e-41
1.0869291 -4.3582325 -0.4902598 1.8403113e-40
0.8184914 -4.2921357 -0.41793463 1.7491806e-39
0.84086919 -4.2836156 -0.41793463 3.6806365e-40
0.86101723 -4.2767158 -0.41537356 2.7586662e-40
0.88919365 -4.323503 -0.43109697 1.8438986e-40
0.89582711 -4.2634621 -0.41537356 1.8438986e-40
0.9229213 -4.2523746 -0.41793463 2.7586662e-40
0.95275837 -4.2410145 -0.41793463 9.219563e-41
0.97513622 -4.2324944 -0.41793463 9.219563e-41
1.0033025 -4.2824006 -0.42331493 1.8403113e-40
1.0313032 -4.3310771 -0.43667409 1.8403953e-40
1.0191926 -4.2786942 -0.41553295 1.8403953e-40
1.0466093 -4.3252497 -0.43667409 9.2554362e-41
0.83186883 -4.3547039 -0.39996886 2.0232536e-39
0.84394717 -4.2916999 -0.38720217 7.361231e-40
0.86632502 -4.2831798 -0.38720217 4.6025648e-40
0.89616209 -4.2718196 -0.38720217 2.7622535e-40
0.92599928 -4.2604589 -0.38720217 1.8403113e-40
0.95583636 -4.2490988 -0.38720217 2.7586662e-40
0.98567337 -4.2377386 -0.38720217 9.219563e-41
1.0088207 -4.2312393 -0.37951905 1.8403113e-40
1.0207514 -4.2827883 -0.39996886 9.2554362e-41
1.0489776 -4.33147 -0.41302598 9.219563e-41
1.0770223 -4.3788385 -0.43436378 9.219563e-41
0.81076151 -4.3674283 -0.38440481 3.1296278e-39
0.73657924 -4.0777359 -0.284805 2.5778609e-39
0.82541662 -4.3103247 -0.34878659 1.9332103e-39
0.83420688 -4.3608446 -0.37662277 1.9314167e-39
0.77427471 -4.1168256 -0.28821447 2.9441239e-39
0.83830601 -4.2512655 -0.32928133 6.442848e-40
0.84702504 -4.2997832 -0.35646966 4.6025508e-40
0.86940289 -4.2912631 -0.35646966 3.6806225e-40
0.89923996 -4.2799029 -0.35646966 4.5953761e-40
0.92907715 -4.2685423 -0.35646966 2.7586662e-40
0.94067961 -4.2100019 -0.33686903 9.219563e-41
0.95814472 -4.2551613 -0.36415279 1.8403113e-40
0.95541292 -4.2043924 -0.33686903 9.2554362e-41
0.98875123 -4.245822 -0.35646966 9.219563e-41
1.0334228 -4.2857757 -0.37402871 1.8403113e-40
1.0674416 -4.3339362 -0.38149515 1.8403113e-40
1.0794214 -4.3851399 -0.41040835 9.219563e-41
1.0835371 -4.3301821 -0.37361243 1.8403253e-40
0.73875135 -4.0834408 -0.26311731 3.4040244e-39
0.78532892 -4.2182584 -0.31023073 3.7731937e-39
0.810359 -4.2664757 -0.31410584 2.7625997e-39
0.82695562 -4.3143663 -0.33342034 1.8410161e-39
0.75980711 -4.0754237 -0.26311737 2.7572187e-39
0.7835753 -4.119894 -0.26626715 1.9306992e-39
0.80565685 -4.1594086 -0.29169372 1.1970914e-39
0.81443202 -4.2071776 -0.31023073 1.3811226e-39
0.83982569 -4.2552567 -0.31410584 5.5244931e-40
0.79778045 -4.1144857 -0.26626715 1.3786128e-39
0.82151669 -4.1578302 -0.27688554 3.6806085e-40
0.83776051 -4.2028093 -0.29524246 3.6806085e-40
0.86488789 -4.2472382 -0.30904734 3.6806225e-40
0.87171125 -4.2973261 -0.33342034 2.7622816e-40
0.89215243 -4.2376189 -0.30651808 1.8403113e-40
0.90154833 -4.2859659 -0.33342034 1.8403113e-40
0.92432803 -4.2261305 -0.30398884 9.2197031e-41
0.92941213 -4.2768998 -0.32829827 1.8403113e-40
0.94371921 -4.2179852 -0.30651808 1.8403113e-40
0.95845252 -4.2123756 -0.30651808 1.8403113e-40
0.99182922 -4.2539062 -0.32573721 9.219563e-41
1.0149764 -4.247407 -0.31805408 1.8403113e-40
1.0337621 -4.29424 -0.34549466 9.219563e-41
1.06981 -4.3401566 -0.35784701 1.8403113e-40
1.0572075 -4.2876577 -0.33771262 1.8403113e-40
1.085116 -4.3343291 -0.35784701 9.219563e-41
0.71986759 -4.0971618 -0.24142972 5.6084267e-39
0.71933538 -4.0491633 -0.22430946 6.6232904e-39
0.74374551 -4.0895219 -0.23661025 6.9949456e-39
0.76972163 -4.0803576 -0.23420055 4.0457897e-39
0.79077733 -4.0723405 -0.23420055 2.3902382e-39
0.81491643 -4.1167746 -0.23700421 2.2062057e-39
0.83018816 -4.1589885 -0.26207745 1.1031036e-39
0.84653741 -4.2039819 -0.28025413 1.8403113e-40
0.83410102 -4.1102052 -0.23456559 2.5735505e-39
0.86042458 -4.1519361 -0.24726933 1.2878563e-39
0.86694026 -4.1992226 -0.27026194 2.7586942e-40
0.89443231 -4.243607 -0.28375483 1.8403113e-40
0.92389905 -4.232388 -0.28375483 1.8403393e-40
0.94599909 -4.2239733 -0.28375483 1.8403113e-40
0.96809918 -4.215559 -0.28375483 1.8403113e-40
0.99413759 -4.2599692 -0.30268782 9.219563e-41
0.99019915 -4.2071443 -0.28375483 2.7586802e-40
1.0172848 -4.2534699 -0.2950047 9.219563e-41
1.0444349 -4.299552 -0.31436655 9.219563e-41
1.0729678 -4.3484502 -0.32631624 1.8403113e-40
1.0478914 -4.2441306 -0.28732157 1.8403113e-40
1.0874842 -4.3405495 -0.33419898 9.219563e-41
0.72348762 -4.1066699 -0.20528375 5.422997e-39
0.74454337 -4.0986533 -0.20528379 7.7343057e-39
0.76487517 -4.0887346 -0.21251297 6.2598931e-39
0.78494602 -4.1377335 -0.20530263 5.6148866e-39
0.81074452 -4.1271763 -0.20774126 3.1259956e-39
0.83915496 -4.1163592 -0.20774126 2.8490556e-39
0.86983734 -4.1550417 -0.22505717 2.7568599e-39
0.90331876 -4.2447939 -0.26857933 9.2211044e-41
0.86829793 -4.1074662 -0.20042551 3.0334454e-39
0.88421404 -4.1495676 -0.22505717 1.8381645e-39
0.89319432 -4.1952453 -0.25027761 2.765995e-40
0.92617869 -4.2383752 -0.26099157 9.219563e-41
0.94827873 -4.2299604 -0.26099157 1.8403113e-40
0.97037882 -4.2215462 -0.26099157 9.219563e-41
0.99247879 -4.2131314 -0.26099157 1.8403113e-40
1.0278219 -4.2587137 -0.26427218 1.8403113e-40
1.0467731 -4.3056931 -0.29102042 1.8403113e-40
1.0745467 -4.3525972 -0.31055081 9.219563e-41
1.0729966 -4.2988334 -0.28064439 8.268838e-40
1.0898527 -4.3467698 -0.31055081 2.7622535e-40
0.72638369 -4.1142764 -0.17636693 5.9775987e-39
0.74953753 -4.1047344 -0.17877664 7.8261216e-39
0.75048447 -4.1611362 -0.17116255 7.9172284e-39
0.78526485 -4.1456904 -0.17847824 5.7049271e-39
0.80657262 -4.1375775 -0.17847824 3.2163962e-39
0.83760333 -4.1784644 -0.1880369 3.4004259e-39
0.85916835 -4.1702533 -0.1880369 4.319857e-39
0.86266088 -4.1140194 -0.185794 3.9532395e-39
0.89436847 -4.1546211 -0.19544096 2.2991174e-39
0.91074812 -4.1975899 -0.22030108 1.3796862e-39
0.92845845 -4.2443628 -0.23822832 5.5173324e-40
0.91519201 -4.1444631 -0.20284501 1.0112709e-39
0.93550104 -4.1896701 -0.21530496 2.7622676e-40
0.95055848 -4.2359481 -0.23822832 2.7586662e-40
0.95975369 -4.1804361 -0.21530496 9.219563e-41
0.97265857 -4.2275338 -0.23822832 1.8438986e-40
0.99551851 -4.2211151 -0.23064061 9.219563e-41
1.0308999 -4.2667975 -0.23353975 9.219563e-41
1.0710772 -4.308939 -0.24951628 9.219563e-41
0.72855568 -4.1199808 -0.15467936 5.5151604e-39
0.73921001 -4.174242 -0.14189953 4.0422234e-39
0.75663 -4.1092916 -0.15467936 7.0849706e-39
0.75766206 -4.1657481 -0.14677666 6.9052569e-39
0.78819561 -4.153388 -0.14921522 3.9532339e-39
0.81900436 -4.1944652 -0.15842068 1.3807624e-39
0.83908629 -4.1823592 -0.1732288 4.0454268e-39
0.86783963 -4.1714115 -0.1732288 5.0581297e-39
0.89733464 -4.1624117 -0.16582474 1.3796862e-39
0.91375029 -4.2054749 -0.19032454 1.4715217e-39
0.91889966 -4.154201 -0.16582474 1.8403253e-40
0.93850332 -4.1975555 -0.18532842 2.7586662e-40
0.95890623 -4.1927967 -0.17533627 9.2554362e-41
0.97916692 -4.2372437 -0.19776042 9.219563e-41
0.99779838 -4.2271032 -0.20787735 1.8404514e-40
1.0332083 -4.2728605 -0.21049036 9.2198432e-41
1.0688981 -4.3183622 -0.22098216 9.2199834e-41
0.74214065 -4.1819396 -0.11263652 2.4802871e-39
0.75008714 -4.2296247 -0.12880448 3.5819739e-39
0.76010418 -4.1721625 -0.1223909 6.256296e-39
0.7832911 -4.1618652 -0.12726803 3.6780848e-39
0.81668395 -4.2027817 -0.13374047 1.4708043e-39
0.84399462 -4.2410622 -0.16034801 2.1168827e-39
0.86975753 -4.2895651 -0.16235091 4.1422971e-39
0.88037354 -4.227211 -0.16034801 3.9521577e-39
0.90674752 -4.1655173 -0.14361258 1.8403113e-40
0.90370202 -4.2228427 -0.14535974 2.7586662e-40
0.92112422 -4.1600437 -0.14361258 1.8403113e-40
0.95815772 -4.2559071 -0.16235091 9.219563e-41
0.96115774 -4.19871 -0.15285388 9.2561369e-41
0.98686439 -4.242692 -0.16993868 9.2554362e-41
1.0123693 -4.2854223 -0.1951241 1.8404514e-40
1.0015978 -4.237082 -0.16993868 1.8403113e-40
1.0355166 -4.2789235 -0.18744098 1.8403253e-40
0.75854397 -4.1823039 -0.090689316 4.5053217e-39
0.78825337 -4.2217827 -0.10659231 4.1397762e-39
0.81626517 -4.2088871 -0.11399625 1.9321341e-39
0.85654408 -4.2991667 -0.14717549 2.8569477e-39
0.87940395 -4.292748 -0.13958772 2.2133874e-39
0.90666848 -4.2831292 -0.1370585 2.7586802e-40
0.91975474 -4.2212448 -0.13037148 1.8403113e-40
0.94646394 -4.2694998 -0.13199995 1.8403253e-40
0.96043748 -4.2618947 -0.13958772 9.219563e-41
0.98524636 -4.253211 -0.1370585 1.8403113e-40
1.0038776 -4.2430701 -0.14717549 9.219563e-41
1.0358516 -4.2872801 -0.15926959 9.219563e-41
0.76074207 -4.188077 -0.068742119 3.3093079e-39
0.79047793 -4.2276254 -0.084380038 4.2301852e-39
0.83163691 -4.322361 -0.10164899 1.6541165e-39
0.82239681 -4.2718554 -0.085406683 1.5629985e-39
0.86110359 -4.311142 -0.10164899 3.2235708e-39
0.8701092 -4.3604126 -0.12597597 3.1288683e-39
0.87583697 -4.3055325 -0.10164899 5.6062715e-39
0.89325643 -4.3539133 -0.11829284 3.0348832e-39
0.91851711 -4.2847114 -0.11682441 2.7586802e-40
0.91563421 -4.3453932 -0.11829284 7.3504831e-40
0.9406172 -4.2762971 -0.11682441 1.8403113e-40
0.96271724 -4.2678823 -0.11682441 1.8438986e-40
0.98481733 -4.2594681 -0.11682441 1.8403113e-40
1.0185251 -4.3015904 -0.1336592 1.8403113e-40
0.78174418 -4.2963614 -0.055430152 4.5038882e-39
0.80282116 -4.2860799 -0.062924281 3.8639236e-39
0.85749906 -4.3721557 -0.10292669 2.1161639e-39
0.82974905 -4.2765794 -0.060426161 9.1907383e-40
0.85525662 -4.3179383 -0.086473443 3.1274361e-39
0.87887657 -4.3135157 -0.071298018 1.5629985e-39
0.89830774 -4.3597035 -0.092682563 4.7826303e-39
0.92540187 -4.3486161 -0.095243566 3.2224988e-39
0.95523906 -4.3372555 -0.095243566 8.279558e-40
0.98233348 -4.326169 -0.097804576 1.8403113e-40
1.0066845 -4.3153543 -0.10292669 1.8403113e-40
0.77596951 -4.3030744 -0.040441886 5.3390424e-39
0.80582333 -4.2939649 -0.032947753 4.7854987e-39
0.86057705 -4.3802395 -0.072194189 1.5680208e-39
0.83417577 -4.2809124 -0.040441886 1.1945845e-39
0.86642295 -4.3251128 -0.048534714 4.5989635e-40
0.87549555 -4.3745594 -0.072194189 1.6580738e-39
0.88852298 -4.3166986 -0.048534714 8.2723833e-40
0.90533268 -4.3631992 -0.072194189 2.296965e-39
0.92847985 -4.3567004 -0.064511061 2.6657419e-39
0.95831704 -4.3453398 -0.064511061 2.5739064e-39
0.78030276 -4.3647585 -0.025771519 3.4901244e-39
0.78624743 -4.3081889 -0.010465352 6.5397296e-39
0.79503614 -4.359149 -0.025771519 6.9117673e-39
0.80882549 -4.3018498 -0.0029712191 5.6084337e-39
0.83923614 -4.34232 -0.025771519 2.4813591e-39
0.8357535 -4.2923498 -0.00047309831 3.9550276e-39
0.86209589 -4.3359008 -0.018183865 1.6544767e-39
0.89156258 -4.3246818 -0.018183749 1.6541207e-39
0.93155771 -4.3647838 -0.033778664 1.6541193e-39
0.96139485 -4.3534231 -0.033778664 1.2867745e-39
0.98782557 -4.4007926 -0.049777463 2.113294e-39
0.81432873 -4.3655143 0.019754868 3.3982819e-39
0.81835288 -4.3049936 0.01951118 4.6911913e-39
0.84379542 -4.3542948 0.019754868 4.8733825e-39
0.84745598 -4.2939129 0.01951118 4.6922213e-39
0.87250239 -4.3410802 0.012167213 3.4962285e-39
0.89460242 -4.3326659 0.012167213 2.757583e-39
0.9346357 -4.3728681 -0.0030461561 1.8392225e-39
0.96827716 -4.4176102 -0.018649293 1.7463108e-39
0.96166235 -4.3094177 0.019754868 4.2276838e-39
0.97193211 -4.3586674 -0.0030461561 1.1024015e-39
0.97563595 -4.3018126 0.012167213 9.187179e-40
0.83794868 -4.3610916 0.034930408 4.8726833e-39
0.86741537 -4.3498726 0.034930408 5.0574319e-39
0.89688206 -4.3386536 0.034930408 2.5749868e-39
0.93694407 -4.378931 0.020003226 2.5728302e-39
0.97061533 -4.4237514 0.0046967198 2.2962475e-39
0.95932198 -4.3704104 0.020003226 4.3187808e-39
0.8475951 -4.364274 0.057693601 4.6897102e-39
0.86969513 -4.3558598 0.057693601 4.5967985e-39
0.89916182 -4.3446407 0.057693601 3.862832e-39
0.92126185 -4.336226 0.057693601 1.5619223e-39
0.94148237 -4.3833728 0.040491488 1.4700868e-39
0.96908957 -4.3736329 0.043052606 2.1129437e-39
0.99069792 -4.3630919 0.035369482 1.2860599e-39
0.84535992 -4.4299984 0.073785119 4.9670215e-39
0.85063493 -4.3722582 0.088044561 6.7172937e-39
0.87273496 -4.3638439 0.088044561 4.6900717e-39
0.90220165 -4.3526249 0.088044561 2.4820709e-39
0.91391844 -4.2934351 0.10194676 4.5953761e-40
0.92354172 -4.3422141 0.080456793 6.4320861e-40
1.0055128 -4.4245267 0.05138886 7.350441e-40
0.8249678 -4.3934569 0.1259833 7.350441e-40
0.84020901 -4.4389014 0.096834496 4.3238073e-39
0.84630787 -4.3830462 0.11839553 2.9412498e-39
0.87306565 -4.372097 0.11586631 3.4022195e-39
0.91184795 -4.3558068 0.11080787 7.350441e-40
0.90888131 -4.4173827 0.11220075 1.8381463e-39
0.90161836 -4.3048887 0.12442904 2.7586662e-40
0.92810124 -4.3541894 0.1259833 1.8403113e-40
0.85595417 -4.386229 0.14115895 2.7586802e-40
0.8780542 -4.3778148 0.14115895 1.8403113e-40
0.89550173 -4.4271045 0.12756689 1.654834e-39
0.91488755 -4.3637905 0.14115895 1.8403113e-40
0.9104203 -4.4214244 0.12756689 8.2759706e-40
