# .PCD v0.7 - Point Cloud Data file format
VERSION 0.7
FIELDS x y z rgb
SIZE 4 4 4 4
TYPE F F F F
COUNT 1 1 1 1
WIDTH 958
HEIGHT 1
VIEWPOINT 0 0 0 1 0 0 0
POINTS 958
DATA ascii
-0.14978111 0.035551608 -1.0582712 6.7267343e-39
-0.29891884 5.1856041e-06 -1.1033957 5.8969162e-39
-0.11475575 0.0066205859 -1.0562197 4.1466706e-39
-0.10787964 -0.015604913 -1.056789 4.9757306e-39
-0.1258471 -0.035182297 -1.0551206 5.8072751e-39
-0.13612807 -0.051057935 -1.0614846 5.9941887e-39
-0.14725697 -0.069395423 -1.0711077 4.7981833e-39
-0.14526796 -0.08303982 -1.0627054 1.7136882e-38
-0.31461489 0.12994242 -1.058834 6.2664386e-39
-0.33054733 0.12803847 -1.0747826 9.3175222e-39
-0.28804803 0.1076737 -1.0579568 3.0392328e-39
-0.30425811 0.12018204 -1.0633066 3.9590381e-39
-0.28392315 0.089351058 -1.0568423 2.6711762e-39
-0.29071212 0.074347734 -1.0636734 2.3935047e-39
-0.28578055 0.055128992 -1.0607114 2.0272501e-39
-0.13326037 0.056459546 -1.0204968 1.3742254e-38
-0.28114748 0.025403023 -1.0614729 2.6729754e-39
-0.29652178 0.0030497313 -1.0636468 4.2370823e-39
-0.1055975 0.02950418 -1.0092027 4.3292668e-39
-0.13256872 0.034517467 -1.0272574 4.6090949e-39
-0.27950156 0.00046032667 -1.0645504 6.3615125e-39
-0.29376519 -0.0093741417 -1.0599349 5.989493e-39
-0.31347418 -0.022875369 -1.072699 4.2388536e-39
-0.099439621 0.013345957 -1.0150903 4.2388732e-39
-0.1127888 0.0086097717 -1.0361084 3.5945842e-39
-0.1173172 -0.022588074 -1.0279213 5.7122096e-39
-0.13406873 -0.060709536 -1.0348887 6.0824411e-39
-0.13668072 -0.083120883 -1.0283716 1.0048671e-38
-0.30312121 0.13396341 -1.0265781 5.7147011e-39
-0.31827641 0.14273673 -1.0325016 1.1797816e-38
-0.28705728 0.11207253 -1.0248019 3.1307096e-39
-0.287745 0.079910457 -1.0293772 2.6697286e-39
-0.27894104 0.05052191 -1.0301062 2.1208624e-39
-0.14704144 0.050204396 -1.0022199 1.0334949e-38
-0.18333805 0.039105237 -1.0045158 6.8166864e-39
-0.1946218 0.033520341 -0.99968791 4.1416035e-39
-0.27422893 0.028510213 -1.0228148 2.3016636e-39
-0.28444993 0.014612615 -1.0345224 3.5916863e-39
-0.1090821 0.028210461 -0.99063212 4.2381459e-39
-0.13866401 0.03309536 -0.99881577 4.0537533e-39
-0.16892874 0.034231961 -0.99977058 6.6363281e-39
-0.28920245 -0.00410074 -1.0274764 5.2555335e-39
-0.29740465 -0.009119451 -1.045087 4.7012849e-39
-0.098760009 0.011083841 -0.99025905 4.5161663e-39
-0.10084963 -0.0086160898 -0.9823572 6.1746157e-39
-0.11725461 -0.029071808 -0.99974203 5.8079954e-39
-0.12057841 -0.049204946 -0.99699372 5.7165242e-39
-0.12863445 -0.067904592 -1.003491 6.4548179e-39
-0.1410532 -0.086472213 -1.0107273 8.4658788e-39
-0.30865872 0.12887883 -1.0021552 4.2374102e-39
-0.32264042 0.13361102 -1.0031636 6.8243179e-39
-0.30099773 0.10664833 -1.0001956 3.0388727e-39
-0.29132271 0.078576386 -0.99948061 2.488217e-39
-0.28047955 0.049867392 -0.99998695 2.5796896e-39
-0.18718529 0.037975609 -0.98710918 2.6729936e-39
-0.19849086 0.032384276 -0.9821831 2.85668e-39
-0.27906346 0.027090669 -1.00094 2.3052607e-39
-0.28659296 0.010841429 -1.0031636 3.4091097e-39
-0.11091638 0.026948452 -0.96164829 4.329278e-39
-0.14454019 0.024239123 -0.97004414 3.870441e-39
-0.17443657 0.02878207 -0.9758817 4.3303514e-39
-0.28792059 -0.0022270083 -1.0016973 5.348455e-39
-0.10074973 0.013629496 -0.95888144 4.2392305e-39
-0.13168848 0.014509559 -0.95346564 3.3187386e-39
-0.096526384 -0.015147209 -0.957955 5.713646e-39
-0.11176288 -0.033968985 -0.97717142 5.8058416e-39
-0.099953771 -0.039930582 -0.95521641 6.3615307e-39
-0.11620045 -0.058621943 -0.97457033 6.7296042e-39
-0.12204444 -0.079642117 -0.96591318 8.2047553e-39
-0.12970579 -0.095214784 -0.9656294 2.3325854e-38
-0.31011701 0.1332525 -0.96853465 4.8856495e-39
-0.33205616 0.13869071 -0.97015822 8.4823539e-39
-0.304286 0.10622215 -0.96927279 2.7630116e-39
-0.28961742 0.080666304 -0.96570647 2.9463211e-39
-0.27419853 0.055500031 -0.96574026 2.4882142e-39
-0.17698574 0.039848506 -0.95021302 5.6185552e-39
-0.27913332 0.021110117 -0.96838838 3.132883e-39
-0.14848018 0.017835677 -0.93882173 3.7764503e-39
-0.17600429 0.025642872 -0.9436534 4.4228931e-39
-0.28975093 -0.0083893538 -0.96649098 6.7263615e-39
-0.090502977 0.0030949116 -0.92840803 4.6069327e-39
-0.11189544 0.0086993575 -0.9322834 3.6875043e-39
-0.13825047 0.0096053481 -0.94240975 3.8697446e-39
-0.083220124 -0.010939002 -0.92178082 5.5292561e-39
-0.093789101 -0.019857287 -0.93119764 5.5303379e-39
-0.097520232 -0.044896543 -0.93453062 7.1898592e-39
-0.12433708 -0.084438562 -0.93912274 1.309074e-38
-0.31328809 0.13280165 -0.93832779 4.7909582e-39
-0.30881989 0.10524082 -0.93916416 3.039237e-39
-0.27469993 0.084982216 -0.92954624 1.842842e-39
-0.29237652 0.081130683 -0.93521225 2.9466812e-39
-0.26635647 0.068280101 -0.94387197 2.3960158e-39
-0.28200984 0.053083122 -0.93358988 2.4874982e-39
-0.28174388 0.020361006 -0.93811196 3.9604772e-39
-0.10750592 0.042943895 -0.88404864 3.3205e-39
-0.12174356 0.026494026 -0.90485913 4.05018e-39
-0.15139341 0.02936542 -0.91183257 3.5020214e-39
-0.17190731 0.017555475 -0.92776781 3.3147379e-39
-0.28457892 -0.0018234253 -0.94260722 7.0926147e-39
-0.29856336 -0.0083619952 -0.92981839 7.9166273e-39
-0.099398375 0.012610376 -0.89742541 3.9640842e-39
-0.11115873 0.010880709 -0.90139097 4.1473866e-39
-0.078194022 -0.0028619766 -0.90111613 5.0682793e-39
-0.10506725 -0.021332204 -0.89974302 6.819611e-39
-0.10858142 -0.046926618 -0.90532523 8.1089162e-39
-0.11997569 -0.064148545 -0.90605414 7.6511821e-39
-0.12902021 -0.082961261 -0.90952265 7.9216705e-39
-0.32761323 0.15040976 -0.90944654 8.9382789e-39
-0.31663978 0.13512814 -0.90639442 5.8987323e-39
-0.28925502 0.11039406 -0.89999944 3.5895227e-39
-0.30524075 0.11793005 -0.90945357 3.1300061e-39
-0.2821089 0.087275624 -0.9014917 2.7630145e-39
-0.2874459 0.071559608 -0.91349787 2.9445541e-39
-0.27364635 0.057434261 -0.90024364 2.6729642e-39
-0.28536272 0.064464629 -0.91349787 3.0385209e-39
-0.10701859 0.070007324 -0.86045492 3.6889518e-39
-0.2675724 0.037280083 -0.90089476 3.502006e-39
-0.27795327 0.015651941 -0.90470779 4.1459433e-39
-0.10119045 0.043784678 -0.86237943 3.962631e-39
-0.29102552 -0.0037162304 -0.91344076 5.9841274e-39
-0.30074549 -0.01292491 -0.91514939 5.8101436e-39
-0.098972201 0.013442636 -0.86123979 3.8718857e-39
-0.11234474 0.0024830699 -0.88123101 4.0523197e-39
-0.10195637 -0.012079775 -0.86214352 4.0587993e-39
-0.10843456 -0.020808876 -0.87398207 4.6076543e-39
-0.11354315 -0.047813535 -0.87412399 5.8980288e-39
-0.12540698 -0.070572555 -0.8755753 7.9263158e-39
-0.13181496 -0.082584739 -0.87963229 7.1873509e-39
-0.29858041 0.13224679 -0.86739153 3.6838777e-39
-0.31630301 0.14111656 -0.87836969 4.6115836e-39
-0.26579714 0.11954546 -0.85743737 3.4054874e-39
-0.28823829 0.11517298 -0.87546921 3.1317774e-39
-0.27493179 0.086129904 -0.8696962 2.7622956e-39
-0.27605021 0.05549711 -0.87479675 3.0392328e-39
-0.09992218 0.070827067 -0.82945818 3.8693662e-39
-0.11086822 0.074580848 -0.8419131 4.1448797e-39
-0.27259588 0.033889949 -0.87582481 3.4080013e-39
-0.2830404 0.012973249 -0.87801707 4.2381417e-39
-0.092497349 0.046988606 -0.82974553 4.1455888e-39
-0.10027826 0.040300548 -0.84409815 3.6860483e-39
-0.29246342 -0.0029221773 -0.88169372 7.2744879e-39
-0.089272976 0.018878341 -0.82364678 4.1463202e-39
-0.093794107 0.013928473 -0.83885425 4.7888058e-39
-0.098451853 -0.015230954 -0.83519435 5.5288876e-39
-0.10951066 -0.033498883 -0.84903026 5.4370619e-39
-0.11433852 -0.053418696 -0.84505671 6.6341533e-39
-0.12914944 -0.071671426 -0.85864264 6.8160432e-39
-0.12202525 -0.073710144 -0.83682144 9.6765699e-39
-0.13022923 -0.082603037 -0.85562652 9.03306e-39
-0.30248225 0.13584971 -0.8435815 4.7005338e-39
-0.32285762 0.14208192 -0.85224873 1.0049724e-38
-0.2660048 0.11940455 -0.83679962 3.314389e-39
-0.29059386 0.12489939 -0.83643204 2.0297542e-39
-0.24525547 0.09911418 -0.82000667 3.8639642e-39
-0.25642848 0.093271375 -0.83492643 3.0377993e-39
-0.10651875 0.089129448 -0.79318327 6.4652464e-39
-0.25089097 0.067478597 -0.83134681 3.1314186e-39
-0.26324785 0.051808 -0.84758109 3.1321417e-39
-0.080981612 0.070344687 -0.79193634 4.4214498e-39
-0.097842455 0.077064455 -0.80342895 4.5143699e-39
-0.26905775 0.025255203 -0.84162265 5.6210678e-39
-0.075869679 0.052034557 -0.79083598 4.4214442e-39
-0.082723737 0.046412587 -0.80886853 4.6983926e-39
-0.2872597 -0.0045355558 -0.85684758 6.4555424e-39
-0.084283948 0.016996145 -0.80036128 5.159026e-39
-0.098489165 -0.018158674 -0.80747044 5.9891454e-39
-0.10475612 -0.040344954 -0.8010658 5.8973183e-39
-0.11613619 -0.05520016 -0.81964284 6.451204e-39
-0.12649035 -0.075021207 -0.81662023 8.3574547e-39
-0.13317966 -0.080098629 -0.8315503 1.1480946e-38
-0.26449525 0.14186782 -0.79215628 3.3183406e-39
-0.28022242 0.14368689 -0.80237699 4.3285479e-39
-0.30455101 0.14707661 -0.81611085 6.7288559e-39
-0.25810158 0.12388754 -0.79679805 2.7615725e-39
-0.26498628 0.12144536 -0.81413656 2.8548499e-39
-0.24782026 0.092983067 -0.8018266 2.7626529e-39
-0.25992548 0.10420966 -0.81413651 3.3132974e-39
-0.24359667 0.073538184 -0.79563755 3.4987788e-39
-0.24852109 0.059903204 -0.80745286 3.31617e-39
-0.085417509 0.078520298 -0.76627547 4.1445084e-39
-0.098470926 0.08665812 -0.77913386 4.2284405e-39
-0.25431108 0.037820816 -0.80533195 3.6842281e-39
-0.26369035 0.020096183 -0.81363577 5.7096691e-39
-0.074948549 0.05173403 -0.76687258 4.6980325e-39
-0.25874066 0.010150075 -0.80204231 1.0059442e-38
-0.075466156 0.027416408 -0.76240867 5.4345157e-39
-0.080988407 0.013197124 -0.77483821 5.8029395e-39
-0.089134812 -0.012377739 -0.77114815 5.3448494e-39
-0.095831156 -0.025227726 -0.78248179 5.2526692e-39
-0.088105202 -0.033099949 -0.76494205 5.0708073e-39
-0.094895482 -0.049045265 -0.77749997 6.8192929e-39
-0.11245382 -0.06523937 -0.79795331 3.8575435e-39
-0.27793324 0.1677084 -0.76778716 1.5670017e-38
-0.28510845 0.16421336 -0.78262776 1.6687385e-38
-0.26667702 0.1482771 -0.76990676 4.328894e-39
-0.28121865 0.15287435 -0.78496176 5.2558908e-39
-0.25465953 0.12380439 -0.77121925 3.1317774e-39
-0.24791539 0.094107389 -0.77286059 2.4867891e-39
-0.24581158 0.062781811 -0.77325785 2.7640696e-39
-0.25015998 0.050912142 -0.7896297 3.1342969e-39
-0.064577937 0.078153551 -0.72948766 4.3306807e-39
-0.084778428 0.086443186 -0.73721451 4.7898792e-39
-0.24170065 0.044308603 -0.76778716 3.2228996e-39
-0.24779773 0.0320521 -0.77640384 5.0650115e-39
-0.063054085 0.06042093 -0.7261765 4.5158062e-39
-0.072889924 0.043486655 -0.73666406 4.0577035e-39
-0.25184321 0.014447093 -0.78702456 1.4851425e-38
-0.074796557 0.018152237 -0.73783112 4.3310688e-39
-0.071030259 -0.0069313049 -0.7338677 5.2523007e-39
-0.079024911 -0.013874173 -0.74990886 5.5285232e-39
-0.081634164 -0.035384059 -0.7445547 3.6043148e-39
-0.093845725 -0.051284969 -0.75888401 7.4502583e-39
-0.27505326 0.17365867 -0.73805749 1.1519408e-38
-0.24868095 0.15348095 -0.72967768 3.9597458e-39
-0.2603054 0.15718031 -0.74369442 3.9604506e-39
-0.23944759 0.12661201 -0.73082125 3.5898898e-39
-0.24789929 0.12776667 -0.74603206 3.5916877e-39
-0.23165131 0.10293919 -0.72899777 2.8533996e-39
-0.24130118 0.093480766 -0.74791723 2.6711691e-39
-0.10986149 0.09207207 -0.69821835 1.044399e-38
-0.11602104 0.088404715 -0.70817035 1.4038198e-38
-0.22840989 0.080087483 -0.72435135 2.6718866e-39
-0.24204648 0.063640893 -0.74448842 2.1201478e-39
-0.066032171 0.082858622 -0.70112133 4.0548183e-39
-0.093934178 0.089009464 -0.70735657 5.2479805e-39
-0.11273003 0.082471371 -0.7146216 7.9920003e-39
-0.24511707 0.041180909 -0.74156415 3.5005599e-39
-0.25361133 0.031177163 -0.75111902 4.0505275e-39
-0.061372757 0.054624498 -0.70034665 4.4221715e-39
-0.070701003 0.039324045 -0.71663535 4.2413605e-39
-0.055945158 0.024375916 -0.69785315 4.4221841e-39
-0.06481123 0.018398702 -0.71557629 4.1488286e-39
-0.055387259 0.0031976104 -0.69614583 5.3459438e-39
-0.064392567 -0.011901796 -0.70942205 5.1633588e-39
-0.067684174 -0.027062774 -0.71817279 6.1746535e-39
-0.25940704 0.17889345 -0.70271492 6.542294e-39
-0.27484202 0.1780926 -0.71985883 9.3117558e-39
-0.25040054 0.15477782 -0.70572466 3.7757104e-39
-0.23841035 0.12980676 -0.703969 3.3150938e-39
-0.22866225 0.10002559 -0.70358056 2.7629948e-39
-0.11250329 0.093486011 -0.67892051 5.163314e-39
-0.1264416 0.092244685 -0.66946298 4.2392249e-39
-0.22420442 0.068368375 -0.70466733 2.1201562e-39
-0.068669915 0.085975528 -0.67098343 4.0541064e-39
-0.10325301 0.089040399 -0.68194377 4.4175023e-39
-0.21780813 0.051699996 -0.70112479 3.6856784e-39
-0.23148489 0.051599443 -0.72124994 3.0399138e-39
-0.057820439 0.055585742 -0.67200541 4.2381347e-39
-0.052953005 0.025640488 -0.67241478 4.7902407e-39
-0.052299142 -0.0020340085 -0.67397344 5.9884322e-39
-0.061621785 -0.012381315 -0.69121665 6.5462933e-39
-0.25780249 0.1827687 -0.67571461 6.9085584e-39
-0.22852337 0.15285724 -0.65918672 3.3147379e-39
-0.24608982 0.15874046 -0.6756261 3.6838735e-39
-0.21760881 0.1321668 -0.66502434 3.4058629e-39
-0.23571646 0.13752443 -0.68175036 3.3147365e-39
-0.21424806 0.11449826 -0.66505218 2.4857143e-39
-0.22826409 0.093026102 -0.6755805 2.6693727e-39
-0.089232206 0.096690238 -0.6394453 4.788433e-39
-0.11179411 0.096474409 -0.64744157 4.2366928e-39
-0.12786746 0.091826022 -0.66301179 4.6058452e-39
-0.20624185 0.067203641 -0.65837741 2.4907548e-39
-0.22378862 0.069859147 -0.67614782 2.2112784e-39
-0.051851153 0.086485028 -0.63337201 3.7778768e-39
-0.073401213 0.092972815 -0.64626759 4.2370599e-39
-0.20919335 0.056947529 -0.68254268 3.2261548e-39
-0.043091655 0.059347749 -0.63207483 4.0540994e-39
-0.052849412 0.056041002 -0.65106446 4.2374018e-39
-0.036506772 0.033618808 -0.63003182 4.6983912e-39
-0.047019005 0.023393631 -0.65045726 4.8838657e-39
-0.037275076 0.013783455 -0.62416261 5.8058388e-39
-0.051286817 -0.0015850663 -0.64322728 6.7270706e-39
-0.069616556 -0.021525145 -0.64673394 9.3971622e-39
-0.063125372 -0.023868322 -0.63081342 9.2149163e-39
-0.079045415 -0.041953027 -0.64548051 9.3939181e-39
-0.24664152 0.18497396 -0.63413596 4.4235742e-39
-0.25849068 0.18493313 -0.6499325 6.2649826e-39
-0.22824216 0.16141152 -0.63740766 3.8661096e-39
-0.24921823 0.16834134 -0.65206391 4.1423321e-39
-0.2159977 0.13502955 -0.63665557 2.9477574e-39
-0.21296549 0.10489994 -0.6371662 2.4867667e-39
-0.22497213 0.088533938 -0.6554504 1.7545896e-39
-0.069610715 0.10365337 -0.59938759 4.8802643e-39
-0.089537024 0.10321504 -0.61322117 4.4196561e-39
-0.12141681 0.1028403 -0.62316537 3.7742909e-39
-0.18277931 0.08295691 -0.6268791 2.7622858e-39
-0.20178795 0.081694961 -0.63896775 2.2105483e-39
-0.22203493 0.07853055 -0.6554504 2.0279591e-39
-0.036921859 0.079671085 -0.59038985 4.3274507e-39
-0.051529288 0.091948092 -0.6042552 4.0530162e-39
-0.034276247 0.070660651 -0.59038985 4.1430482e-39
-0.038427114 0.063179672 -0.60592061 3.9608276e-39
-0.034355044 0.033567607 -0.60365707 4.6076417e-39
-0.040249705 0.011253953 -0.60867822 5.991658e-39
-0.051878333 -0.0091382861 -0.61214757 8.293676e-39
-0.060503721 -0.028139532 -0.60978031 8.1100233e-39
-0.07188344 -0.041186452 -0.62661141 1.0220083e-38
-0.25166571 0.20586908 -0.60906529 1.0137882e-38
-0.24521506 0.18793017 -0.61151952 4.2370389e-39
-0.21638 0.16043866 -0.59653312 3.0402894e-39
-0.22696269 0.16499442 -0.61211967 3.3150952e-39
-0.20596635 0.14390022 -0.59740841 2.4874968e-39
-0.21500802 0.13354933 -0.6139096 2.7619186e-39
-0.16968298 0.10339868 -0.59208924 1.7528002e-39
-0.19349027 0.1063652 -0.59604347 2.3041705e-39
-0.21039689 0.10818803 -0.61164635 2.3938592e-39
-0.06839323 0.1069656 -0.57782161 4.235625e-39
-0.097924352 0.10691679 -0.58233654 4.2363397e-39
-0.12584281 0.10498905 -0.59132051 3.7764265e-39
-0.15936327 0.096089482 -0.59643602 2.9466728e-39
-0.18020356 0.091507554 -0.60945654 2.3034628e-39
-0.042073607 0.084434986 -0.56827992 3.7767978e-39
-0.055405736 0.093586266 -0.57843071 3.8679131e-39
-0.031336188 0.063293219 -0.57094669 3.9608304e-39
-0.038781404 0.050753832 -0.58737153 4.236327e-39
-0.027950644 0.037258565 -0.56519628 4.8831328e-39
-0.033713341 0.025787711 -0.58151257 5.8040115e-39
-0.036745667 0.0030996203 -0.57457978 7.2805961e-39
-0.048092127 -0.015142024 -0.5838244 7.8344902e-39
-0.062321901 -0.031185091 -0.58511859 1.0035326e-38
-0.085217714 -0.055941939 -0.57975405 1.6530881e-38
-0.25813293 0.20674729 -0.57948965 6.1720709e-39
-0.22905636 0.18329304 -0.57168388 4.0533721e-39
-0.24511302 0.1906901 -0.58184481 4.3288744e-39
-0.2134192 0.16621882 -0.5741722 3.4991109e-39
-0.23129356 0.17062873 -0.59142464 5.0628437e-39
-0.20418239 0.13830394 -0.57572103 2.6697286e-39
-0.11556304 0.11801571 -0.54582834 3.8703822e-39
-0.14404607 0.11264467 -0.56094688 2.9484469e-39
-0.16990829 0.11417025 -0.56720239 2.4885575e-39
-0.19076526 0.11906087 -0.576253 2.2112658e-39
-0.058550835 0.10594457 -0.53243256 3.8675641e-39
-0.072474241 0.11081451 -0.54557514 4.0523043e-39
-0.10448551 0.11339903 -0.55625409 4.1441258e-39
-0.13146555 0.10895771 -0.5687452 3.7742699e-39
-0.044481993 0.091825843 -0.54187858 3.5019976e-39
-0.057970762 0.091034293 -0.55670673 3.2268414e-39
-0.028506637 0.066366971 -0.54113448 4.0533805e-39
-0.02414906 0.036513269 -0.54049861 4.8824237e-39
-0.028956652 0.015130162 -0.54463404 5.9902188e-39
-0.039501429 -0.0044546723 -0.54766613 7.6504562e-39
-0.052696705 -0.019823372 -0.55892068 8.7557346e-39
-0.044801712 -0.031484306 -0.53745008 7.4595671e-39
-0.064798355 -0.040266812 -0.55224234 5.9859126e-39
-0.083578229 -0.054135323 -0.5687452 1.0476545e-38
-0.089237332 -0.065295398 -0.57161838 1.4060269e-38
-0.26071644 0.21042275 -0.54993761 5.4352248e-39
-0.22520947 0.19166136 -0.54291326 3.8704074e-39
-0.24966848 0.19943494 -0.55011892 4.8816979e-39
-0.20162702 0.16552484 -0.53501517 3.0392314e-39
-0.21018827 0.17178863 -0.54710931 3.6831589e-39
-0.14037359 0.14616615 -0.51700866 3.9575751e-39
-0.15806913 0.1444279 -0.5280441 3.3147421e-39
-0.18782973 0.14399183 -0.54185057 2.579677e-39
-0.19940114 0.14206016 -0.55568111 2.3960088e-39
-0.094305277 0.12710673 -0.5051654 4.0508386e-39
-0.12447929 0.12419111 -0.52483475 3.4991081e-39
-0.14746714 0.12805128 -0.53658295 3.130697e-39
-0.056817651 0.10804147 -0.51014304 3.4087384e-39
-0.080599308 0.11611521 -0.51667368 4.1455649e-39
-0.10406756 0.11568367 -0.5307197 4.4196239e-39
-0.03792274 0.092052102 -0.51177251 3.7774999e-39
-0.026341558 0.063149035 -0.50956625 4.3292443e-39
-0.021050215 0.035101116 -0.51162177 5.6199874e-39
-0.026293397 0.0085123181 -0.51199526 6.9110891e-39
-0.037213326 -0.011754632 -0.51745576 6.7259902e-39
-0.039316416 -0.028745711 -0.51846272 7.0936825e-39
-0.061178207 -0.046978831 -0.51042908 8.3815585e-39
-0.26579249 0.20726603 -0.52223504 5.8047346e-39
-0.29655266 0.20407915 -0.54316092 2.7604655e-39
-0.21430397 0.19015306 -0.50596952 3.7771468e-39
-0.23357797 0.19797146 -0.51597536 4.0548098e-39
-0.25417674 0.19953632 -0.5314647 4.9760529e-39
-0.15558612 0.17212832 -0.48539621 4.1409042e-39
-0.17282605 0.17170352 -0.49770913 3.2221751e-39
-0.20248222 0.17473763 -0.5118798 3.2225563e-39
-0.1400125 0.15565526 -0.49503657 3.3154539e-39
-0.16103995 0.15681881 -0.51077712 2.8559079e-39
-0.18161833 0.15883958 -0.52108479 3.0406425e-39
-0.096849561 0.12655854 -0.48944318 3.592387e-39
-0.12416303 0.13368207 -0.49659321 2.5796812e-39
-0.061501145 0.11117935 -0.48199955 3.5916905e-39
-0.08230865 0.117962 -0.49222672 3.7757216e-39
-0.032735586 0.086592615 -0.46928567 3.5927695e-39
-0.041540504 0.093058705 -0.48248643 3.6842435e-39
-0.02563405 0.064362943 -0.47167882 4.2374131e-39
-0.02994442 0.063216984 -0.48796082 4.3288884e-39
-0.018813729 0.041624129 -0.47227705 4.3335617e-39
-0.022789359 0.033722699 -0.48169178 5.0682401e-39
-0.025445104 0.0062250495 -0.48178288 6.7274153e-39
-0.040028691 -0.015204966 -0.50151008 6.1745919e-39
-0.04875052 -0.030435026 -0.48887622 7.0980041e-39
-0.05994606 -0.048586667 -0.49354833 9.9553442e-39
-0.063811898 -0.058445811 -0.49545783 9.5887211e-39
-0.24996412 0.20511162 -0.48158431 4.6069018e-39
-0.26869929 0.21092004 -0.49517781 6.8170718e-39
-0.21576977 0.1914382 -0.47995684 3.501985e-39
-0.23649287 0.19994926 -0.48868984 4.0544399e-39
-0.15337825 0.17713952 -0.46427315 3.7775027e-39
-0.18165851 0.1812188 -0.47611988 3.0395817e-39
-0.19620824 0.18215436 -0.48882863 3.4073259e-39
-0.11789775 0.14909381 -0.45383447 2.6743711e-39
-0.13690054 0.1580745 -0.46776247 3.4072852e-39
-0.10450161 0.13094962 -0.45809388 3.040309e-39
-0.12192702 0.13676232 -0.47299743 2.6711607e-39
-0.064996719 0.11588407 -0.45155406 3.4073021e-39
-0.088264704 0.12149501 -0.46777886 3.6828156e-39
-0.037670374 0.090191483 -0.44521323 3.6838777e-39
-0.048571825 0.098710895 -0.45378184 3.4072922e-39
-0.027395964 0.065821052 -0.44616705 4.2395626e-39
-0.025559068 0.04421401 -0.44734889 4.8831496e-39
-0.029143333 0.029031038 -0.44948801 5.2526454e-39
-0.027904987 0.0063290596 -0.4509384 7.0018414e-39
-0.04080534 -0.019341826 -0.4531225 8.387315e-39
-0.052479982 -0.038053989 -0.45855644 9.4875501e-39
-0.064074397 -0.049798846 -0.47487053 1.0608638e-38
-0.073066473 -0.062769473 -0.47500917 1.0692553e-38
-0.091437936 -0.082303405 -0.48151246 1.0337463e-38
-0.25347161 0.2049771 -0.45832568 4.5154349e-39
-0.27354741 0.20667428 -0.45951277 6.6369993e-39
-0.19717968 0.19000798 -0.45429471 4.143435e-39
-0.22219932 0.19405407 -0.44957098 3.5927541e-39
-0.23863542 0.20064586 -0.46391204 4.0515925e-39
-0.1312815 0.18232054 -0.41867819 3.1314256e-39
-0.15458179 0.17732859 -0.4408111 3.3183252e-39
-0.19103336 0.18057293 -0.444969 3.4994823e-39
-0.11984479 0.1592558 -0.4269698 2.4885659e-39
-0.13905931 0.16040868 -0.44189692 3.131427e-39
-0.092798829 0.13908803 -0.412498 2.3963633e-39
-0.10748196 0.13498914 -0.43181533 2.8562625e-39
-0.071229339 0.11477607 -0.4216069 3.03923e-39
-0.09572041 0.11930591 -0.43404758 2.9491699e-39
-0.039403915 0.090365052 -0.41597077 3.6849567e-39
-0.05646646 0.099148273 -0.421435 3.1332039e-39
-0.025428534 0.064146817 -0.412875 5.0668038e-39
-0.026238918 0.036751091 -0.41638386 6.4511661e-39
-0.03232336 0.022657275 -0.42844823 8.2032432e-39
-0.035832167 0.0020233393 -0.42038912 7.9248795e-39
-0.04609549 -0.022526264 -0.42719421 1.0599993e-38
-0.05472827 -0.040695786 -0.43103886 1.1151749e-38
-0.26264238 0.20461351 -0.43113858 5.3466319e-39
-0.27717197 0.20703506 -0.44485587 7.5633025e-39
-0.17603755 0.19918936 -0.40323704 2.2105623e-39
-0.19977534 0.19432878 -0.41669315 3.2243415e-39
-0.22632813 0.19652128 -0.42549232 3.5012717e-39
-0.24660408 0.19830614 -0.42785993 3.3201189e-39
-0.11223507 0.18152958 -0.40126592 1.4736994e-39
-0.13054419 0.18673104 -0.40189853 2.2101826e-39
-0.15950179 0.19076353 -0.40500951 2.2083917e-39
-0.19549251 0.18221027 -0.42505684 3.0374377e-39
-0.099925876 0.16658616 -0.39862341 1.473705e-39
-0.12205994 0.1669969 -0.39157301 1.5641083e-39
-0.06155622 0.13468653 -0.38430113 1.3811604e-39
-0.083111048 0.14310974 -0.39361948 1.6573745e-39
-0.055015445 0.11772734 -0.38605213 1.5659076e-39
-0.067686081 0.11476994 -0.40182689 2.486073e-39
-0.030119181 0.088877916 -0.37606516 1.7495688e-39
-0.043100953 0.092896819 -0.38979888 2.4878471e-39
-0.024152279 0.068555951 -0.37606516 3.6820771e-39
-0.030722976 0.062954485 -0.39006129 4.0544567e-39
-0.029351473 0.03398478 -0.38849705 5.8054534e-39
-0.03195107 0.012172282 -0.38153848 7.7437e-39
-0.039586544 0.00097501278 -0.39543763 8.0185199e-39
-0.052500606 -0.02440691 -0.39821553 1.1241795e-38
-0.058405995 -0.035359263 -0.40031633 1.4197073e-38
-0.24777102 0.21082366 -0.39326629 2.3945893e-39
-0.25702548 0.21101999 -0.40000147 3.7739322e-39
-0.1835357 0.19914043 -0.38597873 1.5648272e-39
-0.20755994 0.20404094 -0.38412067 1.291822e-39
-0.23595405 0.2037586 -0.3942478 2.0279577e-39
-0.14315546 0.17940569 -0.37476769 1.2900298e-39
-0.16367483 0.18674266 -0.38080168 1.3807863e-39
-0.10868704 0.1563586 -0.36150196 1.382238e-39
-0.12746251 0.16394544 -0.37509573 1.1971181e-39
-0.091853261 0.13901269 -0.36751267 1.1070846e-39
-0.11610794 0.14611602 -0.38191745 8.2941315e-40
-0.060585022 0.11274564 -0.36522618 1.1978566e-39
-0.076822519 0.11947268 -0.36150339 1.1056693e-39
-0.033750057 0.087811828 -0.35963801 1.2904039e-39
-0.047309995 0.098264813 -0.35921574 1.198937e-39
-0.026227117 0.065609097 -0.35916933 1.8424931e-39
-0.035054803 0.053813934 -0.34826186 1.6581074e-39
-0.021242976 0.044182837 -0.35837436 1.9346943e-39
-0.025526762 0.028386176 -0.35939467 2.5800651e-39
-0.027687192 0.0060284734 -0.36089832 3.867581e-39
-0.038515925 -0.010047615 -0.37602124 9.0297669e-39
-0.045153975 -0.025979161 -0.36650601 7.6511807e-39
-0.029007316 0.27504629 -0.30099988 4.4196365e-39
-0.052113771 0.279737 -0.30404276 4.6062054e-39
-0.22643447 0.21611148 -0.35100237 2.5832881e-39
-0.24508321 0.20939595 -0.3631174 1.7510219e-39
-0.26384616 0.21147102 -0.372143 2.4864276e-39
-0.0090675354 0.26034313 -0.29776567 4.7898694e-39
-0.16113067 0.20264262 -0.33925009 2.3902733e-39
-0.18500078 0.202106 -0.35371995 3.040309e-39
-0.21357226 0.20712715 -0.36017814 2.0290269e-39
-0.23659611 0.204386 -0.36264315 1.5659342e-39
0.013988018 0.24490464 -0.29176071 2.2191971e-39
-0.0017007589 0.2332238 -0.29528347 2.8577338e-39
-0.14637494 0.18555862 -0.34417892 2.7637249e-39
-0.16588795 0.19065791 -0.35823524 1.8421484e-39
-0.034666538 0.17847872 -0.30633363 3.6860343e-39
-0.056629658 0.17845023 -0.30836806 3.5002039e-39
-0.10822582 0.16105825 -0.33675098 3.2257765e-39
-0.13330901 0.16872299 -0.34385955 2.3023964e-39
-0.013747811 0.16108614 -0.30339271 2.5797148e-39
-0.050655961 0.15475118 -0.31466004 3.4130488e-39
-0.085160017 0.14691681 -0.32470223 2.8605995e-39
-0.091678619 0.13994372 -0.33943227 3.041395e-39
0.0032817125 0.1313743 -0.29987568 3.7829229e-39
-0.0079948902 0.13425857 -0.30607003 2.6747691e-39
-0.039579988 0.11368841 -0.32096875 1.2929248e-39
-0.068214417 0.11255759 -0.33544472 2.6729838e-39
-0.08251369 0.12150329 -0.34028143 3.2236311e-39
-0.0045436621 0.10368615 -0.30883071 4.3328541e-39
-0.03715241 0.089182138 -0.33266416 2.8577366e-39
-0.053066492 0.098623097 -0.33991972 1.7532037e-39
-0.0037997961 0.079135895 -0.30831504 6.0831291e-39
-0.027778506 0.063634694 -0.32581544 3.2250828e-39
-0.037055135 0.052321255 -0.33810374 1.3833226e-39
-0.02099812 0.038452148 -0.3186042 4.425777e-39
-0.030599833 0.027659774 -0.33483055 2.3967669e-39
-0.032628775 0.0013280511 -0.33219096 2.8588422e-39
-0.044750333 -0.030637622 -0.33472082 4.4204086e-39
-0.090551019 0.32613432 -0.27641815 3.312259e-39
-0.099098206 0.31321025 -0.27846822 4.0547944e-39
-0.10367203 0.30491596 -0.2826837 3.685656e-39
-0.02482152 0.27901816 -0.27848309 4.0519456e-39
-0.056351304 0.27920419 -0.29687786 6.0820417e-39
-0.25885594 0.20976257 -0.35074756 3.2211494e-39
-0.27328718 0.20742416 -0.35014436 4.2367222e-39
-0.014820099 0.25701565 -0.27888289 5.1550477e-39
-0.0072422028 0.22969621 -0.278469 8.1020555e-39
-0.027246237 0.20626211 -0.29548928 2.2091162e-39
-0.012426496 0.19395471 -0.27717689 3.2247087e-39
-0.02830708 0.18892145 -0.29436415 1.6588305e-39
-0.087764263 0.17635351 -0.31421837 3.0367049e-39
-0.10840082 0.15943217 -0.31893635 3.1321543e-39
-0.0079129934 0.16595852 -0.27889583 1.7503031e-39
-0.013706088 0.15937001 -0.29453802 1.5655629e-39
0.0030690432 0.13586688 -0.27998289 3.7796887e-39
-0.0089664459 0.14244932 -0.29358682 1.7528086e-39
0.0036209822 0.1162805 -0.28282851 7.1891165e-39
-0.0021967888 0.098048151 -0.28582492 4.8853062e-39
-0.0029840469 0.070823252 -0.28552639 4.7030715e-39
-0.0013985634 0.043554425 -0.28607926 5.8061905e-39
-0.01204288 0.029692411 -0.30212876 7.2827569e-39
-0.0018935204 0.024187446 -0.27641815 7.9324619e-39
-0.010601521 0.0069535971 -0.28652817 6.1789471e-39
-0.03552115 -0.0017578602 -0.30890325 1.1428309e-38
-0.048214316 -0.014154851 -0.31723788 9.8656863e-39
-0.020687819 -0.015569091 -0.28761113 4.7084553e-39
-0.032982945 -0.027258694 -0.29337883 2.3989501e-39
-0.052805066 -0.038240492 -0.3109816 8.2947592e-39
-0.05999589 -0.059675813 -0.31368068 8.9347253e-39
-0.10149527 0.3469674 -0.2524136 6.6316212e-39
-0.11190689 0.34252167 -0.27210197 4.7938336e-39
-0.089033127 0.32601416 -0.25741535 4.8805978e-39
-0.11517906 0.33112949 -0.27572301 5.2479356e-39
-0.032994032 0.29957479 -0.25648123 2.4853317e-39
-0.076104999 0.30270088 -0.25280315 2.3002468e-39
-0.093337178 0.30284649 -0.27197018 6.534364e-39
-0.012935758 0.28039569 -0.25420633 7.276601e-39
-0.030061364 0.28414178 -0.25173065 6.5386997e-39
-0.063350201 0.28722322 -0.24412264 2.4043227e-39
-0.0052062273 0.25780237 -0.25168186 6.5387067e-39
-0.017214417 0.26128405 -0.24419479 1.0591681e-38
0.0014104843 0.23677987 -0.24892659 7.4556253e-39
-0.0060789585 0.22313845 -0.24782152 9.575731e-39
-0.0045162439 0.19700062 -0.25095037 6.3543e-39
-0.0011188984 0.16752428 -0.25269946 1.750673e-39
0.0077451468 0.13854289 -0.25150365 3.3172658e-39
0.0027295351 0.10619658 -0.25174856 4.2424619e-39
-0.0020087957 0.094641805 -0.26409855 4.5158286e-39
0.0062949657 0.080367804 -0.25004563 3.5023816e-39
0.0037504435 0.071916282 -0.2602936 6.3622397e-39
-0.0016788244 0.041593254 -0.25702217 5.6239558e-39
0.00015389919 0.014849842 -0.25664517 5.529968e-39
-0.0052598715 0.00097328424 -0.26964429 3.5960205e-39
0.0010597706 -0.0079494715 -0.24941646 8.9415664e-39
-0.009427309 -0.024660707 -0.26407653 8.5706315e-39
-0.0090736151 -0.044508994 -0.25456116 1.0692245e-38
-0.02426815 -0.050755262 -0.26530424 1.9523556e-38
-0.10555482 0.34648204 -0.23880865 7.8276182e-39
-0.11690748 0.34397286 -0.23300196 6.7234511e-39
-0.091870427 0.32473582 -0.23640786 3.9662296e-39
-0.11742342 0.32242954 -0.22974922 8.4805616e-39
-0.082330227 0.29836464 -0.23168209 7.9273906e-39
-0.10722399 0.29396993 -0.2237646 7.1837117e-39
-0.078585029 0.28103083 -0.23768829 9.2199189e-39
-0.1023109 0.2687968 -0.22769707 5.0725547e-39
-0.12423229 0.24893498 -0.23326837 4.8864006e-39
-0.064080834 0.23472315 -0.22778399 5.0635822e-39
-0.15964103 0.21328419 -0.24264583 5.1608141e-39
-0.16965795 0.21566314 -0.24392591 5.1600812e-39
-0.02763021 0.21685249 -0.23070642 1.0127822e-38
-0.052006006 0.21696538 -0.22549713 5.802222e-39
-0.014549494 0.19501454 -0.22407578 8.1974839e-39
-0.0087598562 0.16378379 -0.22369052 2.0279802e-39
0.0041133165 0.13681281 -0.2227807 3.6871302e-39
0.0037560463 0.10409647 -0.22412939 5.2551775e-39
0.0038983822 0.078268945 -0.22635955 6.9154051e-39
-0.0011333227 0.061326146 -0.22700042 5.9023364e-39
0.00087356567 0.042649984 -0.22748843 4.7906121e-39
0.0070195198 0.01312387 -0.22784626 5.809789e-39
0.0041997433 -0.019060373 -0.22952798 6.4540879e-39
0.002045393 -0.03653872 -0.21855737 3.8729984e-39
-0.0070159435 -0.052053094 -0.23400784 7.9292193e-39
-0.015821099 -0.080361903 -0.22864175 1.0593528e-38
-0.13346016 0.31719178 -0.22039841 7.8340922e-39
-0.14502335 0.31007051 -0.21153699 8.3825898e-39
-0.17371464 0.29718751 -0.20533989 8.7524514e-39
-0.11837029 0.28830105 -0.21100703 7.552476e-39
-0.13950253 0.28920895 -0.20619091 7.7361554e-39
-0.163831 0.28621757 -0.20302182 8.4722912e-39
-0.16851115 0.23351669 -0.23044428 1.4772923e-39
-0.18464231 0.22337222 -0.22657908 3.138959e-39
-0.22933233 0.21133268 -0.22617418 3.2189409e-39
-0.24617672 0.20761651 -0.23165423 2.3963605e-39
-0.16306388 0.20956051 -0.22383511 4.0519442e-39
-0.17428136 0.21242213 -0.22394487 4.3317639e-39
-0.20744598 0.21383679 -0.2201668 4.0544371e-39
-0.098103881 0.19505298 -0.22274482 6.8188683e-39
-0.14418578 0.18696809 -0.21712713 4.8834929e-39
-0.027822852 0.19054186 -0.20793198 6.4472201e-39
-0.10881829 0.15728259 -0.2071605 6.7266852e-39
-0.12913072 0.16744024 -0.21231598 4.3292471e-39
-0.026670456 0.15904391 -0.2089577 2.2127245e-39
-0.038876414 0.14643764 -0.20506631 2.4882352e-39
-0.080449462 0.14151347 -0.20481527 2.9506497e-39
-0.09762609 0.14740312 -0.20209841 4.0548337e-39
-0.01038754 0.12914598 -0.20606177 4.6108717e-39
-0.031983495 0.12415016 -0.2020632 4.332152e-39
-0.064951181 0.11515331 -0.19791535 4.1502719e-39
-0.0049293041 0.1019249 -0.20293002 5.0715051e-39
-0.028241277 0.095455289 -0.19245726 6.8199669e-39
-0.054733515 0.096935153 -0.19281533 5.7132718e-39
-0.0035437346 0.071475327 -0.19819114 6.4526361e-39
-0.015323758 0.072485387 -0.19379169 6.6395399e-39
0.0059713125 0.041678905 -0.20138118 4.4247162e-39
-0.0032632351 0.042663276 -0.19738331 5.5317686e-39
0.013530374 0.012836337 -0.19759294 6.178573e-39
0.0049213171 0.013729632 -0.19807741 5.8998323e-39
0.0036151409 -0.017124057 -0.1998377 5.4403031e-39
0.000187397 -0.043862104 -0.19706528 6.0867473e-39
-0.010830164 -0.061836302 -0.20972045 8.9419223e-39
-0.015744805 -0.084412575 -0.20890959 8.4827546e-39
-0.023005724 -0.10108405 -0.20901155 9.6779936e-39
-0.022249579 -0.10931188 -0.20209841 5.9906182e-39
-0.18277407 0.28552425 -0.19900282 8.8482539e-39
-0.25979447 0.26245451 -0.20190683 6.3578649e-39
-0.29183102 0.26062071 -0.20877729 2.392413e-39
-0.31403542 0.25912857 -0.22137952 2.7640963e-39
-0.14049399 0.27275515 -0.19466652 9.8580492e-39
-0.16901588 0.27768075 -0.19771361 9.3059993e-39
-0.20479596 0.26695752 -0.19259718 8.4765917e-39
-0.21710849 0.24486119 -0.19781643 9.1208555e-39
-0.26962781 0.25877553 -0.19654258 4.9774276e-39
-0.19837058 0.21858406 -0.19026995 4.2424339e-39
-0.2352488 0.23760724 -0.19357131 5.8901199e-39
-0.24917054 0.21188545 -0.20686498 2.6697258e-39
-0.16475439 0.20925468 -0.19325452 3.5952919e-39
-0.18985236 0.21522659 -0.19580683 3.8707913e-39
-0.21435881 0.2112391 -0.2082423 2.3920781e-39
-0.14701736 0.18726492 -0.18961279 3.5949261e-39
-0.11310101 0.15903485 -0.18375352 3.6889196e-39
-0.13393211 0.16874987 -0.18389471 2.8559191e-39
-0.08898735 0.14162183 -0.18111521 3.964796e-39
-0.072302699 0.11417633 -0.17676276 4.6090879e-39
-0.055837989 0.086343229 -0.17336009 4.2410256e-39
-0.024558783 0.063953161 -0.1786734 7.5596857e-39
-0.047208309 0.060795307 -0.16808107 3.9640954e-39
-0.010109305 0.036940455 -0.17523479 6.0838662e-39
-0.04637146 0.027366877 -0.1696634 5.1633364e-39
-0.005787015 0.010162473 -0.1700608 5.5303351e-39
0.0063532591 -0.017070472 -0.1696744 5.3488235e-39
0.0045696497 -0.04932791 -0.17155598 7.100902e-39
0.0010528564 -0.072584629 -0.17034005 7.0087134e-39
-0.0065364838 -0.090746641 -0.17665637 9.2203337e-39
-0.013042212 -0.11133653 -0.1756068 8.5713784e-39
-0.022450209 -0.11993319 -0.18827215 1.1983333e-38
-0.30345595 0.25776452 -0.18903692 4.3367973e-39
-0.23464096 0.25534463 -0.18438573 7.4642307e-39
-0.27013719 0.24215287 -0.17810045 4.8809706e-39
-0.29300225 0.24838406 -0.17779626 2.8562961e-39
-0.23707557 0.21411788 -0.17728163 3.5019892e-39
-0.26447093 0.21480936 -0.18028787 2.3956599e-39
-0.16513932 0.21011406 -0.1621882 3.7796971e-39
-0.20392179 0.20995116 -0.16995426 3.4126929e-39
-0.2190932 0.20897162 -0.16971348 4.8856649e-39
-0.15145707 0.18653792 -0.16105431 3.5034508e-39
-0.10308123 0.15575051 -0.15394725 5.8105009e-39
-0.12180209 0.16104597 -0.15194085 3.2272212e-39
-0.13924229 0.1680674 -0.16094221 3.4977068e-39
-0.08908236 0.13999474 -0.14932801 4.6080103e-39
-0.075766444 0.11299765 -0.14540505 4.7002059e-39
-0.065205932 0.084274888 -0.14493126 4.793119e-39
-0.05356431 0.055933535 -0.14421374 5.0722198e-39
-0.058667064 0.024079502 -0.14944999 3.3201567e-39
-0.06725812 0.0084462762 -0.15864444 4.5186915e-39
-0.015866399 -0.0035055876 -0.14772333 7.5607857e-39
-0.044067264 -0.0042946339 -0.14967203 4.8874852e-39
-0.067556024 -0.0076494217 -0.14563718 3.8715452e-39
-0.0071481466 -0.023519933 -0.14273044 6.5477282e-39
-0.035255909 -0.023376644 -0.13274345 2.6783662e-39
-0.003906846 -0.053450227 -0.14248118 7.007277e-39
0.0032881498 -0.080987155 -0.14129101 7.6537227e-39
-0.0064109564 -0.088294566 -0.15567642 9.0388109e-39
0.0050652027 -0.10384732 -0.14102294 8.3009039e-39
-0.0059306622 -0.11516207 -0.15043283 1.0323108e-38
-0.02688241 -0.1339094 -0.15271887 1.6504475e-38
-0.31442106 0.25100082 -0.16974127 7.0090259e-39
-0.32568109 0.24519336 -0.15583022 8.4819573e-39
-0.30001998 0.23290658 -0.16304787 3.4130712e-39
-0.32816803 0.22984278 -0.15639703 5.9005427e-39
-0.2141546 0.21357089 -0.13175943 2.7698164e-39
-0.23359191 0.21565104 -0.1444636 3.0439173e-39
-0.27421188 0.21407342 -0.16287014 1.84287e-39
-0.29360712 0.21204412 -0.15533519 2.5843853e-39
-0.31386435 0.19958895 -0.14927526 2.6776712e-39
-0.1690855 0.205998 -0.13173354 4.4247064e-39
-0.20092082 0.20915973 -0.13891974 4.240999e-39
-0.21911776 0.21097773 -0.14800896 3.9665883e-39
-0.14309263 0.17789638 -0.12128833 1.9321874e-39
-0.15427279 0.18691987 -0.13185224 4.0555553e-39
-0.10872924 0.15409219 -0.12839383 3.4112621e-39
-0.12586677 0.16265875 -0.12243146 3.4116082e-39
-0.14542639 0.16946626 -0.1368968 2.9571279e-39
-0.097133994 0.13701504 -0.11944745 4.5172538e-39
-0.068316579 0.11143208 -0.10645211 4.701645e-39
-0.075273037 0.11434478 -0.11877269 3.8715298e-39
-0.062154174 0.089261949 -0.1050056 4.7913295e-39
-0.068371415 0.08128804 -0.11966993 3.8733347e-39
-0.058274031 0.055058658 -0.11497354 4.518337e-39
-0.059441447 0.023800075 -0.11865807 4.9800326e-39
-0.063453197 -0.0072137117 -0.11970363 3.9651716e-39
-0.066584945 -0.015649498 -0.13197947 2.6798362e-39
-0.022163868 -0.031918108 -0.11817451 6.2736455e-39
-0.039773583 -0.031265736 -0.11493061 4.1513537e-39
-0.063158751 -0.027318358 -0.13197948 2.7705731e-39
-0.011380553 -0.055763781 -0.11421014 6.3636999e-39
-0.029943109 -0.048562527 -0.10625158 4.7974294e-39
-0.00097262859 -0.083637714 -0.1138613 8.4827687e-39
-0.001837492 -0.10428554 -0.1143338 9.2189016e-39
-0.0090842247 -0.12108248 -0.11513479 1.0695834e-38
-0.34600759 0.23754221 -0.15090406 8.3851346e-39
-0.33776653 0.2213946 -0.15063262 5.9073769e-39
-0.36448848 0.21476865 -0.14259475 6.6395343e-39
-0.38528144 0.20807314 -0.13392374 6.3632823e-39
-0.22018385 0.21511275 -0.10853291 3.7778979e-39
-0.23342657 0.21678275 -0.11269112 4.2402941e-39
-0.33391988 0.19594073 -0.14146414 4.1509838e-39
-0.35043395 0.18821907 -0.13649145 3.505264e-39
-0.17615056 0.20212799 -0.10306828 5.0711478e-39
-0.20595074 0.20584792 -0.10785422 3.6856966e-39
-0.14557624 0.18352389 -0.092880711 4.1473908e-39
-0.15920198 0.18916017 -0.10360297 4.1481083e-39
-0.12801421 0.16023302 -0.093958415 3.5023718e-39
-0.15074098 0.16790581 -0.11285125 3.5978184e-39
-0.10118949 0.13657045 -0.089981027 4.5161677e-39
-0.073759317 0.11447513 -0.087502673 4.1492027e-39
-0.083310127 0.10989624 -0.077759616 5.160461e-39
-0.063111186 0.087185502 -0.084403418 4.2406711e-39
-0.067173123 0.071102321 -0.097529538 1.8461351e-39
-0.056729674 0.061162531 -0.080898315 4.0566512e-39
-0.062075853 0.049419522 -0.092243478 2.9517455e-39
-0.059907675 0.022046566 -0.086814977 4.5176167e-39
-0.062268853 -0.008533597 -0.091838792 4.1502831e-39
-0.075551391 -0.021450937 -0.087537885 2.0355304e-39
-0.024826646 -0.025669694 -0.081665136 4.9804053e-39
-0.048656106 -0.028746784 -0.09136375 4.2428501e-39
-0.014603257 -0.060003817 -0.082433894 5.8098199e-39
-0.032226801 -0.05172056 -0.092877783 5.0718905e-39
0.00094461441 -0.082367361 -0.082937963 8.2987389e-39
-0.0049077272 -0.10996312 -0.083836973 1.1156456e-38
-0.01130259 -0.12393445 -0.091714859 1.6789728e-38
-0.37285066 0.20186138 -0.11425315 4.1495474e-39
-0.3970803 0.21056128 -0.12022088 5.9027007e-39
-0.21609485 0.22112268 -0.078564793 4.3353764e-39
-0.33800495 0.18319547 -0.11777174 1.2014733e-39
-0.35285199 0.18950683 -0.11067212 3.5956436e-39
-0.15676343 0.20019287 -0.070232779 4.6108899e-39
-0.18296337 0.20122892 -0.074562147 4.7016534e-39
-0.20702589 0.20707631 -0.077778548 3.4137803e-39
-0.14545226 0.18567175 -0.06394992 4.2388718e-39
-0.12486243 0.16106081 -0.060808271 2.9506413e-39
-0.1329093 0.16323799 -0.074501663 3.4108866e-39
-0.1084801 0.1341629 -0.060230352 4.1477524e-39
-0.080673814 0.11146784 -0.055024557 3.9644443e-39
-0.087706447 0.1117149 -0.06167233 5.34702e-39
-0.059869766 0.086979926 -0.054081578 4.4250637e-39
-0.048056483 0.059179783 -0.053115238 4.887844e-39
-0.054698944 0.02460438 -0.0552506 4.610534e-39
-0.060150743 0.023413301 -0.068456128 2.3074677e-39
-0.047468901 -0.0051070452 -0.050761089 4.2460717e-39
-0.058251619 -0.0077015758 -0.06081 3.5971163e-39
-0.013422728 -0.025464356 -0.038486518 1.0137586e-38
-0.02769053 -0.02773124 -0.053741269 5.349185e-39
-0.053588867 -0.023596346 -0.071706057 3.2287108e-39
-0.00066709518 -0.064260662 -0.044168912 7.4689516e-39
-0.013950825 -0.056355894 -0.052939527 5.9030917e-39
0.0026185513 -0.07545054 -0.044168882 8.4827743e-39
-0.00091171265 -0.085750461 -0.055845663 9.1281563e-39
-0.011163354 -0.11090249 -0.057003476 1.4017749e-38
-0.021006346 -0.12614578 -0.055719722 1.5395296e-38
-0.3735429 0.20576978 -0.082739033 6.0006613e-39
-0.4068861 0.20291644 -0.098510779 6.5528163e-39
-0.22714734 0.21565402 -0.053461187 5.8068954e-39
-0.25394762 0.21301854 -0.045523196 2.8602407e-39
-0.34392202 0.1843878 -0.072310284 2.4000109e-39
-0.35882318 0.1895923 -0.083430797 3.319428e-39
-0.19459414 0.1971035 -0.044178557 4.0559295e-39
-0.21411967 0.20489889 -0.048809182 4.9789466e-39
-0.14016306 0.17797345 -0.026671655 4.703087e-39
-0.15222383 0.18426955 -0.037592046 3.6882106e-39
-0.17834723 0.19042712 -0.038772948 4.9792969e-39
-0.12592292 0.16120666 -0.032226942 3.0428369e-39
-0.11237657 0.13340396 -0.02969142 4.0573602e-39
-0.082127094 0.11082578 -0.025760051 4.2403123e-39
-0.04989171 0.082943797 -0.019166425 4.147772e-39
-0.061315775 0.090307653 -0.024209714 4.6108899e-39
-0.045618057 0.068657577 -0.015040371 3.8740508e-39
-0.051708221 0.05539757 -0.025522448 6.0860172e-39
-0.061280847 0.025090754 -0.02852135 4.7034611e-39
-0.068059087 0.010726392 -0.020000387 4.2403264e-39
-0.043266535 -0.0059466362 -0.020815505 4.0598924e-39
-0.06215477 -0.0027126074 -0.030899234 4.058456e-39
-0.014260292 -0.025449693 -0.01856833 6.5473737e-39
-0.036184192 -0.02039063 -0.027471799 4.7970917e-39
-0.0031790733 -0.06499815 -0.032804158 5.8076871e-39
-0.015698075 -0.058521688 -0.02106324 6.8254081e-39
-0.0021799803 -0.073820829 -0.026174685 6.8272214e-39
-0.0092806816 -0.087863505 -0.019518945 1.1157164e-38
-0.019536376 -0.11497492 -0.027069049 1.4935762e-38
-0.024776101 -0.12966734 -0.028584018 1.7331037e-38
-0.37883246 0.20641333 -0.053326219 8.3937932e-39
-0.23470104 0.20799243 -0.023320246 4.8874502e-39
-0.25809658 0.21180516 -0.026756782 3.9655121e-39
-0.29384089 0.21068126 -0.036871135 3.6867504e-39
-0.32698083 0.19835305 -0.044129934 3.2286687e-39
-0.34997666 0.19564271 -0.051308647 4.0566315e-39
-0.36643147 0.19507736 -0.058447417 2.6744075e-39
-0.20136392 0.199301 -0.014118672 4.6101654e-39
-0.22014749 0.2060858 -0.021912813 5.2555166e-39
-0.14455318 0.17690969 -0.0070854216 4.2410298e-39
-0.16089642 0.18271911 -0.00642756 4.7034331e-39
-0.1839242 0.18700379 -0.011355583 4.7931106e-39
-0.13165009 0.15991211 -0.0032890425 3.2279485e-39
-0.099466324 0.12703902 0.0042066509 5.0704303e-39
-0.11309469 0.13387609 0.00021430729 4.5176181e-39
-0.083707213 0.1106807 0.0036945045 4.792047e-39
-0.055931807 0.081888974 0.010022873 5.0722338e-39
-0.065793991 0.091643155 0.00524707 5.0700604e-39
-0.04637289 0.061774194 0.010329185 5.4424471e-39
-0.051593423 0.0465101 0.0012957688 5.4406576e-39
-0.038063526 0.024068415 0.011922855 4.6105452e-39
-0.051360846 0.027790189 0.0025668764 5.0722394e-39
-0.031306148 -0.00054174662 0.010169663 4.7981819e-39
-0.044545412 0.0039803982 -0.0044457684 3.9712897e-39
-0.019718051 -0.027000487 0.01095926 6.1796688e-39
-0.01524663 -0.055149496 0.0083840797 7.286752e-39
-0.01796186 -0.065697551 -0.0015579292 6.6417511e-39
-0.0088888407 -0.077576756 0.0093324389 1.0420305e-38
-0.012415409 -0.091858923 0.0034367358 1.0145907e-38
-0.022980213 -0.11511248 0.0021374512 1.3460287e-38
-0.032508612 -0.13016099 0.0042274697 2.1017372e-38
-0.38193583 0.20861292 -0.024490904 9.3996845e-39
-0.24079907 0.2075268 0.0026484297 5.4399219e-39
-0.26755869 0.20973271 0.0028524392 5.3452152e-39
-0.3066479 0.20592254 -0.017799797 3.1300061e-39
-0.32125473 0.20026588 -0.0049838852 4.6058424e-39
-0.3524729 0.19846964 -0.016794035 4.1484558e-39
-0.20336926 0.19810742 0.012343867 4.8856803e-39
-0.22926211 0.20320153 0.012450151 4.0566427e-39
-0.15051997 0.17587847 0.019029625 4.0530512e-39
-0.16924798 0.17516035 0.023668464 4.4268602e-39
-0.18729317 0.18387944 0.019861333 4.98002e-39
-0.13717878 0.15853715 0.026186218 3.5041822e-39
-0.15958774 0.16300964 0.036898587 7.7476825e-39
-0.10426223 0.12563086 0.025904421 3.9626675e-39
-0.12300873 0.13358623 0.029418461 4.3350289e-39
-0.090533376 0.10882592 0.033389129 4.702738e-39
-0.061826348 0.083784759 0.03347351 4.7952896e-39
-0.0733006 0.088291287 0.040613446 5.2562579e-39
-0.044116139 0.059610784 0.041911762 5.4410205e-39
-0.038794756 0.027638078 0.037061539 5.5335833e-39
-0.026046753 0.0049892664 0.040850714 6.3637069e-39
-0.024258375 -0.028125763 0.040508028 6.0874858e-39
-0.015751958 -0.057356238 0.038855519 8.5771223e-39
-0.01423645 -0.080421209 0.036866345 9.6827622e-39
-0.017705202 -0.096905887 0.035540204 1.3372384e-38
-0.023088694 -0.11439377 0.026451463 1.3742622e-38
-0.03829205 -0.13185912 0.030393571 2.2774842e-38
-0.36965454 0.20264852 0.0080846995 3.3208826e-39
-0.38478279 0.2069934 0.003416046 8.1183316e-39
-0.27900565 0.20654052 0.032024898 5.0707849e-39
-0.30866003 0.20633006 0.030174766 6.7292216e-39
-0.3397032 0.19936204 0.020991396 3.6889434e-39
-0.35522735 0.19878405 0.0091442503 4.5186915e-39
-0.20983219 0.18993396 0.0424845 5.2562537e-39
-0.23680544 0.19477779 0.037435293 6.1760576e-39
-0.25902474 0.19926023 0.032543208 5.6228895e-39
-0.17592645 0.16851962 0.049617119 4.1492027e-39
-0.19344735 0.17999089 0.047166552 4.6126878e-39
-0.1436435 0.14934218 0.053527415 3.4109062e-39
-0.16360748 0.15674728 0.057341311 5.8994637e-39
-0.11005008 0.12444711 0.051459659 5.532126e-39
-0.12348306 0.12985623 0.060066622 4.5176223e-39
-0.10041058 0.10421979 0.060815532 4.9793235e-39
-0.11893117 0.111875 0.068189055 2.3985591e-39
-0.065082312 0.075349629 0.062302485 3.5052808e-39
-0.078931451 0.083752096 0.065162174 5.4402905e-39
-0.060277343 0.051476836 0.069149844 4.8900104e-39
-0.070921063 0.057112813 0.068833433 5.0722464e-39
-0.03892982 0.029509485 0.071491696 5.533233e-39
-0.023279786 0.005605638 0.072599471 7.2863835e-39
-0.023970127 -0.029094756 0.070407927 7.009805e-39
-0.015241265 -0.05576551 0.07142403 1.0051902e-38
-0.020070791 -0.08147347 0.065622136 1.0053001e-38
-0.030856252 -0.10056812 0.066795021 1.4665646e-38
-0.038859844 -0.11764628 0.059924264 1.4851463e-38
-0.31870902 0.21704108 0.058931738 1.1735928e-38
-0.34873509 0.21162111 0.03619466 1.0411349e-38
-0.35961556 0.21069247 0.027707914 1.079234e-38
-0.28834772 0.20424706 0.057702772 4.8842538e-39
-0.30633748 0.21208805 0.053550985 4.1466566e-39
-0.34383237 0.20278764 0.03400116 4.7056065e-39
-0.22158134 0.18461019 0.06229531 5.8072681e-39
-0.24254358 0.18513626 0.066551246 6.0852941e-39
-0.27107954 0.1907028 0.063149482 4.5176083e-39
-0.18260443 0.16427404 0.074202366 3.5016795e-39
-0.20451915 0.17130691 0.072832555 5.2555349e-39
-0.23441029 0.17041349 0.081120811 8.4823595e-39
-0.15697336 0.14394021 0.084968105 3.9658764e-39
-0.17437136 0.15399492 0.080545537 5.6225181e-39
-0.13753283 0.12624264 0.086622804 4.3321534e-39
-0.10924685 0.098159134 0.0859337 5.1651399e-39
-0.12291884 0.10435349 0.091255493 4.8849727e-39
-0.093269348 0.076547861 0.091950826 5.5317798e-39
-0.065537333 0.044316709 0.0932412 4.9829206e-39
-0.077445626 0.056298256 0.09492591 5.9949048e-39
-0.049418092 0.02541256 0.099016793 6.2711483e-39
-0.028438449 0.0022090673 0.10193703 7.1934662e-39
-0.022890568 -0.027081668 0.10093075 8.4849295e-39
-0.016154528 -0.056906819 0.10095396 1.1712153e-38
-0.025161505 -0.086103261 0.098824076 1.5400691e-38
-0.034720421 -0.10094005 0.08907266 1.2813496e-38
-0.045416951 -0.11854547 0.079425678 1.4557653e-38
-0.32153249 0.21621209 0.071705453 1.7081041e-38
-0.34713495 0.20580322 0.066342644 1.3683127e-38
-0.29860318 0.19601142 0.084735699 5.0718709e-39
-0.31757712 0.20538437 0.080499969 5.8926772e-39
-0.25422239 0.17530912 0.08192493 9.6783817e-39
-0.27884614 0.17933106 0.088832296 4.9793053e-39
-0.21541524 0.16221583 0.10085983 5.5306952e-39
-0.24408782 0.16895097 0.098469235 5.9923698e-39
-0.16261995 0.14536399 0.10674649 4.8892733e-39
-0.1797421 0.1478532 0.1113817 4.2410312e-39
