# .PCD v0.7 - Point Cloud Data file format
VERSION 0.7
FIELDS x y z rgb
SIZE 4 4 4 4
TYPE F F F F
COUNT 1 1 1 1
WIDTH 956
HEIGHT 1
VIEWPOINT 0 0 0 1 0 0 0
POINTS 956
DATA ascii
-0.27646244 0.062947273 -1.055627 2.9444924e-39
-0.28470027 0.052972198 -1.0625732 2.1194345e-39
-0.12106061 0.063407302 -1.0085317 1.236435e-38
-0.13801265 0.053241074 -1.0353739 1.4118221e-38
-0.2823149 0.025696874 -1.0597123 2.763362e-39
-0.29488087 0.0035315156 -1.0710707 4.4193072e-39
-0.10815609 0.031964958 -1.0089791 3.9640702e-39
-0.13071895 0.03647989 -1.0293657 4.3314374e-39
-0.26120985 0.0050382018 -1.0483354 3.316198e-39
-0.27676749 0.0024716854 -1.0516721 4.9803955e-39
-0.29191422 -0.0035372972 -1.0747826 5.8086876e-39
-0.098442554 0.011640608 -1.0208689 4.1473922e-39
-0.11447251 0.019564509 -1.031356 3.780423e-39
-0.11567092 -0.022848725 -1.0276077 5.5303295e-39
-0.11999989 -0.04555136 -1.0222467 5.5335721e-39
-0.13175261 -0.059667349 -1.0386906 5.7151005e-39
-0.1417191 -0.082713068 -1.0288848 4.515142e-39
-0.15606093 -0.092982292 -1.0545932 1.0653387e-38
-0.30293524 0.12925965 -1.0264605 4.6994758e-39
-0.31540751 0.13416588 -1.0339686 7.1905571e-39
-0.28581297 0.11267883 -1.024044 3.3147379e-39
-0.28052795 0.082580745 -1.0259532 2.0272529e-39
-0.27798951 0.051859498 -1.0285774 2.5782575e-39
-0.13626432 0.055577517 -1.0069059 1.1624607e-38
-0.16981649 0.041196287 -0.99805665 7.5650961e-39
-0.27422893 0.028510213 -1.0228148 2.762999e-39
-0.28116882 0.016356289 -1.0325017 3.4994935e-39
-0.10991442 0.029307246 -0.99345595 4.2392305e-39
-0.13905466 0.034262121 -0.99844927 4.1448797e-39
-0.16533518 0.035892963 -0.99390304 5.9005441e-39
-0.27808785 -0.0010197163 -1.0294299 4.8845971e-39
-0.098092079 0.011658609 -0.99079591 4.3328583e-39
-0.10178423 -0.011711776 -0.98210371 5.163698e-39
-0.11552703 -0.027078986 -1.0017389 5.9898685e-39
-0.11843908 -0.055033565 -0.99965161 5.9009211e-39
-0.30865872 0.12887883 -1.0021553 4.5136342e-39
-0.32345104 0.13337302 -0.99949628 6.9153995e-39
-0.29785979 0.10811472 -0.9983533 2.9481162e-39
-0.28379762 0.083374023 -0.99659944 2.5804112e-39
-0.27159345 0.054561436 -0.99574584 2.7633662e-39
-0.17027009 0.040123522 -0.96218753 4.3328947e-39
-0.19616938 0.033065915 -0.99268603 3.0435628e-39
-0.27842093 0.024089038 -0.99994564 2.8555716e-39
-0.111974 0.027606487 -0.96361715 4.1456154e-39
-0.14757895 0.024472177 -0.96914756 3.777179e-39
-0.17227781 0.030543387 -0.97640932 4.5147426e-39
-0.28915548 -0.0028936267 -1.0024202 5.7136291e-39
-0.086916447 0.0053291321 -0.94607854 4.790605e-39
-0.098235846 0.015497625 -0.95853668 4.2392319e-39
-0.083084941 -0.0077199936 -0.94607854 5.8061835e-39
-0.092653275 -0.0162462 -0.96014345 5.8983819e-39
-0.1100353 -0.037083626 -0.98055792 6.4501278e-39
-0.09719336 -0.041665018 -0.95716822 6.8210739e-39
-0.11555481 -0.059626937 -0.97565937 6.9125675e-39
-0.1205132 -0.073975027 -0.96901339 3.8816318e-39
-0.12941349 -0.087766528 -0.97595537 1.1776312e-38
-0.30999541 0.13400817 -0.96585274 5.1597253e-39
-0.30114114 0.10770774 -0.96748435 2.8552129e-39
-0.28456104 0.082151651 -0.9651953 2.6708132e-39
-0.26267672 0.066624641 -0.95717436 2.4889415e-39
-0.2701571 0.054203987 -0.97096634 2.8552129e-39
-0.16512454 0.043737888 -0.94349277 6.2642834e-39
-0.17729175 0.040607095 -0.95803303 4.8828049e-39
-0.27606261 0.022824168 -0.96710038 3.1332347e-39
-0.12415051 0.024056673 -0.92526346 3.779309e-39
-0.15128982 0.020980656 -0.9426589 3.5938569e-39
-0.1710887 0.028839469 -0.9449777 4.7913183e-39
-0.27893806 -0.00016713142 -0.96812779 7.1873145e-39
-0.2888366 -0.0055060983 -0.97382551 5.5281715e-39
-0.086732507 0.010605335 -0.92359924 4.147758e-39
-0.10894787 0.013462007 -0.93553632 3.8708166e-39
-0.13393402 0.013850272 -0.94330603 3.8708053e-39
-0.07573998 -0.0058655143 -0.9232555 5.2526622e-39
-0.091443658 -0.030569136 -0.92786652 7.3738651e-39
-0.094553709 -0.044230759 -0.93161523 7.7419498e-39
-0.12373114 -0.079929411 -0.93743837 8.7564857e-39
-0.13397825 -0.089106798 -0.95530355 1.0584555e-38
-0.29747891 0.16256225 -0.92954624 1.3091063e-38
-0.31023455 0.13698018 -0.9353382 5.8090632e-39
-0.30642653 0.10714281 -0.93854147 3.0395901e-39
-0.27453744 0.082476437 -0.92715865 3.0388839e-39
-0.29203057 0.087247133 -0.94031584 3.13142e-39
-0.26687801 0.062107861 -0.93415093 2.580407e-39
-0.27513134 0.044348776 -0.9315123 2.1198227e-39
-0.10818243 0.061505139 -0.88165671 4.4186094e-39
-0.25910866 0.043595612 -0.94387197 2.3067138e-39
-0.27614164 0.023308277 -0.93498212 3.7778754e-39
-0.099778652 0.037361145 -0.89084595 3.6871217e-39
-0.12050545 0.038523972 -0.90616721 3.8664739e-39
-0.15087163 0.03314054 -0.91862351 3.7796943e-39
-0.28209221 -0.0004851222 -0.94123638 7.3670492e-39
-0.087610602 0.017151952 -0.89475626 4.6072844e-39
-0.10917294 -0.00014823675 -0.89122432 5.2512175e-39
-0.080400586 -0.006146431 -0.90190929 7.0025757e-39
-0.1028316 -0.019254446 -0.89832151 6.6348582e-39
-0.10605919 -0.047635674 -0.90179992 7.1884117e-39
-0.11642456 -0.067935169 -0.91621375 8.665334e-39
-0.12556541 -0.084302068 -0.91336286 8.9282877e-39
-0.32266057 0.1522311 -0.91893798 1.2905572e-38
-0.31154072 0.1374113 -0.90369576 5.5324595e-39
-0.28867984 0.10981816 -0.90169066 3.5895367e-39
-0.30270219 0.11909992 -0.90809351 3.3147617e-39
-0.27882373 0.085887551 -0.90258741 2.6718936e-39
-0.27232337 0.057225823 -0.90549952 2.5811315e-39
-0.11098671 0.068457246 -0.86363006 4.2374411e-39
-0.26728523 0.034628451 -0.89884824 3.5016403e-39
-0.27674198 0.016107082 -0.90808403 4.1445126e-39
-0.088442445 0.040050566 -0.85299921 4.7888114e-39
-0.097816706 0.047301412 -0.86569846 3.6871302e-39
-0.28844965 -0.0040330887 -0.91309053 6.6323498e-39
-0.30049586 -0.01677376 -0.91148216 7.6566079e-39
-0.094893694 0.014395595 -0.8631928 4.1459587e-39
-0.11064541 -0.00058060884 -0.88456208 2.7673599e-39
-0.09732914 -0.010621071 -0.86092752 5.0671961e-39
-0.10604036 -0.023658156 -0.87552059 4.7920372e-39
-0.11025596 -0.053575218 -0.87334454 6.7259986e-39
-0.11235094 -0.070869565 -0.88059074 6.2671953e-39
-0.12258506 -0.078798771 -0.87726861 6.9072075e-39
-0.29929268 0.13535124 -0.8670758 3.6842253e-39
-0.31811213 0.14193839 -0.88074905 5.3430291e-39
-0.26477933 0.11607897 -0.85743743 1.7542435e-39
-0.28783453 0.11481351 -0.87791097 2.948112e-39
-0.25969017 0.098746419 -0.85743737 2.1208638e-39
-0.27070498 0.083429813 -0.87390262 2.9466812e-39
-0.26708496 0.055591881 -0.87112075 2.8555632e-39
-0.093651414 0.075313628 -0.82988167 4.4221771e-39
-0.11101699 0.076874018 -0.84409815 3.7785929e-39
-0.27041578 0.030020356 -0.87571853 4.0512267e-39
-0.27794719 0.012695372 -0.88107187 3.8668411e-39
-0.087174773 0.047976911 -0.83177686 3.9633569e-39
-0.28255785 0.00062501431 -0.87918031 7.8326839e-39
-0.084969163 0.016152859 -0.8332895 4.5151e-39
-0.09588933 -0.019084275 -0.83835012 5.7143494e-39
-0.10201108 -0.038081765 -0.83011562 6.2664106e-39
-0.11116493 -0.056034327 -0.84427702 7.002947e-39
-0.11449945 -0.074674189 -0.84917039 8.8537218e-39
-0.27633345 0.13527864 -0.83279288 3.7775139e-39
-0.30297804 0.13995552 -0.84361809 5.4359604e-39
-0.26336646 0.12141871 -0.83616477 2.9477546e-39
-0.28445077 0.12376577 -0.83390504 3.2229066e-39
-0.24424911 0.095686376 -0.82000667 3.1303578e-39
-0.25456786 0.093939781 -0.84022689 2.6708048e-39
-0.24920857 0.067641258 -0.83632559 2.947756e-39
-0.25958586 0.047765911 -0.84452599 3.6813708e-39
-0.079540372 0.075564265 -0.79507095 4.1470153e-39
-0.095478892 0.083297968 -0.80419284 5.2454539e-39
-0.2522043 0.044463992 -0.82223094 4.2356138e-39
-0.26952839 0.024751604 -0.84401488 5.8962169e-39
-0.071633339 0.052461326 -0.7964747 4.6062152e-39
-0.28223479 0.0037298203 -0.85224873 7.5550264e-39
-0.071440697 0.034700871 -0.78808492 4.9742564e-39
-0.07918334 0.018011808 -0.80057633 5.1601064e-39
-0.087607741 -0.0067933202 -0.79918653 5.8087114e-39
-0.093235731 -0.020794749 -0.80762392 5.8065506e-39
-0.10018492 -0.040447235 -0.80513036 5.7157829e-39
-0.11420548 -0.061775625 -0.81964278 5.9848322e-39
-0.11421061 -0.07574898 -0.82233036 1.5428002e-38
-0.30172849 0.15655667 -0.80204231 1.2368232e-38
-0.26175809 0.14307117 -0.79277802 4.4192904e-39
-0.28167641 0.14726871 -0.80420172 4.0512323e-39
-0.30298853 0.14921051 -0.81988388 4.6097857e-39
-0.25155962 0.12170297 -0.79687458 2.8541185e-39
-0.26599836 0.12489253 -0.81413651 2.5771714e-39
-0.2402221 0.096663117 -0.79986233 2.9463211e-39
-0.24223495 0.069470048 -0.79633385 2.948814e-39
-0.24724352 0.057010472 -0.80923516 3.2236185e-39
-0.082807422 0.081246674 -0.76711798 3.8689991e-39
-0.25304151 0.032922029 -0.80462778 4.3303318e-39
-0.26281881 0.019508719 -0.81431925 5.4359534e-39
-0.070474625 0.052362561 -0.76517481 4.6062068e-39
-0.073530316 0.024053454 -0.76635891 4.8831524e-39
-0.077022552 0.013609767 -0.77913386 5.160461e-39
-0.085829139 -0.012489378 -0.7741729 5.4348884e-39
-0.085023284 -0.040167809 -0.7691353 7.0955014e-39
-0.091245294 -0.048656225 -0.78035522 5.4381549e-39
-0.27870262 0.1674825 -0.76430583 1.3835453e-38
-0.28588235 0.16398609 -0.77912682 1.5856204e-38
-0.26008034 0.15189505 -0.76804125 4.6040432e-39
-0.27951229 0.15087914 -0.7896297 3.7785957e-39
-0.23423433 0.12232256 -0.75174403 3.3158253e-39
-0.24764633 0.12547654 -0.7704187 3.0388755e-39
-0.23126459 0.11220825 -0.75174403 2.8541325e-39
-0.23792017 0.096086204 -0.76845306 2.5789777e-39
-0.095459938 0.097230077 -0.74446583 7.2913903e-39
-0.23645413 0.066350818 -0.77065724 2.7633578e-39
-0.065582156 0.082083642 -0.7301122 4.4203666e-39
-0.086094618 0.088664412 -0.73958844 4.698429e-39
-0.23964572 0.038529158 -0.76927912 5.4334437e-39
-0.24655163 0.031752229 -0.78122741 5.799341e-39
-0.061486602 0.06028837 -0.72910684 4.7880813e-39
-0.071116209 0.044268072 -0.73877114 4.5147314e-39
-0.070012689 0.020239592 -0.7362541 4.2399382e-39
-0.066414356 -0.0070360303 -0.73458844 5.1611742e-39
-0.077310562 -0.014761925 -0.75437295 4.9757054e-39
-0.066416383 -0.027899444 -0.73245317 6.5412458e-39
-0.073235393 -0.033575833 -0.73720092 8.3761803e-39
-0.2751615 0.1741538 -0.73821199 1.133505e-38
-0.2474072 0.15254033 -0.73383343 4.0515841e-39
-0.26169205 0.16453177 -0.74054617 4.1434154e-39
-0.23881876 0.12851888 -0.73410356 3.3158155e-39
-0.22990048 0.10164022 -0.73049986 2.5796924e-39
-0.23733962 0.094054937 -0.74878561 2.2130735e-39
-0.096921444 0.095383525 -0.70805556 1.0794827e-38
-0.22456825 0.077841878 -0.73060513 2.3034572e-39
-0.2327919 0.064494312 -0.74382699 2.3949256e-39
-0.06644702 0.084926248 -0.70122403 4.1448587e-39
-0.096194744 0.091112852 -0.7138781 7.3609858e-39
-0.24098217 0.043110192 -0.74481237 3.5898898e-39
-0.25361133 0.031177163 -0.75111902 4.5111469e-39
-0.057085156 0.057335913 -0.69915348 4.238855e-39
-0.070701003 0.039324045 -0.71663535 4.0548239e-39
-0.05240953 0.02709204 -0.70018375 4.5143755e-39
-0.061515093 0.0080391765 -0.71663535 4.6987597e-39
-0.048398614 0.001611948 -0.69658619 5.6225237e-39
-0.058915734 -0.012304664 -0.71403652 5.3481004e-39
-0.068489671 -0.033085048 -0.71747541 1.2241509e-38
-0.2565093 0.1788044 -0.70081747 5.8958442e-39
-0.27693975 0.17724174 -0.71824783 9.2209979e-39
-0.2428869 0.15820503 -0.70251173 3.8686221e-39
-0.23093665 0.13125008 -0.70017403 3.1328592e-39
-0.22616374 0.099519432 -0.70351857 2.6711677e-39
-0.086552858 0.098108947 -0.67439002 4.1448475e-39
-0.10495985 0.098409235 -0.67627043 5.5346371e-39
-0.22237206 0.068497777 -0.70469928 2.3038244e-39
-0.049415708 0.087466598 -0.65568924 4.3310478e-39
-0.066931367 0.088352382 -0.67201883 4.2388508e-39
-0.21780813 0.051699996 -0.70112479 3.9601199e-39
-0.22949469 0.044821382 -0.72124994 4.4221686e-39
-0.041173935 0.052384377 -0.65513134 4.4207267e-39
-0.054362059 0.057820499 -0.67199802 4.2384963e-39
-0.037592649 0.040187418 -0.65513134 4.7895303e-39
-0.045242429 0.026432216 -0.67103899 4.5158132e-39
-0.043035269 -0.0010957122 -0.67141038 6.3618908e-39
-0.25481117 0.18333989 -0.67383945 6.3561021e-39
-0.22747266 0.15733892 -0.66236228 3.5920352e-39
-0.24460673 0.15973133 -0.67856228 3.8675459e-39
-0.21548676 0.13419473 -0.66560358 3.1321375e-39
-0.21166885 0.10794741 -0.66504031 2.5796882e-39
-0.22013569 0.092368603 -0.68028504 2.484966e-39
-0.087210536 0.10085702 -0.63929278 4.4207365e-39
-0.1092838 0.097583175 -0.65123469 4.695164e-39
-0.12786746 0.091826022 -0.66301179 4.4203876e-39
-0.20916188 0.077148974 -0.65837741 2.1194499e-39
-0.22056592 0.070602477 -0.6778599 2.3942235e-39
-0.049666762 0.090938509 -0.63483286 3.6867518e-39
-0.065142155 0.096379101 -0.64919674 3.9633387e-39
-0.21770561 0.052459359 -0.68614644 3.6828156e-39
-0.03906095 0.061774313 -0.63643676 4.1459307e-39
-0.032256842 0.031892836 -0.63344878 4.7005548e-39
-0.041054606 0.016888499 -0.65230972 4.9757166e-39
-0.033799648 0.010387778 -0.63448548 6.1713661e-39
-0.04284215 -0.00020772219 -0.64400202 7.2759312e-39
-0.06033051 -0.023047686 -0.64345843 1.0327731e-38
-0.073673248 -0.043774664 -0.64271939 9.2034214e-39
-0.26489532 0.1993838 -0.64700329 1.7045732e-38
-0.24493885 0.18560988 -0.63705546 4.4196183e-39
-0.25819755 0.18813246 -0.65159619 8.0174227e-39
-0.20945072 0.1571579 -0.6213823 3.0402992e-39
-0.22722232 0.16428536 -0.63813722 3.590966e-39
-0.20561934 0.14410877 -0.6213823 3.4984173e-39
-0.21380055 0.1358003 -0.63654166 2.9470274e-39
-0.21049118 0.10466355 -0.63725424 2.302381e-39
-0.064371467 0.10631847 -0.60130429 4.3292471e-39
-0.089858055 0.10878026 -0.61403769 4.2370459e-39
-0.11662447 0.10739666 -0.60860592 3.5016487e-39
-0.18251538 0.086312473 -0.62465757 2.2119833e-39
-0.20211828 0.08135891 -0.64274931 2.1190758e-39
-0.03764832 0.083807647 -0.59242344 3.7767964e-39
-0.048079491 0.092355549 -0.60631001 4.143421e-39
-0.031111836 0.06071496 -0.59140664 3.8689907e-39
-0.037357092 0.064290524 -0.60985905 4.053019e-39
-0.026339293 0.043629289 -0.59038985 4.2381263e-39
-0.030864477 0.032967687 -0.60572368 4.7913015e-39
-0.035017371 0.0068589449 -0.60505098 7.0944126e-39
-0.051656961 -0.013600051 -0.61763591 8.7560947e-39
-0.058009624 -0.026546597 -0.60875285 7.8348573e-39
-0.069399357 -0.039585114 -0.6255517 9.5750724e-39
-0.24872351 0.20711547 -0.60799515 1.2070044e-38
-0.2411108 0.18883151 -0.61030841 4.6050956e-39
-0.20831144 0.1606741 -0.59924495 3.2239744e-39
-0.22699225 0.16857612 -0.61177993 3.6835148e-39
-0.20098126 0.14015186 -0.60086107 2.944875e-39
-0.21288383 0.12971961 -0.61807346 2.3027355e-39
-0.17134678 0.10639822 -0.58882785 2.5771742e-39
-0.19077706 0.10753149 -0.59949094 2.4853374e-39
-0.2078985 0.1083824 -0.61274374 2.3938578e-39
-0.064342499 0.10757095 -0.57711929 4.2363284e-39
-0.098561168 0.1112088 -0.58364844 4.1448503e-39
-0.14096701 0.10353458 -0.58267552 3.1317858e-39
-0.15991902 0.095023036 -0.60024136 2.7633648e-39
-0.17663348 0.094372749 -0.60704148 2.3023768e-39
-0.040771604 0.091917038 -0.56836802 3.5012928e-39
-0.051349282 0.091885269 -0.58532721 4.0523043e-39
-0.026230454 0.065816581 -0.57165051 3.9608276e-39
-0.022720575 0.037105203 -0.57134992 4.9742634e-39
-0.030593991 0.020361483 -0.58430505 6.449734e-39
-0.026026487 0.017621756 -0.55988598 6.0806292e-39
-0.033677578 0.0018533468 -0.57686454 7.2795185e-39
-0.045816064 -0.017803073 -0.59005034 7.4639112e-39
-0.062719226 -0.041384518 -0.57098955 1.3798799e-38
-0.25260234 0.20908362 -0.57754129 6.6334036e-39
-0.22465527 0.18525463 -0.57014132 3.8700571e-39
-0.24425137 0.19122928 -0.58244628 4.5136258e-39
-0.20742691 0.1663357 -0.57304347 3.4076468e-39
-0.23129356 0.17062873 -0.59142464 3.9593786e-39
-0.19537497 0.13963187 -0.57226694 2.4857017e-39
-0.11556304 0.11801571 -0.54582834 4.0530106e-39
-0.14363503 0.11354214 -0.56089175 2.7629864e-39
-0.16685545 0.11903304 -0.56571293 2.4874827e-39
-0.18853366 0.12246668 -0.57698464 1.6609717e-39
-0.053330541 0.10835958 -0.53931135 3.7764377e-39
-0.074042201 0.11395097 -0.54609323 4.4189232e-39
-0.10517645 0.11467505 -0.55636817 4.3281541e-39
-0.13146555 0.10895771 -0.5687452 3.5916737e-39
-0.036022305 0.093536556 -0.54078662 3.6842309e-39
-0.022260785 0.066463053 -0.54089707 4.053019e-39
-0.018799663 0.03602457 -0.54233223 4.7913071e-39
-0.026341796 0.010146022 -0.5423016 6.7263363e-39
-0.037697673 -0.0072943568 -0.54873598 7.8341398e-39
-0.043184638 -0.026825368 -0.53651917 4.8828021e-39
-0.059388518 -0.037627161 -0.55738449 6.7224029e-39
-0.070755482 -0.059918523 -0.55494356 8.6458798e-39
-0.076853037 -0.06442821 -0.56412321 9.0114407e-39
-0.26450157 0.20578718 -0.55178899 5.9873251e-39
-0.21050084 0.18907988 -0.52686179 3.8707619e-39
-0.22416675 0.19401139 -0.54328775 4.4210644e-39
-0.24890959 0.19930154 -0.55311686 4.7905784e-39
-0.20076013 0.17043614 -0.53994268 3.4987732e-39
-0.21062279 0.17849183 -0.55349612 4.1434083e-39
-0.13945973 0.14305353 -0.51700866 3.043169e-39
-0.15679586 0.14456952 -0.52683896 3.4984089e-39
-0.18436861 0.1462239 -0.54217601 2.762269e-39
-0.19940126 0.1420601 -0.55568111 2.213414e-39
-0.092253566 0.12690341 -0.50678062 4.1444958e-39
-0.12221384 0.12681353 -0.5238744 3.1321347e-39
-0.1480453 0.12883419 -0.53831518 2.8552101e-39
-0.055693746 0.11039603 -0.51176387 4.0515827e-39
-0.081286073 0.11815685 -0.51949251 4.2352565e-39
-0.10028791 0.11935312 -0.53090394 4.5136174e-39
-0.034752607 0.093104661 -0.51048183 3.95975e-39
-0.015457273 0.06372273 -0.50032485 4.5143489e-39
-0.024886727 0.067549169 -0.51432496 3.8696983e-39
-0.012740374 0.045806885 -0.50268942 5.066445e-39
-0.017842293 0.031979322 -0.51353031 5.8954939e-39
-0.021418452 0.0074945688 -0.51166564 6.9089437e-39
-0.034606457 -0.013612866 -0.52604192 5.9887895e-39
-0.029343605 -0.015976489 -0.50497901 5.8000963e-39
-0.036643386 -0.031519711 -0.51602167 7.738703e-39
-0.26538527 0.20389307 -0.52574503 6.0806054e-39
-0.28762639 0.207771 -0.54030818 2.2102022e-39
-0.20883226 0.19107318 -0.50790209 4.0533665e-39
-0.23667312 0.20002371 -0.51587319 4.6061788e-39
-0.15488756 0.17233348 -0.48855746 3.7767782e-39
-0.17309093 0.17179567 -0.49799028 3.2225409e-39
-0.19512916 0.17368782 -0.51266694 2.8555576e-39
-0.13797605 0.15705019 -0.49520108 3.2246932e-39
-0.16219616 0.15738261 -0.51333398 2.7622802e-39
-0.094871283 0.12858474 -0.48624068 3.2254149e-39
-0.12281203 0.13387126 -0.49743956 2.9480923e-39
-0.061788678 0.11286396 -0.48247415 3.6838833e-39
-0.081792116 0.12058437 -0.4936249 4.0501505e-39
-0.024180412 0.089070141 -0.46934187 3.6846022e-39
-0.040676951 0.095345974 -0.48255053 3.6842337e-39
-0.018080711 0.067441225 -0.47612575 4.1455748e-39
-0.015152335 0.041784525 -0.47245082 4.607985e-39
-0.020774245 0.032477438 -0.4885619 5.0675268e-39
-0.020480633 0.008762002 -0.48082867 6.7252629e-39
-0.033388972 -0.01716423 -0.48667672 6.6348399e-39
-0.043270826 -0.037250757 -0.48914278 8.5720594e-39
-0.25480163 0.20565838 -0.4769536 5.2526356e-39
-0.26558971 0.20776385 -0.49398971 6.5412122e-39
-0.19292331 0.19125772 -0.47355184 3.5923982e-39
-0.21437871 0.19506818 -0.47985008 4.1451978e-39
-0.24232066 0.20059609 -0.48859468 4.3310268e-39
-0.1522069 0.17714053 -0.46550849 3.9604562e-39
-0.18380547 0.18237263 -0.47660765 3.0388741e-39
-0.11504209 0.15322918 -0.45474929 3.132492e-39
-0.13388979 0.16033286 -0.468494 3.4998424e-39
-0.10270023 0.13349557 -0.45902634 3.1310627e-39
-0.11987269 0.14023739 -0.47487053 2.5821923e-39
-0.04640162 0.11030734 -0.44136611 3.0403076e-39
-0.065478206 0.11870849 -0.45286313 3.315461e-39
-0.031912804 0.092118084 -0.44383359 3.3168959e-39
-0.047403812 0.098594606 -0.45850509 3.4083755e-39
-0.016348958 0.06608516 -0.44266832 4.4225204e-39
-0.015579104 0.037621379 -0.44521606 5.3444739e-39
-0.024685264 0.0042009354 -0.45024434 7.0940483e-39
-0.036469221 -0.023638785 -0.45167392 9.125952e-39
-0.04738903 -0.040384948 -0.46273619 8.9397601e-39
-0.052909136 -0.057049811 -0.47241572 1.0596071e-38
-0.063914537 -0.063069403 -0.4593057 1.0880889e-38
-0.2543968 0.20737493 -0.45549548 6.2671574e-39
-0.27201819 0.20854837 -0.46817362 7.3699191e-39
-0.19859827 0.18959141 -0.44787562 3.5927639e-39
-0.22333539 0.19457 -0.45041844 3.7775083e-39
-0.23935997 0.20043314 -0.46063459 4.4214414e-39
-0.1312815 0.18232054 -0.41867819 3.0420971e-39
-0.15558648 0.17481816 -0.44242361 3.7771538e-39
-0.18659866 0.18034703 -0.44378576 3.3169043e-39
-0.10424685 0.16430056 -0.41346747 2.3956599e-39
-0.11743963 0.1612705 -0.42895135 2.8562695e-39
-0.13884318 0.16139013 -0.44177082 3.1314158e-39
-0.090268493 0.13860518 -0.41353852 3.0377923e-39
-0.10568798 0.13631386 -0.43312967 2.8566254e-39
-0.049707532 0.10933667 -0.42640921 2.8570093e-39
-0.06996274 0.11668229 -0.42114502 3.0385209e-39
-0.037104726 0.092999935 -0.41497138 3.5009214e-39
-0.015528917 0.058474243 -0.39965293 4.7884372e-39
-0.022356749 0.064706504 -0.41447338 4.9746095e-39
-0.016302586 0.035092175 -0.4131909 6.542294e-39
-0.01877296 0.010101318 -0.41013584 6.7267091e-39
-0.029060483 -0.0024464726 -0.42470166 8.661018e-39
-0.039156795 -0.024481237 -0.42400554 1.0140831e-38
-0.053001046 -0.043423653 -0.42880493 1.069508e-38
-0.061807632 -0.059662521 -0.43215632 1.2991683e-38
-0.066666842 -0.063877523 -0.44685382 1.1342243e-38
-0.23966944 0.20841992 -0.42902052 4.4243252e-39
-0.25062466 0.20897985 -0.43053192 6.6348554e-39
-0.1740216 0.20009965 -0.40272391 2.7637221e-39
-0.20194662 0.19379324 -0.41902283 3.4998522e-39
-0.22724319 0.19882894 -0.42450321 3.7778586e-39
-0.1091218 0.18473274 -0.40033221 1.8435707e-39
-0.12994134 0.18765026 -0.40141734 2.1179856e-39
-0.16260755 0.18877029 -0.40777281 2.117631e-39
-0.19012856 0.18463427 -0.42363489 3.4976928e-39
-0.097637534 0.16749161 -0.39613283 1.2893137e-39
-0.12205338 0.17388695 -0.39111689 8.2978169e-40
-0.064790368 0.14029241 -0.3895658 1.5655503e-39
-0.080456614 0.14697027 -0.39233276 1.473705e-39
-0.036286592 0.11229432 -0.37901366 1.8407078e-39
-0.051750183 0.1190902 -0.38655517 1.4733532e-39
-0.067417622 0.11907804 -0.40019479 2.1173017e-39
-0.030477881 0.095275223 -0.37883121 1.6570312e-39
-0.037184238 0.092610657 -0.39332014 2.671888e-39
-0.020936608 0.066137791 -0.38002214 3.0395915e-39
-0.027207971 0.063159466 -0.39237422 4.1459223e-39
-0.01658082 0.043975055 -0.3775394 4.0526532e-39
-0.018953562 0.031924307 -0.3885555 6.1727912e-39
-0.023127794 0.0070537329 -0.38827062 8.9372224e-39
-0.031376004 -0.0076034069 -0.39538568 1.0220785e-38
-0.045954466 -0.027212143 -0.395322 1.2166617e-38
-0.064320803 -0.046051025 -0.40566662 1.3645329e-38
-0.2396524 0.21191686 -0.38882172 1.9350432e-39
-0.25212121 0.20369679 -0.41147259 5.3433879e-39
-0.17788124 0.19819355 -0.39099887 1.564837e-39
-0.20502448 0.20028692 -0.38658002 1.3829485e-39
-0.23612177 0.20255941 -0.39208311 2.4892918e-39
-0.14150703 0.18215221 -0.37588164 1.0141743e-39
-0.1657753 0.18969464 -0.37808558 9.2197872e-40
-0.10732543 0.15533906 -0.36741269 1.0145289e-39
-0.12684298 0.1654563 -0.37332937 1.1967705e-39
-0.089892268 0.14072275 -0.36770013 1.1982083e-39
-0.062886596 0.11776143 -0.36334184 1.0141828e-39
-0.033029079 0.091418326 -0.35954964 1.1985642e-39
-0.049831629 0.10027707 -0.35541579 1.29075e-39
-0.022530079 0.067263961 -0.35718486 1.4744434e-39
-0.017594337 0.037358999 -0.35747862 2.2116427e-39
-0.020846963 0.019960999 -0.3660385 3.2240178e-39
-0.01400578 0.017927051 -0.35640872 2.6712e-39
-0.017634511 0.0038724542 -0.35974255 3.22545e-39
-0.029914498 -0.019222915 -0.35162467 3.8733305e-39
-0.034944773 -0.025871992 -0.36708865 7.0976552e-39
-0.015600801 0.27471566 -0.29852569 6.9075046e-39
-0.25214612 0.20824462 -0.37683854 2.1176324e-39
-0.26927638 0.20139366 -0.36689988 2.2109295e-39
0.0037002563 0.25855178 -0.29678416 5.1568358e-39
-0.0055004358 0.26472348 -0.29719213 5.9862321e-39
-0.19124913 0.20029533 -0.34971201 3.3150966e-39
-0.21381176 0.19989622 -0.36203092 2.1197848e-39
-0.247051 0.19838601 -0.36818486 1.2929094e-39
0.0076986551 0.24190682 -0.29308176 6.9953646e-39
-0.0090124607 0.22488284 -0.30594996 6.0769886e-39
-0.021763802 0.21092397 -0.32402632 3.5884311e-39
-0.14536858 0.18604547 -0.34748131 2.7637193e-39
-0.16740537 0.19243199 -0.35408461 2.8587946e-39
-0.0080802441 0.19767857 -0.30282736 6.3532224e-39
-0.01856029 0.19456953 -0.31736764 3.5923996e-39
-0.10337663 0.15611893 -0.34769055 4.05517e-39
-0.13184249 0.16619623 -0.35281622 2.9502658e-39
0.00017106533 0.16834748 -0.30139861 2.0283263e-39
-0.082438588 0.14131725 -0.32918933 1.5680712e-39
-0.089322805 0.13905388 -0.34263727 3.2261408e-39
0.0028759241 0.13368607 -0.30101213 3.5938681e-39
-0.0066318512 0.13319325 -0.30758128 2.6708342e-39
-0.048668981 0.10865861 -0.32299274 1.1981915e-39
-0.066469073 0.11639214 -0.33587497 2.5818658e-39
-0.084200501 0.12315112 -0.33527201 3.0399447e-39
0.0075335503 0.11844218 -0.30176982 2.0268984e-39
0.0008803606 0.10034359 -0.30983379 5.1640511e-39
-0.035438895 0.091540396 -0.33205417 2.5822203e-39
-0.054944396 0.098563015 -0.33796355 2.5811427e-39
-0.0031712055 0.074559331 -0.31116983 5.3473605e-39
-0.024333477 0.063905776 -0.33271232 2.2134378e-39
-0.0021903515 0.048853457 -0.30534855 4.4257784e-39
-0.01753366 0.035852432 -0.32657188 3.135041e-39
-0.019073129 0.014360964 -0.32648602 3.873699e-39
-0.025102377 -0.0026805997 -0.33250323 2.9538965e-39
-0.031236887 -0.01961118 -0.34564191 2.9527965e-39
-0.040956736 -0.034776866 -0.33403945 3.4098608e-39
-0.043497443 -0.054202199 -0.32800168 6.5319146e-39
-0.09029448 0.28789693 -0.27824044 3.4076706e-39
-0.0025019646 0.28027064 -0.26632917 5.432013e-39
-0.091805696 0.27436274 -0.27915156 4.1384099e-39
-0.27274883 0.19833851 -0.3457303 4.6055033e-39
-0.30543637 0.19762701 -0.36017004 3.7663946e-39
0.0048530102 0.25858259 -0.27315146 4.1430594e-39
-0.0085040331 0.26583034 -0.28603479 4.9717411e-39
-0.19046915 0.21107858 -0.32473397 4.3335561e-39
-0.25652599 0.1964944 -0.34422481 4.7102434e-39
-0.27382052 0.18909103 -0.34777468 4.1495418e-39
-0.30481267 0.17631948 -0.33670923 3.7836474e-39
0.012636065 0.23614991 -0.27245215 6.9045913e-39
0.0041772127 0.21883911 -0.2813859 9.6693728e-39
0.010202765 0.21294373 -0.2680904 1.022325e-38
0.0057286024 0.19770318 -0.27833128 7.0907902e-39
0.0043370724 0.16835672 -0.2800799 1.5673621e-39
0.0084583759 0.13728589 -0.28157535 2.7651795e-39
0.0087088346 0.11307877 -0.28080088 6.7245483e-39
0.0018533468 0.096447527 -0.28522769 5.6203489e-39
0.00080680847 0.072456181 -0.28507486 4.7002031e-39
0.0025466681 0.04424727 -0.28670353 5.070073e-39
-0.0053800344 0.02705723 -0.3010436 1.2868404e-39
0.00069749355 0.017728627 -0.27931121 5.7118537e-39
-0.0078822374 0.0067226887 -0.29459089 7.0043722e-39
-0.0089166164 -0.020988286 -0.28591159 8.3891157e-39
-0.029050589 -0.024624586 -0.30703929 9.0312481e-39
-0.04437387 -0.043730617 -0.31310174 1.0785091e-38
-0.023521185 -0.045483589 -0.29268119 1.6138246e-38
-0.042105794 -0.055585504 -0.3120597 8.7571751e-39
-0.082069635 0.32220602 -0.25199807 6.5386856e-39
-0.095858812 0.31143439 -0.27197018 3.7775181e-39
-0.058561802 0.29553652 -0.24305193 2.0279886e-39
-0.073162794 0.3025192 -0.25431538 4.8791825e-39
-0.092236876 0.29208761 -0.27230471 5.800057e-39
-0.005980134 0.27906728 -0.25660682 8.1967594e-39
-0.045991898 0.27366197 -0.24843873 2.6701028e-39
-0.064839363 0.27876991 -0.25714523 3.0388643e-39
-0.085772514 0.27708274 -0.27197018 6.7230671e-39
0.0038069487 0.26115268 -0.25243387 8.0131039e-39
-0.029304862 0.25335622 -0.24529159 7.9295542e-39
-0.32349539 0.1610198 -0.33372942 3.1328774e-39
0.014799237 0.23155499 -0.24762993 1.0036359e-38
-0.037592173 0.22876531 -0.2487343 9.4878444e-39
-0.049204469 0.22673452 -0.24465799 3.0396224e-39
0.0076234341 0.21028024 -0.24629298 1.0035997e-38
0.00428617 0.19342589 -0.25075787 9.3027357e-39
0.0076557398 0.16836393 -0.2503593 1.9339839e-39
0.012752056 0.13921738 -0.25090823 2.7658871e-39
0.0099556446 0.10999173 -0.25094783 4.1470349e-39
-0.0015236139 0.093766928 -0.26504982 4.8827993e-39
0.0080432892 0.080696821 -0.25009361 3.4101803e-39
0.0037710667 0.072199881 -0.26072598 6.2689623e-39
0.0021419525 0.04195559 -0.25648969 5.7147123e-39
0.0063604116 0.013160527 -0.25741351 4.6083774e-39
0.0053668022 -0.015614688 -0.25590262 6.1756877e-39
0.0014498234 -0.026454866 -0.26850331 6.1739122e-39
0.010014057 -0.038840115 -0.24893428 7.4653629e-39
-0.0039346218 -0.051163197 -0.26523021 1.3988238e-38
-0.091766715 0.32296568 -0.2294977 7.4620769e-39
-0.061798453 0.2961055 -0.23026659 4.0544974e-39
-0.081146359 0.30139709 -0.2274262 5.4356017e-39
-0.059025049 0.28689224 -0.23055069 8.2954571e-39
-0.066047192 0.27141064 -0.22624901 7.4642461e-39
-0.043197036 0.23806095 -0.22784767 7.1836907e-39
-0.058174729 0.25269502 -0.23299727 6.7252629e-39
-0.032976627 0.21826792 -0.22146277 7.368805e-39
-0.046882153 0.22491324 -0.23651278 2.5782869e-39
-0.14838898 0.19820678 -0.23543581 3.4926944e-39
-0.0096510649 0.19563389 -0.22074564 8.8417757e-39
-0.0010380745 0.16522866 -0.22278607 2.0279774e-39
0.0076749325 0.1377973 -0.22202806 3.3194266e-39
0.0087102652 0.10636717 -0.22383456 4.9771473e-39
0.0056208372 0.074212253 -0.22443613 6.2693084e-39
0.00012814999 0.061696529 -0.23270781 7.666616e-39
0.010326743 0.039677918 -0.21707533 4.1481293e-39
0.0039066076 0.044274926 -0.23060448 4.6080201e-39
0.016380191 0.018231094 -0.21606067 4.9771515e-39
0.011069655 0.014431775 -0.2303267 5.7175892e-39
0.011955261 -0.016736448 -0.22836845 5.6250404e-39
0.0071284771 -0.041234434 -0.2339869 3.4073455e-39
-0.0011274815 -0.057825029 -0.22979608 1.0787654e-38
-0.0062559843 -0.08246392 -0.23090972 7.5575866e-39
-0.10294604 0.31630665 -0.2127713 8.6598732e-39
-0.10871089 0.30766076 -0.21382329 1.1051207e-38
-0.12032151 0.28828144 -0.20995425 9.7640894e-39
-0.13879633 0.27655494 -0.20044532 1.0132855e-38
-0.08492732 0.25994217 -0.21109463 9.2098464e-39
-0.111835 0.2600221 -0.20675121 7.367024e-39
-0.13574672 0.26144361 -0.20060636 8.1953539e-39
-0.090219259 0.24468273 -0.21382329 6.2725244e-39
-0.15443373 0.20822555 -0.21894723 3.6882134e-39
-0.14636183 0.18658262 -0.21817511 3.9640576e-39
-0.024470806 0.19220495 -0.20744543 5.8933204e-39
-0.11408758 0.15688574 -0.20848526 4.6973024e-39
-0.12891114 0.16819215 -0.21141677 3.4090957e-39
-0.022348285 0.16129208 -0.2083265 2.3038482e-39
-0.043676257 0.14391661 -0.20574854 2.3049272e-39
-0.080141783 0.13897628 -0.20336512 2.8606023e-39
-0.10022187 0.14815372 -0.20645814 5.5324497e-39
-0.0084416866 0.13282913 -0.20471312 3.8718787e-39
-0.036831379 0.12263685 -0.19974895 4.9803745e-39
-0.066747546 0.11577672 -0.19681485 4.7030856e-39
-0.0011446476 0.10212618 -0.20201136 4.4239931e-39
-0.031230569 0.096520424 -0.19246867 5.9016049e-39
-0.053333879 0.10004127 -0.19056454 5.9005427e-39
-0.00047373772 0.069908321 -0.19774023 6.0852885e-39
-0.019175529 0.077972531 -0.18891495 6.8167607e-39
0.0066401958 0.040284574 -0.19683629 4.7934987e-39
-0.0023159981 0.043887317 -0.20074637 6.2729224e-39
0.013668418 0.012587428 -0.19786355 5.5321231e-39
0.0039883852 0.017049015 -0.19418284 5.255895e-39
0.011161804 -0.018097818 -0.19953339 4.9829108e-39
0.0073932409 -0.047754467 -0.19676697 6.0863843e-39
-0.0054445267 -0.062915683 -0.21212293 5.0679332e-39
0.0088326931 -0.071881354 -0.1932109 6.8214382e-39
-0.0066685677 -0.087727845 -0.21086392 8.2983592e-39
-0.01144278 -0.10988384 -0.20186397 7.3789378e-39
-0.017429709 -0.11845905 -0.21098673 1.023196e-38
-0.16744041 0.26167446 -0.19806524 9.4899996e-39
-0.22548342 0.24143833 -0.19883904 7.2748144e-39
-0.26788616 0.24202329 -0.21003738 3.4083712e-39
-0.28029513 0.24321765 -0.21326907 2.1179912e-39
-0.12166917 0.25120211 -0.19326013 8.9364909e-39
-0.14275146 0.25207031 -0.19560407 8.5691531e-39
-0.16315532 0.25093091 -0.192974 9.0283208e-39
-0.20016563 0.22963148 -0.18739538 7.3698897e-39
-0.22596669 0.23796707 -0.19258091 7.0914909e-39
-0.16361129 0.20870823 -0.19535623 4.6998373e-39
-0.19031549 0.20959705 -0.18758711 3.6842365e-39
-0.21553254 0.2075479 -0.19883904 7.924134e-39
-0.14738548 0.18674678 -0.19085251 3.2268765e-39
-0.11516511 0.15350068 -0.18401906 3.781118e-39
-0.13300979 0.16445553 -0.18471235 2.6740586e-39
-0.084485412 0.1387518 -0.18020444 4.0566231e-39
-0.10256279 0.1480661 -0.18234658 3.6889224e-39
-0.068166375 0.11482459 -0.17537393 4.6087263e-39
-0.046954751 0.089341402 -0.16841137 6.2660854e-39
-0.053786755 0.087753177 -0.17364903 4.1488328e-39
-0.023735404 0.065008938 -0.18012795 6.4515487e-39
-0.04670155 0.05955404 -0.16867392 5.162626e-39
0.0014036894 0.038649619 -0.17865168 4.2403334e-39
-0.011266947 0.037537456 -0.17351706 7.6529646e-39
-0.045152903 0.027359903 -0.16804945 4.7938294e-39
0.0095214844 0.0055819154 -0.17202225 4.2414039e-39
-0.0040928125 0.014752984 -0.16801739 5.9938272e-39
-0.03454423 0.012275219 -0.16149113 7.8373614e-39
0.014539719 -0.011176765 -0.17242813 4.7949196e-39
0.009300828 -0.022352993 -0.16812412 5.4417366e-39
0.019910693 -0.04606384 -0.15213399 7.9338843e-39
0.015408516 -0.048042297 -0.16957107 7.00727e-39
0.0097745657 -0.079846144 -0.17195053 8.2072496e-39
0.008099556 -0.099737942 -0.16648266 6.8243501e-39
-0.0034279823 -0.11784333 -0.17750144 9.4032816e-39
-0.012659073 -0.13934845 -0.16967238 1.7614093e-38
-0.27250743 0.24028498 -0.18866289 3.0435656e-39
-0.2905488 0.23689145 -0.17952876 5.2598481e-39
-0.23310435 0.22673047 -0.17917858 5.7107327e-39
-0.26067078 0.21379626 -0.17082283 3.6849511e-39
-0.16194963 0.20477426 -0.16203947 3.8733277e-39
-0.18797362 0.20443994 -0.16653337 3.9637128e-39
-0.22132134 0.20307463 -0.17326693 3.964059e-39
-0.15283585 0.18588924 -0.16119924 3.5041724e-39
-0.12032318 0.15604025 -0.15166502 3.0432027e-39
-0.13861501 0.16503692 -0.15984923 3.5027403e-39
-0.090201616 0.13647604 -0.1485687 4.425777e-39
-0.10911131 0.14614332 -0.15271887 4.2421046e-39
-0.070873618 0.11443776 -0.14534351 3.8740381e-39
-0.049660087 0.087515712 -0.1549105 1.6592243e-39
-0.061803102 0.085054576 -0.14315651 4.6094536e-39
-0.051847935 0.056945503 -0.14404704 4.9778788e-39
-0.050142288 0.027217507 -0.14809008 3.4130782e-39
-0.012278438 -0.0017684102 -0.15241709 6.8239466e-39
-0.05142498 -0.004717648 -0.14785953 3.8719012e-39
-0.062454224 -0.017605364 -0.14679334 4.5140168e-39
-0.0018857718 -0.02333796 -0.14366727 6.2718588e-39
-0.043888688 -0.029388964 -0.13954943 4.6105494e-39
-0.060337663 -0.029658735 -0.14086778 4.1456238e-39
0.0099636316 -0.050255179 -0.14035864 6.7313992e-39
0.018856168 -0.076978147 -0.14111765 6.9158031e-39
0.011167407 -0.10844439 -0.14214668 8.1143547e-39
0.003873229 -0.12569755 -0.15276907 1.0137259e-38
0.0014631748 -0.13618094 -0.14009213 1.6502711e-38
-0.30122495 0.22833407 -0.16233641 6.821783e-39
-0.31999588 0.22583091 -0.15583022 7.466058e-39
-0.27027309 0.20952415 -0.16034967 2.3045628e-39
-0.29847538 0.2058515 -0.15124294 5.5328294e-39
-0.31575954 0.20604306 -0.14927529 4.795979e-39
-0.17012596 0.20214713 -0.13189755 4.7920456e-39
-0.19944227 0.20219439 -0.13585225 4.8856761e-39
-0.22977138 0.19777071 -0.14762025 3.3183336e-39
-0.2627517 0.19344121 -0.15196213 2.7644564e-39
-0.28110671 0.19172484 -0.1469136 3.9633541e-39
-0.15196848 0.18683302 -0.13088535 3.8718787e-39
-0.12894523 0.15879941 -0.12396465 3.0428453e-39
-0.14465952 0.16808408 -0.1383996 4.3299842e-39
-0.09479475 0.13318306 -0.11915047 4.5186901e-39
-0.11501741 0.14203262 -0.12309112 3.8722473e-39
-0.067746639 0.11073995 -0.10797898 5.4406436e-39
-0.075121999 0.11540991 -0.11860779 3.4105657e-39
-0.060641289 0.090200841 -0.10621846 3.7818397e-39
-0.065031648 0.082510471 -0.12040065 3.6903826e-39
-0.053741336 0.064039588 -0.10920047 4.1484909e-39
-0.056494355 0.051849842 -0.11846241 3.7811377e-39
-0.05325973 0.025313735 -0.11661558 4.7030884e-39
-0.055524111 -0.0054158568 -0.1212493 4.2421172e-39
-0.023461938 -0.03414613 -0.11177585 4.7020262e-39
-0.044096351 -0.031219959 -0.1211563 3.7818537e-39
-0.066886306 -0.031581581 -0.11124006 2.2192224e-39
-0.0064200163 -0.055595875 -0.11306857 5.4421023e-39
-0.027883291 -0.050030649 -0.11303535 3.6914714e-39
0.018850684 -0.0889166 -0.095310226 7.1102669e-39
0.0096365213 -0.080231786 -0.11028673 7.2853045e-39
0.0057964325 -0.11093706 -0.11463067 8.3920164e-39
-0.003195405 -0.12777299 -0.1207883 1.2167332e-38
-0.0037351847 -0.13725883 -0.11584908 1.3460987e-38
-0.33980918 0.21101391 -0.1442776 8.5780892e-39
-0.36502874 0.20607722 -0.13713987 9.1255569e-39
-0.38528144 0.20807308 -0.13392374 1.4652261e-38
-0.32434368 0.19277871 -0.14184682 3.9676785e-39
-0.35283935 0.19133657 -0.1359428 4.3350107e-39
-0.38136518 0.19473523 -0.13392374 3.9698197e-39
-0.18535137 0.19505417 -0.10732251 4.9796682e-39
-0.20513141 0.20287859 -0.10831145 4.150618e-39
-0.30121922 0.1833716 -0.14201961 4.4304153e-39
-0.32977951 0.17143649 -0.13765113 1.2046865e-39
-0.34156632 0.17031443 -0.13173175 2.9549587e-39
-0.1471622 0.18285894 -0.09377753 3.5953003e-39
-0.16152406 0.18731761 -0.10313192 4.6098025e-39
-0.11915636 0.15103054 -0.081218347 4.4221757e-39
-0.1318258 0.15939456 -0.09487547 3.0428425e-39
-0.15206981 0.16751558 -0.10683993 5.8076212e-39
-0.10389996 0.13479728 -0.090703085 4.3335758e-39
-0.11958897 0.14306688 -0.1053145 5.7207912e-39
-0.071476579 0.10741007 -0.088370614 3.9662492e-39
-0.082802057 0.11370361 -0.08453197 4.2406683e-39
-0.061313391 0.086978018 -0.08459577 3.965159e-39
-0.048001289 0.06029284 -0.082596079 4.0573616e-39
-0.049821496 0.028854966 -0.079662442 4.70058e-39
-0.054235339 0.02307719 -0.092683986 3.6896777e-39
-0.045670867 0.0092708468 -0.075834118 4.7920414e-39
-0.052559614 -0.0058479309 -0.08961013 4.1509992e-39
-0.017077923 -0.0301494 -0.081383578 5.2569866e-39
-0.054254413 -0.028858364 -0.090564094 3.3223189e-39
0.005202055 -0.06101799 -0.072580747 4.9822186e-39
-0.011220098 -0.056243241 -0.084059954 5.5339448e-39
0.011594653 -0.079471171 -0.076639593 7.2838639e-39
0.0053939819 -0.078871071 -0.088965192 8.2086719e-39
0.016097546 -0.095802248 -0.075421959 8.2101432e-39
0.0020208359 -0.11867136 -0.085092805 1.1805058e-38
-0.00060462952 -0.13632911 -0.085477568 1.8605966e-38
-0.37621117 0.1973424 -0.10957789 5.2584019e-39
-0.3892293 0.20317721 -0.11706158 1.0693632e-38
-0.36086321 0.18376386 -0.11235085 4.3346463e-39
-0.38270855 0.19192618 -0.12489298 3.9698169e-39
-0.19252086 0.19540703 -0.078740209 4.7009219e-39
-0.20961893 0.20005524 -0.078190386 3.8729816e-39
-0.33551943 0.17000353 -0.10308074 3.8761793e-39
-0.34437382 0.16898113 -0.11840734 3.5967212e-39
-0.14811623 0.17999899 -0.067297786 4.4250567e-39
-0.1712172 0.1875816 -0.069850966 4.2413941e-39
-0.12411225 0.15137738 -0.06100028 2.4874954e-39
-0.13688397 0.16084176 -0.064915232 3.319421e-39
-0.11169469 0.13295698 -0.06269595 3.8722403e-39
-0.079474092 0.10604632 -0.053391106 5.0686241e-39
-0.090110421 0.11390811 -0.058796365 4.2413913e-39
-0.06281662 0.08532089 -0.0541902 4.4250581e-39
-0.03909564 0.065585792 -0.042906117 4.3339513e-39
-0.042484403 0.059844851 -0.054788459 5.0715079e-39
-0.044524193 0.030482948 -0.053281531 5.2555503e-39
-0.048074007 0.0028189421 -0.055706702 3.9644611e-39
-0.053686619 -0.011003017 -0.056854766 4.2428347e-39
-0.010609627 -0.029365242 -0.045431644 4.7960141e-39
-0.026505351 -0.02602309 -0.053339653 4.42687e-39
-0.052801967 -0.026155114 -0.067080744 3.3216056e-39
-0.0011873245 -0.057159126 -0.043559015 5.9052567e-39
-0.0085868835 -0.055763602 -0.052756719 5.9041721e-39
0.0088635683 -0.080177724 -0.050022341 7.8384754e-39
-0.0014159679 -0.073047698 -0.061485674 7.1030684e-39
0.010510206 -0.098455727 -0.048904192 9.8649884e-39
0.00079810619 -0.11892182 -0.053806722 1.4385462e-38
-0.0048372746 -0.13688928 -0.05936652 1.7039013e-38
-0.016541123 -0.14412922 -0.045197364 2.0295282e-38
-0.4106977 0.19135863 -0.1011678 9.4327944e-39
-0.42169023 0.1871748 -0.094812155 2.0019777e-38
-0.350173 0.18670976 -0.071386591 2.6772928e-39
-0.36384499 0.18571174 -0.084496409 4.8849615e-39
-0.39666247 0.18958074 -0.093601741 7.2882598e-39
-0.19704509 0.18954265 -0.048904978 4.4275819e-39
-0.21442676 0.19400388 -0.049102522 4.9793011e-39
-0.24424422 0.19758475 -0.05102805 4.8860097e-39
-0.30791926 0.17569029 -0.060171533 5.3397963e-39
-0.34150672 0.17138559 -0.07601478 2.9502868e-39
-0.35091102 0.16400796 -0.085096247 2.029062e-39
-0.15551507 0.17348021 -0.038228046 4.7020066e-39
-0.18127537 0.18166351 -0.04094547 4.3342932e-39
-0.1275717 0.15697306 -0.029610649 2.8584471e-39
-0.14098275 0.16424745 -0.0421087 3.9662156e-39
-0.11295199 0.1321882 -0.031254601 3.7800474e-39
-0.079336166 0.10531038 -0.025223713 4.0577189e-39
-0.097624421 0.11485028 -0.027761232 4.0580833e-39
-0.050915718 0.078996778 -0.010074651 4.8925159e-39
-0.060766101 0.088167667 -0.023489526 4.0587937e-39
-0.039316297 0.06113404 -0.017495932 4.7952854e-39
-0.050495028 0.069214404 -0.03104623 6.452999e-39
-0.033844948 0.034960389 -0.01006038 6.3626097e-39
-0.04737556 0.026030302 -0.026307128 4.7956343e-39
-0.02223289 -0.0089828372 -0.010067302 5.1633616e-39
-0.047000647 -0.0052837729 -0.024654089 3.9684142e-39
-0.057330966 -0.0099625587 -0.039382689 2.1284715e-39
-0.0086007118 -0.025302708 -0.015047316 5.5353812e-39
-0.027334094 -0.022359848 -0.028440084 3.9677037e-39
-0.0042973757 -0.055276275 -0.020256305 7.4714894e-39
-0.01449275 -0.064679027 -0.017253269 5.6257957e-39
0.0059496164 -0.079610646 -0.018517777 7.9321256e-39
0.0040210485 -0.10036105 -0.019545244 1.0694762e-38
-0.0054028034 -0.12065464 -0.024522958 1.3555336e-38
0.012379766 -0.12728077 -0.021439405 2.3325854e-38
-0.0094331503 -0.13687319 -0.024652906 1.6025213e-38
-0.29112482 0.19098622 -0.024097394 3.5960051e-39
-0.34686244 0.17809933 -0.049896091 3.1364661e-39
-0.36563027 0.18767846 -0.052737001 5.9048699e-39
-0.2044946 0.18729717 -0.016912844 5.0679094e-39
-0.22404349 0.19156075 -0.02170345 5.1633434e-39
-0.25439858 0.19442409 -0.028193936 3.9647904e-39
-0.31883097 0.17881238 -0.040813778 3.1350284e-39
-0.33813441 0.17375076 -0.061133184 3.5970813e-39
-0.16291308 0.16998082 -0.0092527382 4.9760809e-39
-0.18349695 0.17958462 -0.011331388 4.2420976e-39
-0.12979615 0.15641344 -0.004809693 3.688928e-39
-0.15094006 0.16343623 0.0003577079 4.8860461e-39
-0.11414051 0.13050091 0.00021198984 4.6087263e-39
-0.0865134 0.10473639 0.0040473635 4.424698e-39
-0.1058594 0.11379009 1.4933181e-05 4.8853286e-39
-0.056289792 0.080457449 0.010523978 4.609469e-39
-0.068328261 0.08864826 0.005110553 5.1619099e-39
-0.042138815 0.062905908 0.011126311 5.0722352e-39
-0.035203695 0.030562997 0.0097580953 5.5317798e-39
-0.019272685 0.0026062131 0.011918424 5.1658728e-39
-0.04234004 0.0031501055 0.002418237 4.0602511e-39
-0.0097901821 -0.024847448 0.012107007 5.6257831e-39
-0.0018485785 -0.053529918 0.011879447 7.1941906e-39
-0.00063157082 -0.083468914 0.013115922 8.2991117e-39
-0.0010616779 -0.10421687 0.0063411272 1.1986567e-38
-0.0077658892 -0.12081581 0.005967909 1.3003258e-38
-0.2925365 0.19057173 -0.017710539 2.8548682e-39
-0.33193922 0.1813277 -0.01156462 3.1332375e-39
-0.34812164 0.1822626 -0.018809166 4.3332212e-39
-0.37770176 0.18697673 -0.023871366 4.4135801e-39
-0.20668924 0.18735039 0.013547075 5.5317546e-39
-0.23023379 0.19035256 0.0075630806 5.3477305e-39
-0.26125681 0.19236362 -0.0012729663 5.3509451e-39
-0.29221392 0.18650275 -0.00071355433 4.3288996e-39
-0.32270288 0.17828745 -0.001770742 4.884223e-39
-0.16821897 0.16799265 0.0132991 4.5118672e-39
-0.19035363 0.17596418 0.016450318 4.7934805e-39
-0.14208972 0.15142393 0.023325587 4.5197663e-39
-0.16125894 0.15934938 0.025657922 4.9757082e-39
-0.18262947 0.15854269 0.031421624 7.3764029e-39
-0.12534189 0.12975234 0.027645798 3.5970995e-39
-0.093028307 0.10166955 0.03158097 4.8867593e-39
-0.11011589 0.11169934 0.031685695 4.8853244e-39
-0.06046164 0.080800116 0.030721582 5.4395688e-39
-0.072595596 0.087548792 0.03858418 4.7027226e-39
-0.054425001 0.056070507 0.040216677 5.0725967e-39
-0.068285584 0.066025496 0.046955023 5.997081e-39
-0.031745553 0.031963289 0.041173309 5.6232608e-39
-0.0029562712 0.0011914968 0.045689926 6.5470038e-39
-0.019695878 0.0067503452 0.042071827 5.5332232e-39
-0.012323499 -0.025271297 0.042874254 5.9956461e-39
-0.0044224262 -0.053064227 0.042879611 8.3001753e-39
-0.00057780743 -0.079378128 0.042186625 9.0373914e-39
-0.0087478161 -0.1041103 0.038225513 1.1066776e-38
-0.012762547 -0.12015122 0.036381077 1.5027239e-38
-0.32736063 0.1852181 0.016577872 4.1466776e-39
-0.35677993 0.18251228 0.01138129 4.5168936e-39
-0.37945771 0.18769002 0.0048436499 6.2754798e-39
-0.21814203 0.18305749 0.037989706 5.3484227e-39
-0.23804045 0.18469274 0.035041414 5.8072723e-39
-0.26708257 0.18672329 0.036891434 4.7048764e-39
-0.30293918 0.18383521 0.023834033 4.5194132e-39
-0.31532848 0.18167663 0.0079158554 3.7786111e-39
-0.19943845 0.17110467 0.043143999 5.0722324e-39
-0.23702025 0.1750437 0.050691407 5.9030511e-39
-0.14823258 0.14583409 0.050699778 4.7012793e-39
-0.16567636 0.15172499 0.053149827 4.9807444e-39
-0.18600214 0.15626657 0.048253454 4.7942078e-39
-0.12903261 0.12917817 0.057305083 4.2399522e-39
-0.1030525 0.096935511 0.055959936 5.1615568e-39
-0.11681199 0.10479105 0.061344329 4.4254211e-39
-0.085956216 0.079136431 0.063633285 5.2551887e-39
-0.061721802 0.050961912 0.069220297 6.1774996e-39
-0.070835829 0.060044587 0.06489262 4.6083928e-39
-0.046283603 0.025784016 0.070551679 5.8087297e-39
-0.0093295574 -0.006619513 0.081788532 7.5622431e-39
-0.021772504 0.0050846338 0.073725432 5.9952831e-39
-0.014033556 -0.026909769 0.071625158 7.6540898e-39
0.0033726692 -0.038527906 0.067904465 5.0772939e-39
-0.0042111874 -0.053355038 0.075596742 8.6686047e-39
-0.0050960779 -0.083198011 0.071685061 1.0973145e-38
-0.01125145 -0.11211497 0.071402051 1.6138607e-38
-0.021676421 -0.12391394 0.059719808 1.7333196e-38
-0.020535111 -0.13632935 0.064358249 2.341769e-38
-0.30928385 0.19063795 0.051964279 5.3452138e-39
-0.33976376 0.18794042 0.042637177 7.2924959e-39
-0.36065221 0.18800521 0.033042539 7.5669458e-39
-0.38217592 0.18332922 0.021499196 7.4403708e-39
-0.24874651 0.17691696 0.057149928 6.7328117e-39
-0.27735126 0.17958045 0.059834663 4.6080145e-39
-0.2092675 0.16053468 0.070147641 5.6250292e-39
-0.23661554 0.16741568 0.06861411 5.8994693e-39
-0.17158222 0.14085251 0.078318238 4.612322e-39
-0.19282472 0.15059805 0.076314069 5.1644322e-39
-0.14259565 0.12208194 0.084547624 4.1491985e-39
-0.16149986 0.13076103 0.084302932 5.6268299e-39
-0.10955644 0.096744776 0.083283029 5.3462998e-39
-0.12300217 0.10007727 0.09019576 4.7931316e-39
-0.098461986 0.076302052 0.089158446 5.0715205e-39
-0.065357208 0.04315418 0.093912818 4.706324e-39
-0.0799191 0.05536443 0.09482158 5.7183277e-39
-0.057240725 0.021336973 0.096810363 6.1778779e-39
-0.071000338 0.028603613 0.10402904 8.6667493e-39
-0.014287114 -0.0041153431 0.09937501 6.1800401e-39
-0.03136456 0.0032276511 0.10165399 6.5488128e-39
-0.011878371 -0.017465293 0.10566919 8.7611464e-39
-0.015546322 -0.028088987 0.10111674 8.4842176e-39
-0.0028022528 -0.047468603 0.10455846 1.0233786e-38
-0.0073577166 -0.055858076 0.10119385 1.0144102e-38
-0.016430855 -0.089182258 0.10097243 1.3555713e-38
-0.018440127 -0.10670525 0.090678543 1.3831595e-38
-0.025576234 -0.11676639 0.092614248 2.0567553e-38
-0.2949698 0.19461191 0.090577997 6.6442483e-39
-0.31438005 0.1910004 0.072748452 8.2937321e-39
-0.28756261 0.17714536 0.086067945 5.3484494e-39
-0.22145915 0.1494593 0.092896633 6.3532546e-39
-0.24273908 0.15391803 0.092249051 5.9959768e-39
-0.27336538 0.15720177 0.094709754 5.7150711e-39
-0.17303193 0.13577193 0.099479251 2.4914877e-39
-0.20106006 0.13953573 0.10329969 5.4399191e-39
-0.23469269 0.14146858 0.1058169 5.2595117e-39
-0.15364075 0.11910421 0.10740153 4.8860363e-39
-0.17263401 0.1226629 0.11385412 4.5201292e-39
-0.11434364 0.090182304 0.11124908 5.8976757e-39
-0.13395703 0.095330238 0.11462872 5.1626232e-39
-0.15978503 0.097464859 0.117881 5.2544713e-39
-0.10724878 0.073174238 0.11784206 5.9019987e-39
-0.089513063 0.047968328 0.12058832 5.6254062e-39
-0.061828852 0.010460794 0.11919934 6.549896e-39
-0.075108528 0.021782279 0.12556195 5.8098143e-39
-0.01976335 -0.0096831322 0.12899441 7.2853087e-39
-0.049209952 -0.0053339601 0.12786224 6.5498946e-39
-0.071338415 0.0040878654 0.13541979 4.4283344e-39
-0.015717983 -0.023839355 0.12945721 8.3938212e-39
-0.022566199 -0.029759169 0.13403887 1.0421031e-38
-0.010003924 -0.044435501 0.13084561 1.0511805e-38
-0.014123201 -0.058120608 0.13214032 1.1160061e-38
-0.020004869 -0.085489154 0.12515037 1.3831948e-38
