# .PCD v0.7 - Point Cloud Data file format
VERSION 0.7
FIELDS x y z rgb
SIZE 4 4 4 4
TYPE F F F F
COUNT 1 1 1 1
WIDTH 1001
HEIGHT 1
VIEWPOINT 0 0 0 1 0 0 0
POINTS 1001
DATA ascii
2.4055574 -0.46068355 -1.1680933 6.9089353e-39
2.346555 -0.4314875 -1.1600732 8.5680895e-39
2.3639011 -0.42517662 -1.1686497 7.1797657e-39
2.4048996 -0.43897688 -1.1704197 6.5397773e-39
2.4332972 -0.42566639 -1.1802593 8.0105731e-39
2.4381762 -0.40572894 -1.1812999 1.6117616e-38
2.3139052 -0.034852091 -1.1339577 9.8591562e-39
2.3117828 -0.01361593 -1.1416399 9.1245059e-39
2.3275626 -0.025755856 -1.1560118 9.953182e-39
2.2577567 0.02772079 -1.134334 8.9397503e-39
2.2835104 0.014519379 -1.1425662 8.9408321e-39
2.3119035 0.0060296035 -1.1411278 8.8479218e-39
2.2580595 0.044695776 -1.1331645 8.5709608e-39
2.2760677 0.057234894 -1.1355056 8.939386e-39
2.2870028 0.0759174 -1.1409434 8.6638781e-39
2.2924476 0.099163227 -1.1436943 8.2014636e-39
2.3119206 0.11149096 -1.1406797 8.5680741e-39
2.3106811 0.12542734 -1.145161 9.3038048e-39
2.4329181 -0.54194802 -1.1441606 9.3992963e-39
2.4138792 -0.51132572 -1.1378487 8.2958256e-39
2.4347787 -0.52914387 -1.1524733 8.8472086e-39
2.4129045 -0.49082536 -1.1413385 7.9259613e-39
2.3948314 -0.46195856 -1.1315014 7.5550166e-39
2.4112811 -0.45826593 -1.1471547 7.2791598e-39
2.3948073 -0.43802279 -1.1315014 7.2773605e-39
2.4131618 -0.43012494 -1.1401752 7.0018358e-39
2.4289551 -0.42529872 -1.1582259 6.1760254e-39
2.4137657 -0.39796525 -1.1378487 1.3354287e-38
2.4309909 -0.40974286 -1.1507244 9.666133e-39
2.4118428 -0.38349563 -1.1448282 1.6853393e-38
2.3188107 -0.038563881 -1.1160325 9.3092475e-39
2.3362241 -0.044470143 -1.1244072 9.1244905e-39
2.3187883 -0.016263708 -1.1160324 8.6646096e-39
2.2969246 0.025320871 -1.1105328 9.12415e-39
2.3187652 0.0069656405 -1.1160324 9.031597e-39
2.2644622 0.038639795 -1.1097738 9.215254e-39
2.2944288 0.049214352 -1.1093364 9.1234241e-39
2.300988 0.076107539 -1.112548 9.0305082e-39
2.2973192 0.094555244 -1.1258965 8.5688084e-39
2.3183622 0.10336712 -1.1171527 8.6624361e-39
2.3385346 0.11467721 -1.1153773 8.6674444e-39
2.2902715 0.1309886 -1.1174164 9.5807365e-39
2.3161981 0.12310993 -1.1249951 9.1190689e-39
2.4393287 -0.54194158 -1.1207187 9.1234353e-39
2.4208848 -0.51855457 -1.1122572 8.9386825e-39
2.40328 -0.49226874 -1.1007174 7.9274103e-39
2.4200108 -0.49282816 -1.1153592 8.0181724e-39
2.3876109 -0.46435535 -1.1073664 7.5557453e-39
2.3997917 -0.43857464 -1.1063848 7.1869627e-39
2.4207883 -0.42207757 -1.1122572 7.0954734e-39
2.4207692 -0.40278211 -1.1122572 9.9441422e-39
2.3972752 -0.38057438 -1.1222662 1.648424e-38
2.418205 -0.38348925 -1.1215632 1.7593468e-38
2.4478879 -0.38410911 -1.1141151 1.7868614e-38
2.328639 -0.062712602 -1.0801818 1.1525489e-38
2.3084178 -0.053044736 -1.0858512 9.1234297e-39
2.3265169 -0.04147644 -1.0878642 8.57313e-39
2.3261414 -0.016256353 -1.0891445 8.2958228e-39
2.303658 0.021851458 -1.0773939 9.2156127e-39
2.3255079 0.0046494463 -1.0913851 9.0315886e-39
2.3057413 0.048375756 -1.0816203 8.9393972e-39
2.3092024 0.074962541 -1.0825142 8.8471819e-39
2.3284903 0.085955217 -1.0801818 8.5720384e-39
2.3094871 0.094567411 -1.0814018 9.3056307e-39
2.3256137 0.10298723 -1.0906383 9.6755063e-39
2.3484213 0.10532563 -1.0792576 1.1799592e-38
2.4272664 -0.53784359 -1.0889922 1.0043602e-38
2.4285195 -0.51854688 -1.0843393 9.0308795e-39
2.4093795 -0.48827329 -1.0783989 8.6635348e-39
2.4297729 -0.49925023 -1.0796863 8.84721e-39
2.3890011 -0.46315521 -1.0770055 8.109998e-39
2.3979566 -0.43334439 -1.0766436 7.3738679e-39
2.4057267 -0.40481329 -1.0762874 7.644334e-39
2.425854 -0.39795315 -1.0936452 9.0229076e-39
2.4124286 -0.38055921 -1.066855 1.3723425e-38
2.4290135 -0.37624264 -1.0820128 1.6488192e-38
2.4468563 -0.37667525 -1.0925883 1.713143e-38
2.3335457 -0.067353576 -1.0622566 1.0784348e-38
2.354522 -0.068791673 -1.0575858 1.0971266e-38
2.3346355 -0.043278404 -1.0581826 8.8471889e-39
2.3535194 -0.053814322 -1.0611979 9.3063734e-39
2.3168895 -0.006907803 -1.054705 8.3869437e-39
2.334832 -0.017092369 -1.0573678 8.8468358e-39
2.3102288 0.01885142 -1.0516716 8.9393888e-39
2.3359246 0.0046598627 -1.0532939 8.9397419e-39
2.3168342 0.048446298 -1.054705 9.1234199e-39
2.3162048 0.069203481 -1.0569297 8.9397377e-39
2.3350339 0.078218654 -1.0562814 9.0304984e-39
2.3546138 0.086608872 -1.0566829 9.0286837e-39
2.3321576 0.095250636 -1.0667379 1.0040676e-38
2.4094243 0.098153584 -1.0760902 1.133466e-38
2.4349012 -0.53783596 -1.0610743 1.1888542e-38
2.4361544 -0.51853925 -1.0564213 8.847203e-39
2.4175899 -0.4906587 -1.0483845 8.84721e-39
2.3789201 -0.45503315 -1.0418102 7.7426561e-39
2.4017344 -0.46482649 -1.0456139 8.5713349e-39
2.3776617 -0.44088763 -1.0463587 7.4653363e-39
2.3974285 -0.43226877 -1.0460757 7.7430078e-39
2.3801167 -0.40787598 -1.0372616 7.2795073e-39
2.3964579 -0.40139177 -1.0495123 7.1883907e-39
2.3800931 -0.38429797 -1.0372616 7.82224e-39
2.4038792 -0.37844983 -1.0439533 1.1509657e-38
2.4360096 -0.3738237 -1.0564212 1.6856585e-38
2.3634346 -0.091250293 -1.0250782 1.824204e-38
2.3438389 -0.066414103 -1.0246134 8.7539171e-39
2.3603361 -0.079551548 -1.0363656 1.391648e-38
2.3433263 -0.044114415 -1.0264059 8.2029055e-39
2.3425968 -0.014912507 -1.0289667 8.4783994e-39
2.3241577 0.02538939 -1.0280082 8.847905e-39
2.3432753 0.0069901505 -1.0264059 8.7549779e-39
2.3238316 0.047300085 -1.0291206 9.0319319e-39
2.3444498 0.058095936 -1.0219246 9.3074286e-39
2.341578 0.070482068 -1.0323811 9.1230472e-39
2.361414 0.077254198 -1.0318506 8.8464561e-39
2.4064798 0.088246047 -1.0489838 8.2914704e-39
2.4598429 -0.54192108 -1.0457042 1.3085283e-38
2.4434698 -0.51732594 -1.0296664 9.1245115e-39
2.4189637 -0.48940966 -1.0180826 8.6624488e-39
2.3891854 -0.45855957 -1.0042844 8.1096491e-39
2.4040475 -0.47264105 -1.022019 7.8337671e-39
2.3879428 -0.43144614 -1.0087296 7.5571788e-39
2.3880749 -0.40503863 -1.0081506 7.0029162e-39
2.4039717 -0.39663377 -1.022019 7.5553697e-39
2.3892941 -0.38051626 -1.0036021 7.2758948e-39
2.413888 -0.36925134 -1.0159843 1.2982255e-38
2.4436347 -0.36416838 -1.0285032 1.5840302e-38
2.3364503 -0.099145174 -0.98351353 1.8891005e-38
2.3507283 -0.092888683 -0.99951804 1.6954198e-38
2.3507061 -0.070820816 -0.99951792 8.4773344e-39
2.3683639 -0.081883892 -1.0070184 9.2909577e-39
2.3506794 -0.044107061 -0.99951792 8.3869409e-39
2.3315048 -0.020731725 -1.0013114 8.5709692e-39
2.3516283 -0.012514168 -0.995933 8.4787497e-39
2.3326752 0.025397906 -0.99686188 8.7549849e-39
2.3506284 0.0069975033 -0.99951792 8.569872e-39
2.3308342 0.041541029 -1.0035361 8.9386587e-39
2.350585 0.050358947 -0.99951798 9.122687e-39
2.3706927 0.058540534 -0.99798852 9.0301102e-39
2.3481171 0.067391358 -1.0084807 9.5833008e-39
2.3814437 0.072994404 -1.0126436 8.3872856e-39
2.449724 -0.51530975 -1.0067892 9.9549798e-39
2.3976018 -0.47859246 -0.97358149 8.1089261e-39
2.4234211 -0.49513978 -0.98916733 8.5713419e-39
2.3963439 -0.4644469 -0.97813004 7.9263172e-39
2.3862128 -0.43453369 -0.97905463 8.3869353e-39
2.3955703 -0.40179759 -0.98072928 8.1092666e-39
2.3832011 -0.37298113 -0.97783536 7.4588511e-39
2.4114521 -0.35862258 -0.99452579 1.583559e-38
2.3962307 -0.35127267 -0.97813004 1.3351723e-38
2.4114425 -0.34912166 -0.99452579 1.9155728e-38
2.3413222 -0.10375313 -0.96571565 1.1969544e-38
2.3586941 -0.092880726 -0.97038943 9.213791e-39
2.3580604 -0.071974918 -0.97263002 7.9266788e-39
2.3412633 -0.044939406 -0.96571565 8.2014678e-39
2.3580234 -0.034807973 -0.97263008 8.2947354e-39
2.3580046 -0.01622449 -0.97263002 8.2943725e-39
2.3407071 0.02448337 -0.9674955 8.8461015e-39
2.3583281 0.010323685 -0.97134966 8.294727e-39
2.3419871 0.042320993 -0.96274936 8.5688084e-39
2.3554933 0.044169359 -0.98159277 9.3067125e-39
2.373162 0.058543 -0.9889586 8.8468218e-39
2.4041836 -0.48532245 -0.94953901 8.8475519e-39
2.4203663 -0.50112748 -0.96245039 8.939037e-39
2.397881 -0.46330655 -0.94849539 8.2958074e-39
2.3845201 -0.43385908 -0.94922704 7.5575291e-39
2.3862951 -0.40048143 -0.95061755 7.0021931e-39
2.3681619 -0.36930075 -0.9367795 7.4624552e-39
2.382236 -0.37207565 -0.95735401 7.4642461e-39
2.3681433 -0.35071728 -0.9367795 7.7340086e-39
2.3859613 -0.34113821 -0.95162088 1.1326342e-38
2.387536 -0.32214254 -0.9377892 1.4002189e-38
2.3646462 -0.12152433 -0.94872969 1.4927731e-38
2.3865166 -0.12555261 -0.94079912 1.3177469e-38
2.3654411 -0.099842794 -0.94574207 8.2014538e-39
2.3654132 -0.071967572 -0.94574213 8.1107057e-39
2.3488681 -0.044931807 -0.9379065 8.4780463e-39
2.3629253 -0.03480307 -0.95470482 8.939386e-39
2.3501637 -0.02225068 -0.93308622 8.2025132e-39
2.3645375 -0.013120711 -0.94872963 8.6627809e-39
2.3651018 0.016726077 -0.94655687 9.1230401e-39
2.3867908 0.011749265 -0.93929416 9.0308319e-39
2.3460462 0.039249819 -0.94791782 9.6780118e-39
2.3830585 0.039829951 -0.95283896 9.6769426e-39
2.4054856 -0.48697984 -0.92420506 9.0312145e-39
2.396337 -0.46349967 -0.91641444 8.2943767e-39
2.3761904 -0.43201202 -0.90765089 7.648294e-39
2.3921835 -0.44227681 -0.92123437 7.9248795e-39
2.3586478 -0.39434516 -0.90342313 7.6472108e-39
2.3728273 -0.40543073 -0.91985005 7.0958279e-39
2.3508961 -0.37298629 -0.9043954 6.9110821e-39
2.3706129 -0.36929825 -0.92781687 6.6337694e-39
2.3508723 -0.34905231 -0.9043954 6.448655e-39
2.3725438 -0.33956277 -0.92064673 7.183339e-39
2.3769317 -0.31539986 -0.90451396 1.0589856e-38
2.3916457 -0.31589741 -0.92273933 1.3448634e-38
2.3752685 -0.12306233 -0.90989149 8.7546192e-39
2.39241 -0.13936605 -0.91929942 1.3544463e-38
2.357131 -0.094511636 -0.90787256 7.741912e-39
2.3718176 -0.10355311 -0.92243928 7.6508023e-39
2.3565853 -0.070129998 -0.90977949 8.2943809e-39
2.3703201 -0.076608539 -0.92781687 8.1103386e-39
2.3558636 -0.043771595 -0.91232204 8.3872744e-39
2.3558407 -0.020707389 -0.91232204 8.570581e-39
2.3735216 -0.010014476 -0.91586667 8.6620578e-39
2.3942175 -0.0069662542 -0.91220444 7.8333761e-39
2.3702257 0.017857475 -0.92781687 1.1426841e-38
2.3989186 0.0070922771 -0.91897297 9.3052762e-39
2.3996339 -0.48439598 -0.89414465 8.8468442e-39
2.3837745 -0.45910534 -0.88001603 8.386229e-39
2.3992097 -0.47191441 -0.89564961 8.4791379e-39
2.3653736 -0.42778155 -0.87895107 7.5564571e-39
2.3829422 -0.44361997 -0.88300365 8.0174381e-39
2.3534412 -0.40164393 -0.87699634 7.279866e-39
2.3296328 -0.36595947 -0.87294328 7.3709771e-39
2.3520119 -0.38304541 -0.87646782 7.1880347e-39
2.329911 -0.3443619 -0.87184685 7.0014743e-39
2.3525655 -0.33316219 -0.8913219 6.723444e-39
2.3319905 -0.32503599 -0.8641718 6.5404877e-39
2.3561831 -0.31477326 -0.8780266 6.9060374e-39
2.3803518 -0.30424634 -0.89196628 1.2247943e-38
2.3634243 -0.28541002 -0.86849874 1.4460625e-38
2.3803425 -0.29495463 -0.89196628 1.4925195e-38
2.400672 -0.28780401 -0.88962966 1.5476944e-38
2.3851054 -0.15557362 -0.87404096 1.4006881e-38
2.3681147 -0.12679058 -0.86782742 7.189827e-39
2.3822813 -0.13301076 -0.88428396 7.9245068e-39
2.3992968 -0.14738327 -0.89414465 1.3180351e-38
2.3575194 -0.10144389 -0.87723243 7.5575305e-39
2.361583 -0.071343869 -0.88013488 7.8333999e-39
2.3628612 -0.044917811 -0.88673764 7.8333929e-39
2.3843787 -0.041750424 -0.87628162 7.7419218e-39
2.3607123 -0.025315365 -0.89452422 7.8344719e-39
2.3819089 -0.023169398 -0.88524431 8.3847352e-39
2.4080429 -0.010724908 -0.89047408 8.6609816e-39
2.4176428 0.0047764434 -0.89852995 9.5836806e-39
2.37392 -0.45660329 -0.84780478 8.2025552e-39
2.3886769 -0.45910048 -0.86209083 8.2025538e-39
2.3608351 -0.42778063 -0.84436852 7.6508094e-39
2.3878443 -0.44361505 -0.86507833 7.8326951e-39
2.3408527 -0.39171341 -0.83200961 7.5557383e-39
2.3554568 -0.40372083 -0.84688848 7.3734994e-39
2.3261421 -0.36863381 -0.83795089 7.4649762e-39
2.3202999 -0.33982199 -0.83873737 7.4631881e-39
2.3309317 -0.31138125 -0.84069848 7.2766248e-39
2.3379173 -0.28269976 -0.83381516 1.0036698e-38
2.36221 -0.27799657 -0.85585362 1.5659515e-38
2.3415217 -0.2613714 -0.82908577 1.6769093e-38
2.3573253 -0.25869137 -0.83952582 1.7407661e-38
2.3876677 -0.26707202 -0.86507833 1.7042085e-38
2.375443 -0.15446033 -0.84113061 7.0954117e-39
2.390425 -0.16486005 -0.85462189 1.2899799e-38
2.4054892 -0.16610003 -0.87156987 1.5479465e-38
2.3681276 -0.13262177 -0.84505576 6.0831263e-39
2.388361 -0.14318137 -0.86209083 7.3706267e-39
2.3389502 -0.088595867 -0.83785731 7.741933e-39
2.3575063 -0.10430444 -0.84450257 7.3727805e-39
2.3653722 -0.071189627 -0.84732461 8.0184947e-39
2.3729033 -0.048367407 -0.85002953 8.109977e-39
2.3898864 -0.03477611 -0.8561157 8.2936354e-39
2.3898771 -0.025484366 -0.8561157 8.1103316e-39
2.4144838 -0.012590762 -0.86692917 9.7669802e-39
2.4461873 -0.0070537338 -0.86622405 1.1430827e-38
2.4232428 0.0024242438 -0.87806135 1.2808717e-38
2.3714736 -0.45495436 -0.82262599 8.7550101e-39
2.348882 -0.42504847 -0.80277127 8.1117721e-39
2.3632398 -0.43500847 -0.81854218 8.2029041e-39
2.3445654 -0.40351155 -0.81089485 7.6490073e-39
2.2995172 -0.36271253 -0.78592545 7.5578851e-39
2.3138707 -0.3719798 -0.79791844 7.281301e-39
2.3342731 -0.38075486 -0.81053662 7.1887564e-39
2.2948821 -0.34430334 -0.78669548 7.3727735e-39
2.3108864 -0.34374261 -0.80872798 7.464616e-39
2.2994771 -0.32265016 -0.78592545 7.6472038e-39
2.3136938 -0.31325832 -0.79835081 7.4621035e-39
2.3277292 -0.30761641 -0.81145298 7.5539278e-39
2.3335507 -0.2825335 -0.80713212 7.3680834e-39
2.3406229 -0.25164747 -0.80959195 1.4264728e-38
2.3409035 -0.22614262 -0.80392188 1.7362004e-38
2.3998668 -0.21130934 -0.82026511 1.6845492e-38
2.3980961 -0.19140023 -0.82666689 1.4464591e-38
2.3765304 -0.1634354 -0.82202274 6.726681e-39
2.3485818 -0.12496056 -0.80277127 7.1905431e-39
2.362941 -0.13617559 -0.81854218 6.9121597e-39
2.3477595 -0.10222744 -0.80569512 7.7426252e-39
2.3615992 -0.10297323 -0.8233279 7.6504366e-39
2.368861 -0.071061358 -0.81940281 8.0195807e-39
2.3789918 -0.052974161 -0.82778221 8.2028705e-39
2.3975961 -0.041405361 -0.82794732 8.1106875e-39
2.3960047 -0.02547824 -0.83370906 8.5695188e-39
2.4181354 -0.013639064 -0.83505887 1.1336107e-38
2.3683949 -0.45561248 -0.79976732 9.491499e-39
2.3543723 -0.43283749 -0.78272212 8.7546472e-39
2.368381 -0.44187304 -0.79976732 8.7560779e-39
2.166508 -0.41636479 -0.72280288 9.494359e-39
2.3227592 -0.39214253 -0.76548988 7.9256096e-39
2.3490884 -0.40727124 -0.78489083 7.925604e-39
2.2982225 -0.36525178 -0.76489031 7.6482968e-39
2.3197918 -0.38093907 -0.77629942 7.464972e-39
2.2880425 -0.34248543 -0.7633636 7.5575333e-39
2.2933917 -0.31226146 -0.76517433 7.4642489e-39
2.2972233 -0.28159186 -0.76179349 7.2787744e-39
2.3179216 -0.28456566 -0.78278512 6.4504641e-39
2.3008265 -0.25280866 -0.76232159 6.8156257e-39
2.3184817 -0.25318709 -0.78062326 6.1699031e-39
2.3340132 -0.24140823 -0.78823221 8.8212677e-39
2.3495021 -0.2256964 -0.78271383 1.3247336e-38
2.3746512 -0.21185568 -0.7987448 1.638378e-38
2.3558598 -0.20679554 -0.77645677 1.1329948e-38
2.3762405 -0.19043753 -0.79285467 7.1865564e-39
2.3558145 -0.16132767 -0.77645677 6.0802509e-39
2.3747091 -0.16284692 -0.79510438 6.1738786e-39
2.3541846 -0.13101736 -0.78230447 6.8196039e-39
2.3745806 -0.1414777 -0.7987448 6.7263279e-39
2.3533568 -0.10222185 -0.78522831 7.7415574e-39
2.3761268 -0.071054094 -0.79283345 8.3869198e-39
2.4053388 -0.045910753 -0.79965097 8.8453771e-39
2.426348 -0.035018545 -0.79481566 1.0867892e-38
2.4238646 -0.020978816 -0.80384564 1.2533194e-38
2.1333756 -0.42474288 -0.67718655 1.2064678e-38
2.3596807 -0.4295845 -0.76329952 8.8464729e-39
2.1293278 -0.40515548 -0.6830706 1.0134694e-38
2.1470208 -0.40916473 -0.70178986 9.8584766e-39
2.3124599 -0.38940787 -0.73869455 7.6515436e-39
2.325124 -0.39214018 -0.75684232 7.8341342e-39
2.3510885 -0.40991968 -0.76052719 8.1096491e-39
2.1333265 -0.37548786 -0.67718655 8.4787708e-39
2.3066409 -0.37087739 -0.74149215 7.7422819e-39
2.325115 -0.38317505 -0.75684232 7.7419162e-39
2.2806892 -0.34181535 -0.72580171 7.2802304e-39
2.2936409 -0.34424791 -0.74289811 7.2805975e-39
2.2788088 -0.31372765 -0.73257536 7.0954664e-39
2.2926621 -0.29827896 -0.74630898 7.2805793e-39
2.2799361 -0.2830036 -0.72834182 7.3709799e-39
2.2926445 -0.28059825 -0.74630898 7.00184e-39
2.2804863 -0.25447461 -0.72622502 6.7263279e-39
2.2935488 -0.25230813 -0.74289811 6.4486508e-39
2.2810411 -0.23033459 -0.72410828 6.5401402e-39
2.2986317 -0.2260814 -0.73710561 5.9887489e-39
2.3261404 -0.226284 -0.75251848 6.0787935e-39
2.3476391 -0.21784963 -0.76106507 4.9731522e-39
2.3134472 -0.20244899 -0.73440087 5.3458892e-39
2.3296564 -0.19490248 -0.73954707 5.2511852e-39
2.3546546 -0.19218144 -0.75806499 4.6065361e-39
2.3753686 -0.18081638 -0.77326167 5.7118102e-39
2.355937 -0.16006149 -0.75553107 5.6207006e-39
2.3574865 -0.13379753 -0.7531817 6.1745863e-39
2.3614116 -0.10416241 -0.75578117 6.8195969e-39
2.3813174 -0.089214057 -0.75117362 6.8174403e-39
2.3593304 -0.079481907 -0.76329952 8.1096015e-39
2.3879502 -0.069300614 -0.76096636 8.1081609e-39
2.3948102 -0.052958343 -0.76993918 8.9375727e-39
2.4150231 -0.048688591 -0.76424855 8.7528157e-39
2.4325237 -0.037352741 -0.77224094 1.2345149e-38
2.442893 -0.022007499 -0.77748448 1.3917928e-38
2.1346347 -0.43125036 -0.65933752 1.2523491e-38
2.1265535 -0.40339217 -0.66035289 1.1421813e-38
2.3202114 -0.39118069 -0.710356 8.2943851e-39
2.3369572 -0.40109345 -0.71360427 7.7415729e-39
2.3508449 -0.40388691 -0.72727776 8.8432387e-39
2.1120737 -0.37466511 -0.64496034 8.5680643e-39
2.1247094 -0.3748782 -0.66446614 9.2134491e-39
2.3113613 -0.37474471 -0.71043438 7.9255914e-39
2.2846706 -0.34502113 -0.70316792 7.279866e-39
2.2578611 -0.309389 -0.68405753 6.6330561e-39
2.2781076 -0.31487331 -0.70481598 7.2787758e-39
2.2544749 -0.28236228 -0.69027603 6.450097e-39
2.2681303 -0.28256038 -0.71085429 7.2787772e-39
2.2524633 -0.25382474 -0.68704933 5.8040017e-39
2.268671 -0.24840936 -0.70875168 6.6330491e-39
2.2524374 -0.22232649 -0.68335354 5.6185328e-39
2.2781177 -0.22278626 -0.70877558 6.172787e-39
2.2995694 -0.20986834 -0.72072721 5.988725e-39
2.250236 -0.19473907 -0.68119228 5.617814e-39
2.2834952 -0.18881725 -0.70285261 5.4359436e-39
2.2995517 -0.19218764 -0.72072721 5.4344975e-39
2.2586274 -0.16222119 -0.68071741 5.0664324e-39
2.2879217 -0.16449282 -0.69870704 5.0671555e-39
2.3059156 -0.16150509 -0.71345645 5.0682429e-39
2.3319943 -0.16800471 -0.73089945 4.7001947e-39
2.2585971 -0.13192213 -0.68071741 4.9731648e-39
2.2878923 -0.1352329 -0.69870704 4.4207197e-39
2.3111176 -0.13521273 -0.71044934 4.3306863e-39
2.3343189 -0.12765926 -0.72225183 4.7920232e-39
2.2585754 -0.11027993 -0.68071741 4.0540966e-39
2.2826543 -0.10102649 -0.69347334 3.9611793e-39
2.3342965 -0.10524642 -0.72225183 4.9774892e-39
2.3554347 -0.097111508 -0.72643119 5.1604343e-39
2.2901464 -0.073784724 -0.69023997 4.8802475e-39
2.3064239 -0.068415552 -0.69514549 5.4337632e-39
2.3366256 -0.069383517 -0.71360427 5.9880258e-39
2.3603091 -0.074669927 -0.72558457 5.9883845e-39
2.3935218 -0.066533946 -0.74058163 7.1872738e-39
2.290123 -0.050376795 -0.69023991 6.9060346e-39
2.3164697 -0.042092338 -0.70127833 1.1607601e-38
2.4021108 -0.052951042 -0.74324238 7.6457633e-39
2.4205287 -0.039391335 -0.74408257 1.2894027e-38
2.4386997 -0.039686926 -0.74966615 1.2990167e-38
2.3389456 -0.02455548 -0.70495665 1.5945486e-38
2.4386857 -0.025644733 -0.74966615 1.5768255e-38
2.1206717 -0.42327303 -0.61369723 1.399325e-38
2.1304755 -0.4279013 -0.63472819 1.2428436e-38
2.1120577 -0.40074039 -0.61857808 1.3628041e-38
2.1290379 -0.40412852 -0.63989925 1.2247618e-38
2.3300729 -0.38939026 -0.67428881 6.5390724e-39
2.1159544 -0.37430891 -0.62318671 9.2145225e-39
2.3131423 -0.3770521 -0.6797626 6.8203298e-39
2.2633677 -0.33535412 -0.66401684 4.0551742e-39
2.2854507 -0.34846964 -0.67050511 5.0686101e-39
2.2531044 -0.31230322 -0.6610238 4.2366984e-39
2.2496626 -0.28171071 -0.66001987 3.5012801e-39
2.2479279 -0.25139707 -0.65951318 3.4083656e-39
2.2478979 -0.22130351 -0.65951318 3.960815e-39
2.2478676 -0.19120996 -0.65951318 3.7778614e-39
2.2478375 -0.16111638 -0.65951318 3.9604548e-39
2.2478075 -0.13102283 -0.65951318 4.2381179e-39
2.2546005 -0.101216 -0.66152108 4.1459153e-39
2.263108 -0.075647853 -0.66401684 4.238471e-39
2.2794108 -0.063114114 -0.66880202 4.9749487e-39
2.294754 -0.050372165 -0.67330575 6.9931828e-39
2.318634 -0.039812494 -0.6826154 1.2989792e-38
2.3448665 -0.033514705 -0.68333763 1.67662e-38
2.3604636 -0.021110108 -0.690705 1.5206499e-38
2.1228092 -0.42327088 -0.60588145 1.6391755e-38
2.1216958 -0.40332747 -0.59808594 1.60244e-38
2.1237757 -0.37444791 -0.5977456 1.0316913e-38
2.2972887 -0.37192577 -0.64788395 4.4246756e-39
2.1270149 -0.35439327 -0.59024996 4.5158146e-39
2.1393199 -0.356803 -0.60212868 4.8856593e-39
2.2865939 -0.3464832 -0.64357066 3.8707843e-39
2.2612116 -0.31249085 -0.6364333 3.5019976e-39
2.2547622 -0.2814838 -0.63463229 3.1335822e-39
2.2547321 -0.25139025 -0.63463229 3.3168861e-39
2.2415462 -0.21551351 -0.62206143 3.2257498e-39
2.2540553 -0.22252566 -0.63700193 3.4097908e-39
2.2546718 -0.19120315 -0.63463229 3.5016361e-39
2.2546418 -0.16110957 -0.63463229 3.9608107e-39
2.2546117 -0.131016 -0.63463229 3.687814e-39
2.2580009 -0.10106909 -0.63560796 4.0540868e-39
2.2699628 -0.079969436 -0.63896608 4.0533889e-39
2.2863104 -0.063107207 -0.64357066 4.6994408e-39
2.3017004 -0.050365217 -0.64790452 4.8842034e-39
2.3180568 -0.041882798 -0.65250915 6.8041448e-39
2.3507786 -0.033508793 -0.66171861 1.2435177e-38
2.3523345 -0.01258857 -0.65595353 1.3366553e-38
2.3665373 -0.022458164 -0.66850019 1.4744803e-38
2.1294358 -0.3971774 -0.57270861 1.6853799e-38
2.1323786 -0.37464479 -0.57071054 1.289586e-38
2.281662 -0.36130652 -0.5972147 4.1466692e-39
2.3038075 -0.36554858 -0.62113416 4.1491859e-39
2.1334252 -0.3523612 -0.56680262 5.0682695e-39
2.1559093 -0.3523249 -0.58125466 4.8856495e-39
2.2729042 -0.34237644 -0.60711294 3.5952722e-39
2.2912028 -0.35519788 -0.62674981 4.4246672e-39
2.2627301 -0.31156945 -0.60560453 3.5020018e-39
2.2472401 -0.27784583 -0.60146892 3.501992e-39
2.2627087 -0.29007405 -0.60560453 3.4098118e-39
2.247524 -0.25471136 -0.60034573 3.2264841e-39
2.2600141 -0.24135378 -0.61528045 3.4090761e-39
2.2477906 -0.22174762 -0.59925127 3.3175993e-39
2.2592466 -0.22989033 -0.61804497 3.4087146e-39
2.2478328 -0.19501254 -0.59899783 3.4094348e-39
2.2592034 -0.18689953 -0.61804497 3.1368038e-39
2.2479064 -0.16459888 -0.59861767 3.6853071e-39
2.2591734 -0.15680596 -0.61804497 3.8704242e-39
2.2487924 -0.14078605 -0.5952912 3.9615226e-39
2.2619793 -0.12742609 -0.607678 3.9629561e-39
2.2625198 -0.1009145 -0.60560459 3.7785747e-39
2.2697444 -0.078207165 -0.60606027 4.1473544e-39
2.3027 -0.062702879 -0.61829954 4.5150565e-39
2.3098047 -0.050357115 -0.61826974 4.6990918e-39
2.3309121 -0.041932326 -0.62161553 6.0766327e-39
2.3566906 -0.03350288 -0.64009959 9.7564985e-39
2.3754697 -0.024706112 -0.63584596 1.0858893e-38
2.6015558 -0.017140573 -0.68101215 1.0491569e-38
2.6174929 -0.010646344 -0.70232236 1.2347724e-38
2.6378667 -0.01741986 -0.71124649 1.2806888e-38
2.5937243 0.0025947252 -0.70957792 1.3354327e-38
2.6198826 0.0051080403 -0.69352573 1.4002565e-38
2.1565673 -0.38941693 -0.53917778 1.4365949e-38
2.1404383 -0.37058538 -0.54122376 1.3263907e-38
2.1565592 -0.38125917 -0.53917778 1.3904605e-38
2.2839453 -0.36130425 -0.58886445 4.7931092e-39
2.1370435 -0.34642285 -0.5376274 7.4656838e-39
2.1575944 -0.34046915 -0.53524333 4.8845929e-39
2.258189 -0.3393189 -0.56165677 3.8711333e-39
2.2706978 -0.34058028 -0.57657689 4.1470027e-39
2.2574039 -0.30516189 -0.56440246 4.1455537e-39
2.2701681 -0.3149057 -0.57841986 3.5023633e-39
2.2562544 -0.28198457 -0.56852096 3.6842309e-39
2.25137 -0.25337619 -0.56732148 3.5005487e-39
2.2561965 -0.22403829 -0.56852096 3.4094376e-39
2.2513163 -0.1937331 -0.56729937 3.5005473e-39
2.2543159 -0.16411954 -0.5680694 3.6853043e-39
2.2564147 -0.13515018 -0.56739771 3.869334e-39
2.2682157 -0.12670332 -0.58487046 3.5034143e-39
2.2560813 -0.1087558 -0.56852096 3.9626086e-39
2.2704494 -0.092308417 -0.57657683 4.2381095e-39
2.2748463 -0.078140087 -0.5806632 4.4228707e-39
2.3057668 -0.064609475 -0.58254093 4.2388312e-39
2.3179088 -0.050349008 -0.58863497 5.0660807e-39
2.3426166 -0.037562821 -0.5949102 6.5354514e-39
2.3685062 -0.02452592 -0.59686154 9.2934058e-39
2.381423 -0.024700159 -0.6140765 7.9093812e-39
2.5876925 -0.012103056 -0.65207666 1.2156846e-38
2.6041548 -0.012202191 -0.67149019 1.1326729e-38
2.5889695 0.0025899708 -0.64735287 1.3540506e-38
2.6060879 0.0075428719 -0.66434878 1.4559334e-38
2.1488781 -0.36877632 -0.51035541 1.3167401e-38
2.1651587 -0.37309277 -0.50770235 1.353905e-38
2.1449695 -0.34070191 -0.50685477 8.0148905e-39
2.1629906 -0.35677934 -0.51557118 1.1973887e-38
2.2619348 -0.33077574 -0.54792845 3.3136323e-39
2.1473336 -0.31993034 -0.5052101 3.6849455e-39
2.1651015 -0.31598818 -0.50770235 3.3164895e-39
2.2205088 -0.32004836 -0.52498573 3.0399124e-39
2.2602355 -0.31211507 -0.53985804 3.0406425e-39
2.2752044 -0.31155694 -0.55998951 3.5012717e-39
2.2604861 -0.28335604 -0.53883499 3.1321389e-39
2.2495093 -0.25228173 -0.53621256 3.1324906e-39
2.2370977 -0.21692532 -0.52460283 3.409425e-39
2.2532544 -0.22337353 -0.53791982 3.5012731e-39
2.2370641 -0.18320791 -0.52460283 3.7753377e-39
2.2491713 -0.19395176 -0.53723556 3.6852944e-39
2.2555048 -0.16361149 -0.53765768 3.6863777e-39
2.2639909 -0.13436626 -0.53969145 3.7778474e-39
2.2639651 -0.10874792 -0.53969145 4.146274e-39
2.2783875 -0.092300475 -0.54754907 4.2384724e-39
2.2817276 -0.080920972 -0.54540306 4.1473516e-39
2.3162296 -0.065857485 -0.55843872 4.514332e-39
2.3267059 -0.048584618 -0.55646002 5.8007549e-39
2.3491223 -0.03690704 -0.56651586 7.8251001e-39
2.353138 -0.024260553 -0.55638707 1.049622e-38
2.3732359 -0.024521191 -0.5795663 1.141279e-38
2.5909073 -0.012075377 -0.62768459 1.2986246e-38
2.5867965 0.0058281664 -0.63001353 1.446426e-38
2.6155856 0.014462465 -0.62959373 1.7049692e-38
2.1529932 -0.36391774 -0.48202097 1.3905694e-38
2.1326456 -0.33402064 -0.46722928 1.1235233e-38
2.1446919 -0.34535268 -0.47913852 1.1695505e-38
2.1278131 -0.32084644 -0.46968806 8.2896669e-39
2.1455255 -0.31063747 -0.47994345 4.5150789e-39
2.1739464 -0.30575302 -0.49301383 3.2254093e-39
2.2113714 -0.30546486 -0.50148076 3.5909576e-39
2.2238083 -0.3074891 -0.51287448 2.396006e-39
2.2551553 -0.30318251 -0.51575279 2.8559135e-39
2.1590188 -0.29764196 -0.47301343 2.7665794e-39
2.1736848 -0.2915062 -0.47622687 3.4076426e-39
2.2078013 -0.29209599 -0.48794958 3.13142e-39
2.238466 -0.28186268 -0.49557576 2.8566184e-39
2.2551341 -0.28197151 -0.51575279 2.9484637e-39
2.2395217 -0.25161466 -0.50070399 3.2239646e-39
2.2551129 -0.26076055 -0.51575279 2.8577128e-39
2.2393103 -0.22165973 -0.5043996 3.4097964e-39
2.2376478 -0.19113494 -0.50044245 3.5934576e-39
2.2550535 -0.20136975 -0.51575279 3.594168e-39
2.2450538 -0.16802706 -0.49533194 3.7778544e-39
2.2587914 -0.16067176 -0.51227409 3.7774887e-39
2.2645431 -0.1339162 -0.50923759 3.8693382e-39
2.2718449 -0.10447031 -0.51086193 4.0548056e-39
2.2718234 -0.08312171 -0.51086193 3.8718185e-39
2.2857437 -0.077246323 -0.52059478 4.3306625e-39
2.3263204 -0.063272707 -0.52759486 4.6065319e-39
2.3335361 -0.048138883 -0.53148216 5.3415732e-39
2.3511653 -0.03654547 -0.53142214 6.9074457e-39
2.3483546 -0.024171758 -0.54165483 9.2058499e-39
2.3850603 -0.024509367 -0.53632826 8.6555586e-39
2.5654428 -0.01672898 -0.58181506 1.0586643e-38
2.5857811 -0.011037444 -0.59840697 1.1513997e-38
2.6018827 0.0075001339 -0.60011494 1.5205047e-38
2.1381381 -0.33721662 -0.44715676 1.326103e-38
2.150533 -0.3475084 -0.45115349 1.3721293e-38
2.1344488 -0.31266132 -0.44640326 9.9448807e-39
2.1399949 -0.29399493 -0.44020861 6.4461509e-39
2.1565394 -0.28518569 -0.45019069 3.7760636e-39
2.1864045 -0.28179806 -0.46506199 2.9473917e-39
2.2177737 -0.27385113 -0.46468568 2.7644256e-39
2.2326071 -0.27399772 -0.4805778 3.1314326e-39
2.2244911 -0.26387373 -0.45335436 2.4917679e-39
2.2347941 -0.25306892 -0.47250366 3.5909394e-39
2.2347648 -0.22377168 -0.47250363 3.7764139e-39
2.2347355 -0.19447446 -0.47250366 3.6853057e-39
2.2381911 -0.16542165 -0.4732402 3.7771327e-39
2.265074 -0.15045327 -0.47892526 3.5945534e-39
2.2666919 -0.13357458 -0.47926462 3.8697011e-39
2.2776165 -0.10970538 -0.48266697 4.1462712e-39
2.2959671 -0.094432436 -0.48327342 4.3302883e-39
2.2982435 -0.080148503 -0.49222583 4.4225148e-39
2.3321729 -0.064658098 -0.49609098 4.3313883e-39
2.3422215 -0.050324697 -0.49973059 4.9742326e-39
2.3604672 -0.037461799 -0.5081529 6.9045745e-39
2.4076173 -0.024673965 -0.51829088 8.563014e-39
2.4404402 -0.015877835 -0.53471082 1.0401911e-38
2.4781041 -0.016104393 -0.53346038 1.0217145e-38
2.5509636 -0.010213791 -0.55891854 1.0962272e-38
2.5679779 -0.0070787324 -0.57250905 1.1608714e-38
2.5534573 0.021703091 -0.54968333 2.0000704e-38
2.572207 0.0057891114 -0.55699909 1.4005427e-38
2.5948744 0.0091010779 -0.57519054 1.5576346e-38
2.1431932 -0.33997124 -0.41806659 1.4825846e-38
2.133426 -0.31210342 -0.41453984 1.3260301e-38
2.1444044 -0.28561181 -0.41343945 8.1964035e-39
2.1622834 -0.27753347 -0.42562029 4.513623e-39
2.2003486 -0.26870155 -0.43171549 2.9481022e-39
2.1908753 -0.26701561 -0.41327596 3.776065e-39
2.2273052 -0.25805318 -0.43419641 3.0399433e-39
2.2416573 -0.24701656 -0.447384 3.5923786e-39
2.2424929 -0.22376393 -0.44424403 3.594175e-39
2.2434475 -0.19454645 -0.44443706 3.5934632e-39
2.2511609 -0.16449627 -0.4449926 3.8696885e-39
2.2717881 -0.15044655 -0.45437354 3.8700697e-39
2.2614808 -0.14103666 -0.43516397 4.238464e-39
2.2779486 -0.13300052 -0.45245993 3.9618799e-39
2.2877755 -0.10628426 -0.45261461 4.2384696e-39
2.302202 -0.092276663 -0.46046594 4.6065249e-39
2.3074408 -0.083868958 -0.46149513 4.9745829e-39
2.3451006 -0.067701638 -0.46904764 4.7905616e-39
2.3491678 -0.050317749 -0.47432935 4.9735193e-39
2.3736715 -0.038991299 -0.47777757 6.8138208e-39
2.3837211 -0.024323551 -0.47677782 9.292338e-39
2.398067 -0.02449636 -0.4887664 9.2087366e-39
2.4265449 -0.01872476 -0.49454707 1.0035965e-38
2.4830062 -0.01609949 -0.51553506 1.0404039e-38
2.5177977 -0.016343595 -0.53236932 1.0124952e-38
2.55199 -0.0069968617 -0.52987909 1.1239589e-38
2.5202479 0.021383645 -0.52327216 1.991066e-38
2.5552495 0.0073311771 -0.53054607 1.4927727e-38
2.1514184 -0.33516079 -0.38797268 1.5470854e-38
2.1409554 -0.31197384 -0.38368845 1.4825834e-38
2.1417875 -0.28027296 -0.38384801 9.9448681e-39
2.156853 -0.2619634 -0.37844706 5.524891e-39
2.1756723 -0.25968477 -0.39074782 3.6838609e-39
2.2009997 -0.25557795 -0.40274924 2.9495203e-39
2.2313521 -0.24665126 -0.4082996 3.5916653e-39
2.2491338 -0.24049862 -0.42002153 3.5012493e-39
2.2387116 -0.2264393 -0.40121737 3.6845658e-39
2.2502189 -0.22166356 -0.41598442 3.5938233e-39
2.2512958 -0.19445787 -0.41194737 3.7774943e-39
2.2520959 -0.16188203 -0.41294557 3.870406e-39
2.2668123 -0.13597371 -0.41565004 4.1466285e-39
2.2796001 -0.12922773 -0.42572987 4.2391871e-39
2.2923133 -0.10685756 -0.42465004 4.4239371e-39
2.3124082 -0.092266455 -0.42314455 4.4250217e-39
2.3140826 -0.083813399 -0.43215352 4.6086801e-39
2.3520384 -0.072083697 -0.44369361 4.6076067e-39
2.3740413 -0.05950756 -0.447855 4.5154195e-39
2.3796177 -0.046345398 -0.44889855 5.8018437e-39
2.4075351 -0.033452034 -0.45417595 8.1031275e-39
2.4345293 -0.024779161 -0.46537244 9.7601041e-39
2.4699805 -0.01898958 -0.47219267 1.0679188e-38
2.4928102 -0.016089687 -0.47968447 1.132204e-38
2.5239832 -0.0068829716 -0.48570609 1.1423605e-38
2.5439284 -0.0069559924 -0.50881195 1.1331772e-38
2.5320766 0.0096064759 -0.4800607 1.5480555e-38
2.5485585 0.013247271 -0.50128436 1.6957492e-38
2.1510286 -0.31054959 -0.354431 1.6022218e-38
2.1496584 -0.28121179 -0.35583466 1.2246156e-38
2.1578338 -0.25968349 -0.35362202 6.3557279e-39
2.1829178 -0.25158501 -0.36422378 3.6838693e-39
2.2075884 -0.24477355 -0.37330973 3.6831266e-39
2.2420142 -0.23890942 -0.38918576 3.6860091e-39
2.2198048 -0.23584539 -0.36044967 3.5905709e-39
2.241272 -0.22537561 -0.37858307 3.6842112e-39
2.2447209 -0.20356542 -0.37915942 3.7774985e-39
2.2587426 -0.1892188 -0.38469705 3.7785747e-39
2.2610853 -0.1601623 -0.3853572 4.0537224e-39
2.271672 -0.13418315 -0.39180723 4.1462838e-39
2.290786 -0.12497435 -0.38481039 4.1477299e-39
2.2959623 -0.11260033 -0.39426917 4.4239427e-39
2.323364 -0.096769869 -0.40331703 4.5157642e-39
2.3316228 -0.084236227 -0.41350874 4.240622e-39
2.3614419 -0.076492645 -0.41437986 4.4225078e-39
2.3829837 -0.062445406 -0.41516721 4.5143306e-39
2.3870149 -0.0478114 -0.42185545 5.8007493e-39
2.4170036 -0.042407706 -0.4195855 6.3524923e-39
2.4373777 -0.033759806 -0.43224353 8.6530545e-39
2.4764969 -0.019842828 -0.44186905 1.1048689e-38
2.5013795 -0.0067893681 -0.44831523 1.179022e-38
2.516453 -0.0068440191 -0.46522424 1.1699107e-38
2.5001214 0.025730494 -0.45279649 1.9541874e-38
2.5220335 0.0072153914 -0.45677182 1.4648284e-38
2.4099007 -0.37150493 -0.38231602 1.5746692e-38
2.4244299 -0.37411058 -0.39364269 1.620731e-38
2.1590521 -0.30519938 -0.32810426 1.6296993e-38
2.1856837 -0.30376574 -0.32245624 1.6021495e-38
2.166961 -0.28080931 -0.33093905 1.3994979e-38
2.1687531 -0.25377828 -0.32959417 7.3684281e-39
2.1845806 -0.24127437 -0.33687666 3.6849399e-39
2.1974268 -0.23278151 -0.3323296 3.4097796e-39
2.2080579 -0.23436722 -0.35032502 3.3165161e-39
2.248369 -0.22112355 -0.35140899 3.409788e-39
2.252059 -0.19344077 -0.35228887 3.9626002e-39
2.2634358 -0.19026043 -0.36753944 3.5037745e-39
2.2540121 -0.17237261 -0.34506983 4.1476893e-39
2.267539 -0.15924084 -0.35675365 4.146274e-39
2.2762365 -0.13388503 -0.35691845 4.3317513e-39
2.294143 -0.12497099 -0.37253451 4.5154153e-39
2.3038208 -0.11259248 -0.36553255 4.3313897e-39
2.3316994 -0.099395797 -0.37689081 4.147346e-39
2.3587911 -0.09355218 -0.37864164 4.2380787e-39
2.3735113 -0.081016354 -0.38542497 3.9636806e-39
2.3903694 -0.063911416 -0.38816425 4.4221322e-39
2.4072318 -0.051008314 -0.39090347 5.8918729e-39
2.4205508 -0.04240416 -0.40661409 7.3637674e-39
2.4525685 -0.036111593 -0.40513572 9.4824424e-39
2.4742754 -0.025003634 -0.41101778 1.1601473e-38
2.5092614 -0.010763667 -0.41950664 1.1971723e-38
2.5099316 0.019545807 -0.41694587 1.8525202e-38
2.526309 0.015009274 -0.42910469 1.6217415e-38
2.5123625 0.039680358 -0.4079833 1.9448603e-38
2.2500799 -0.36137483 -0.30706605 3.868248e-39
2.2906058 -0.36017099 -0.32946351 9.9405661e-39
2.3421988 -0.36431205 -0.34553078 1.2148589e-38
2.3784361 -0.37507394 -0.36849082 1.3903892e-38
2.3965042 -0.36889809 -0.36684602 1.4548169e-38
2.2566998 -0.33287054 -0.31459859 1.463817e-38
2.2814279 -0.35008717 -0.32255083 1.1782294e-38
2.3055623 -0.3540386 -0.331615 1.1968836e-38
2.3739183 -0.3563188 -0.35461438 1.5561222e-38
2.2046242 -0.30569911 -0.30627704 1.6018248e-38
2.2235563 -0.31387836 -0.3116335 1.6112238e-38
2.2500386 -0.32005373 -0.30706605 1.5927129e-38
2.1722281 -0.27731082 -0.30298033 1.4545638e-38
2.1952677 -0.29286444 -0.29798612 1.5834213e-38
2.178597 -0.26034093 -0.29892904 1.0589105e-38
2.1957314 -0.24722922 -0.30480745 5.5248826e-39
2.2059762 -0.23277296 -0.30106652 3.2243415e-39
2.2286985 -0.22897115 -0.31728864 3.5916625e-39
2.2571416 -0.21775849 -0.32052317 3.8678892e-39
2.2608695 -0.19603321 -0.32008114 4.0537266e-39
2.2744675 -0.18187873 -0.32716858 3.9633317e-39
2.2744467 -0.16095218 -0.32716858 4.2381151e-39
2.2898285 -0.13890098 -0.33149621 4.332103e-39
2.3049631 -0.12778828 -0.33297896 4.2399032e-39
2.3362486 -0.11803712 -0.33606142 4.2395444e-39
2.3169088 -0.11723444 -0.346122 4.1473516e-39
2.3392918 -0.10969034 -0.34511995 4.0555217e-39
2.3753016 -0.097649962 -0.35294375 3.9626016e-39
2.3809235 -0.083642341 -0.35833031 4.0551644e-39
2.3976603 -0.067219257 -0.36151654 4.2384626e-39
2.4142771 -0.051001266 -0.36514121 6.2581345e-39
2.4540856 -0.038926847 -0.37766674 9.0221831e-39
2.4660196 -0.024813727 -0.37296775 1.1965944e-38
2.491745 -0.015883148 -0.38609675 1.1693337e-38
2.5148599 -0.0067758877 -0.39902067 1.1972809e-38
2.4993865 0.01480131 -0.38728511 1.7418489e-38
2.517287 0.016972119 -0.39005792 1.6956789e-38
2.5312507 0.011893724 -0.41104481 1.6588695e-38
2.5148134 0.039682809 -0.39902067 1.963263e-38
2.212518 -0.36241052 -0.27761924 1.7477919e-39
2.2324102 -0.36191911 -0.28827906 2.6697006e-39
2.2522597 -0.36137265 -0.29909456 2.4845891e-39
2.2065411 -0.33300364 -0.2728312 5.0642842e-39
2.2278962 -0.347197 -0.27819374 4.6972856e-39
2.2576377 -0.34418926 -0.29705715 8.9267407e-39
2.2790551 -0.35347241 -0.31102023 8.0019509e-39
2.1825976 -0.31215087 -0.26518932 5.5234589e-39
2.1963069 -0.3077808 -0.28362522 1.4086425e-38
2.2312868 -0.32100275 -0.29223824 1.3717662e-38
2.1794071 -0.28104132 -0.26950589 7.2737241e-39
2.1855631 -0.25072226 -0.26933816 4.4199728e-39
2.1962426 -0.24336986 -0.28362522 3.6838665e-39
2.1983542 -0.23129068 -0.275859 3.1328227e-39
2.231302 -0.22511975 -0.28652427 3.132485e-39
2.2575371 -0.21618415 -0.28988081 3.6849287e-39
2.2682908 -0.19314732 -0.29293296 4.1455579e-39
2.268537 -0.16508192 -0.29193029 4.5146866e-39
2.2847974 -0.15597437 -0.30446538 4.6987373e-39
2.2948337 -0.14100331 -0.31320187 5.0649961e-39
2.3227768 -0.134048 -0.30847868 4.4221378e-39
2.3426008 -0.1197504 -0.31283924 4.0537154e-39
2.3613348 -0.11017717 -0.30495524 4.0544455e-39
2.3826323 -0.10261947 -0.32519209 4.2377508e-39
2.3908818 -0.085387982 -0.32192189 4.5128999e-39
2.4067514 -0.069708869 -0.33323872 4.4214274e-39
2.4382963 -0.051351558 -0.34175703 7.1790132e-39
2.4648409 -0.037664194 -0.34808022 1.1968117e-38
2.4684184 -0.024811327 -0.36419624 1.3349921e-38
2.4955535 -0.01584474 -0.35592207 1.3815267e-38
2.504266 0.002505267 -0.36948723 1.3075945e-38
2.5246451 0.011817395 -0.36317003 1.6405406e-38
2.2139435 -0.34123841 -0.24958406 4.9771221e-39
2.2383068 -0.35670403 -0.24016091 5.0703841e-39
2.1903276 -0.30845699 -0.24294077 4.5150607e-39
2.2069383 -0.31984729 -0.24479413 4.7005338e-39
2.1902997 -0.28146821 -0.24294488 4.5143405e-39
2.1942184 -0.25872457 -0.24179959 4.1466341e-39
2.2060683 -0.2463793 -0.24770646 3.3161518e-39
2.2175229 -0.22981218 -0.24998721 3.0406383e-39
2.2391162 -0.21957491 -0.25186253 3.3175923e-39
2.2637997 -0.21500504 -0.26962906 3.5938149e-39
2.2733293 -0.19290145 -0.26455697 4.3306526e-39
2.275943 -0.16819288 -0.26485911 4.7909301e-39
2.2974131 -0.1536094 -0.26915613 4.5139901e-39
2.3330655 -0.13844995 -0.28001007 4.2380997e-39
2.3552146 -0.12259124 -0.2869418 3.9618729e-39
2.3908679 -0.10180967 -0.29446188 4.1462754e-39
2.3978281 -0.085381031 -0.29652062 4.0558776e-39
2.4193733 -0.068448171 -0.30360422 4.6040194e-39
2.4453909 -0.051344462 -0.3158142 9.2044402e-39
2.4804258 -0.038439695 -0.32033876 1.3440376e-38
2.4828107 -0.024796935 -0.31156728 1.5662064e-38
2.5045764 -0.015854981 -0.32577088 1.4095479e-38
2.5307915 -0.006759956 -0.34076345 1.3271849e-38
2.5188675 0.0025198685 -0.31609368 1.3174607e-38
2.5320029 0.0071788784 -0.33628207 1.4928474e-38
2.2556577 -0.35894719 -0.22979572 5.2526342e-39
2.2214506 -0.33298874 -0.21831077 4.8852796e-39
2.243463 -0.34854108 -0.22127563 5.0686016e-39
2.2000699 -0.31101942 -0.21651115 4.7927336e-39
2.2003257 -0.28181034 -0.21623461 4.5154265e-39
2.2007329 -0.25848937 -0.21797726 4.0547958e-39
2.2162201 -0.24486302 -0.21647508 2.9495203e-39
2.2288733 -0.22927745 -0.21732615 3.1324878e-39
2.2453003 -0.21828151 -0.22469592 3.6853001e-39
2.2695508 -0.21259931 -0.23532237 3.8707563e-39
2.2788718 -0.19291387 -0.23301165 4.5146866e-39
2.2831824 -0.16901718 -0.23838954 4.4235713e-39
2.3050046 -0.1547976 -0.24140041 4.1462838e-39
2.3363445 -0.13904329 -0.25238502 3.9626002e-39
2.3617122 -0.1285056 -0.25511825 4.0540602e-39
2.3898673 -0.11967891 -0.26510063 3.8718297e-39
2.4056616 -0.10402641 -0.26794416 4.0551532e-39
2.4253795 -0.094817713 -0.26025528 4.0547804e-39
2.4047747 -0.085374087 -0.27111936 4.0558608e-39
2.4261298 -0.070615113 -0.27353552 3.7781991e-39
2.4790657 -0.043705642 -0.29121488 7.1793579e-39
2.4876082 -0.024792138 -0.29402426 1.3085268e-38
2.5056717 -0.011232783 -0.29616001 1.3271126e-38
2.5229204 0.0055991518 -0.30126208 1.4375669e-38
2.5401716 0.0087356716 -0.30640668 1.5389458e-38
2.2621233 -0.36364284 -0.1884789 5.1615288e-39
2.231926 -0.33553055 -0.19328359 5.1600714e-39
2.2502522 -0.34762785 -0.19644494 5.2529957e-39
2.2086182 -0.30192998 -0.18930225 4.8834845e-39
2.2241035 -0.31304201 -0.18863478 4.8838418e-39
2.2091246 -0.28058636 -0.18737222 4.3313827e-39
2.2244275 -0.28762424 -0.18072289 4.5154265e-39
2.2104206 -0.25690752 -0.18254711 4.0533693e-39
2.2237661 -0.24454141 -0.18961795 3.3172406e-39
2.2358954 -0.22869165 -0.19164582 3.5920142e-39
2.2517688 -0.21409597 -0.1970464 4.2384654e-39
2.2641635 -0.20296431 -0.19812205 4.5143306e-39
2.2863102 -0.18848857 -0.20579447 4.4232056e-39
2.290205 -0.17233641 -0.21272209 4.3306597e-39
2.3064651 -0.16301279 -0.21009311 4.1459167e-39
2.3355725 -0.15038277 -0.22113234 4.145195e-39
2.350723 -0.14281899 -0.22256699 3.9615058e-39
2.3738272 -0.13133718 -0.2290235 3.9629561e-39
2.3979175 -0.11967086 -0.23566405 4.147353e-39
2.4128964 -0.10292193 -0.24148454 4.4235798e-39
2.4151943 -0.085363664 -0.23301749 4.6065025e-39
2.4359477 -0.072893366 -0.24731039 3.9626002e-39
2.4643185 -0.060290679 -0.24663332 4.4221518e-39
2.4913995 -0.042040735 -0.26161492 7.0914965e-39
2.4967217 -0.02296431 -0.26069257 1.4195599e-38
2.5129204 -0.011225535 -0.26965436 1.3457688e-38
2.5231793 0.0025241801 -0.2662091 1.2898763e-38
2.5458906 0.0087413909 -0.28549376 1.5574203e-38
2.2718985 -0.35893095 -0.17040761 5.2526258e-39
2.2871475 -0.36960196 -0.17155026 5.3452025e-39
2.2434773 -0.32996851 -0.16429058 4.6101388e-39
2.2603097 -0.3441782 -0.1672381 5.1607917e-39
2.2385786 -0.31377596 -0.16284609 4.7923679e-39
2.2149239 -0.27391082 -0.16614169 4.3320988e-39
2.2306905 -0.28520259 -0.15781255 4.423591e-39
2.2149079 -0.25790349 -0.16614169 3.5030682e-39
2.2335036 -0.25008196 -0.15801093 3.7782174e-39
2.2439058 -0.22395705 -0.16233668 4.0544371e-39
2.2569909 -0.21188432 -0.17130838 4.2381263e-39
2.2626138 -0.19937317 -0.16839339 4.2388242e-39
2.2958252 -0.18693408 -0.17630242 4.3306526e-39
2.3188679 -0.16546494 -0.18496901 4.1462698e-39
2.3445265 -0.15249492 -0.18839671 4.2366718e-39
2.3574808 -0.14281222 -0.19785604 4.2373822e-39
2.3797646 -0.13337068 -0.19973716 4.4214162e-39
2.4059675 -0.11966281 -0.2062275 4.5143194e-39
2.4210007 -0.10291382 -0.21184979 4.6068934e-39
2.4186676 -0.085360192 -0.22031687 4.3309974e-39
2.4473445 -0.077439405 -0.21854052 4.1469732e-39
2.4690514 -0.063274331 -0.22933811 4.2388298e-39
2.4886179 -0.060703073 -0.22222617 4.6961996e-39
2.4983552 -0.042843781 -0.2320464 1.243377e-38
2.5047932 -0.018712567 -0.2311618 1.6226763e-38
2.5207705 -0.0089277755 -0.24093987 1.4288152e-38
2.5177388 0.0025187398 -0.25198391 1.3084222e-38
2.2802019 -0.36165905 -0.14005356 5.0693177e-39
2.2997234 -0.37074536 -0.15210518 5.2526412e-39
2.2520268 -0.32995996 -0.13302752 4.8842146e-39
2.2778902 -0.34688932 -0.14087227 4.9764018e-39
2.2520106 -0.31375447 -0.13302749 4.7920007e-39
2.2421651 -0.28415883 -0.13243367 4.4228707e-39
2.2254601 -0.25389111 -0.12754069 4.4174673e-39
2.2461665 -0.25205851 -0.13294399 3.9622387e-39
2.2508564 -0.22809793 -0.13693543 4.1476935e-39
2.2692389 -0.21549378 -0.13537908 4.0562266e-39
2.2793217 -0.20294914 -0.14269312 4.4228455e-39
2.3005753 -0.19288629 -0.14539193 4.3306639e-39
2.3241484 -0.18182907 -0.14549978 4.6969002e-39
2.3262553 -0.16966245 -0.15797015 4.2381123e-39
2.3632283 -0.15626042 -0.16551381 3.96261e-39
2.3839121 -0.15238214 -0.16189511 4.237406e-39
2.3909445 -0.13683335 -0.17403226 4.1462628e-39
2.4207563 -0.12346454 -0.17642614 4.6983772e-39
2.4281824 -0.10641785 -0.18560186 4.6065305e-39
2.4475372 -0.099215731 -0.17924638 4.3321002e-39
2.450552 -0.083192527 -0.18964663 4.5132573e-39
2.478519 -0.071482912 -0.19474764 5.2468734e-39
2.4938588 -0.062503338 -0.20306906 7.7346841e-39
2.5066123 -0.043757364 -0.20413086 1.6767312e-38
2.5107901 -0.018706571 -0.20923306 1.6963957e-38
2.2870588 -0.36096808 -0.11497863 5.3455417e-39
2.2595077 -0.32995248 -0.10567235 4.8838629e-39
2.2863386 -0.346333 -0.11092328 5.06788e-39
2.2594914 -0.31374696 -0.10567232 4.6987289e-39
2.2575831 -0.28417376 -0.10437826 4.2377564e-39
2.2546568 -0.25245029 -0.10543655 4.5139845e-39
2.2594106 -0.23271953 -0.10567235 4.2395486e-39
2.2791908 -0.22015662 -0.11138937 4.5139733e-39
2.3022501 -0.2125666 -0.11574962 4.4235952e-39
2.3126423 -0.19698107 -0.11897196 4.2395402e-39
2.3296685 -0.18182352 -0.12531434 4.330647e-39
2.336719 -0.17406239 -0.12983342 4.0562238e-39
2.3641975 -0.16768993 -0.13547607 4.0544329e-39
2.3977451 -0.15719581 -0.14165714 4.3292219e-39
2.4047568 -0.14476129 -0.14630012 4.3306667e-39
2.4305577 -0.12960923 -0.14942996 4.6983604e-39
2.4360602 -0.11167675 -0.15681374 4.6987275e-39
2.4533672 -0.099209905 -0.15792833 4.3324477e-39
2.4623334 -0.082753591 -0.16374944 5.6170811e-39
2.4862046 -0.071475223 -0.1666429 1.1332474e-38
2.5029058 -0.060688782 -0.16997948 1.6215942e-38
2.5137701 -0.04383143 -0.17568175 2.0270748e-38
2.539521 -0.034098029 -0.17246696 2.137386e-38
2.5163929 -0.024763353 -0.18876624 1.8808563e-38
2.5474644 -0.025029531 -0.17750654 1.8625618e-38
2.2880983 -0.33660179 -0.08075878 4.8835013e-39
2.3100204 -0.35305065 -0.087849319 5.1615231e-39
2.2666144 -0.31193924 -0.079619803 4.3317611e-39
2.2834611 -0.32130837 -0.074914731 4.6076277e-39
2.265594 -0.28741655 -0.079178832 4.2395542e-39
2.2855709 -0.27915761 -0.067045875 4.7001765e-39
2.2644207 -0.25567234 -0.087435536 4.6980213e-39
2.285193 -0.25487724 -0.07497374 4.6998107e-39
2.2873223 -0.22683229 -0.086986914 4.60582e-39
2.3134136 -0.21778113 -0.08556217 4.6983744e-39
2.3225906 -0.20348755 -0.094411232 4.4221406e-39
2.3394861 -0.18863945 -0.095505193 4.2373962e-39
2.3515673 -0.17466404 -0.10586634 4.3302799e-39
2.3768113 -0.1696678 -0.10452253 4.422498e-39
2.4062309 -0.15664867 -0.11495662 4.6065445e-39
2.4364164 -0.13429525 -0.12250706 4.7916308e-39
2.4627171 -0.12130148 -0.12381916 4.8849068e-39
2.4643762 -0.10454752 -0.12941009 5.0660751e-39
2.4753709 -0.086551204 -0.14186786 7.363738e-39
2.494493 -0.082673356 -0.13637622 1.114952e-38
2.5126808 -0.0671933 -0.14400649 1.6859877e-38
2.527812 -0.049759284 -0.14710161 2.0270741e-38
2.5565994 -0.037332326 -0.15551953 2.0822122e-38
2.5835161 -0.034582481 -0.14806652 2.0638107e-38
2.5602663 -0.02511581 -0.16481182 1.8898977e-38
2.6004314 -0.025482986 -0.15820755 1.8711365e-38
2.2723157 -0.31373417 -0.058777697 4.7930924e-39
2.2888272 -0.30770662 -0.055242565 5.1607973e-39
2.2722995 -0.29752868 -0.058777697 4.5165139e-39
2.2932472 -0.28244293 -0.056678254 4.7920232e-39
2.3341794 -0.27623746 -0.052300647 4.7920218e-39
2.3010294 -0.2562871 -0.063508876 4.7923525e-39
2.3260589 -0.24800456 -0.064199664 4.7920035e-39
2.3490536 -0.24667667 -0.054665387 5.0689506e-39
2.3286374 -0.21803378 -0.07235337 4.9753256e-39
2.347008 -0.22505455 -0.062066704 5.0682261e-39
2.3275282 -0.2055615 -0.076363891 4.5150663e-39
2.3530903 -0.197124 -0.070052847 4.5150481e-39
2.3924382 -0.18547456 -0.070182554 4.7909063e-39
2.3850372 -0.17228745 -0.078242145 4.9742368e-39
2.4120171 -0.15772021 -0.085138142 5.3419501e-39
2.4416125 -0.13930343 -0.096174769 5.4337758e-39
2.4746611 -0.12371799 -0.096263915 5.9876657e-39
2.4847846 -0.10657299 -0.10751816 6.7248734e-39
2.5033791 -0.10059476 -0.10394772 1.1886383e-38
2.5211926 -0.090762265 -0.10321976 1.6215223e-38
2.4998183 -0.087150604 -0.11691913 1.2991615e-38
2.5256586 -0.071919858 -0.1171481 1.8242098e-38
2.5564616 -0.061560005 -0.11062045 1.9624305e-38
2.571245 -0.05278191 -0.12476663 1.9809056e-38
2.5890379 -0.041545764 -0.12790054 2.036115e-38
2.6066141 -0.034838278 -0.13563277 2.0729575e-38
2.4792793 -0.35997492 -0.064128369 4.7916742e-39
2.4640653 -0.33109841 -0.055208787 5.5295784e-39
2.4158154 -0.30281821 -0.045784183 5.2504986e-39
2.3889751 -0.27821931 -0.045276113 5.3433893e-39
2.3683197 -0.25051153 -0.04488527 5.1600658e-39
2.4015126 -0.24951138 -0.037234545 5.4334003e-39
2.3666224 -0.22101046 -0.050983384 5.1582623e-39
2.393889 -0.22145739 -0.040639047 5.1579092e-39
2.3949866 -0.19375274 -0.049520832 5.8025583e-39
2.4156907 -0.17814487 -0.045784183 1.2348033e-38
2.3958085 -0.17693172 -0.057827074 5.5320797e-39
2.4208 -0.16386975 -0.053043164 1.2070037e-38
2.4451022 -0.15450077 -0.063249953 1.0043187e-38
2.4013972 -0.13422886 -0.037234545 1.741197e-38
