# .PCD v0.7 - Point Cloud Data file format
VERSION 0.7
FIELDS x y z rgb
SIZE 4 4 4 4
TYPE F F F F
COUNT 1 1 1 1
WIDTH 1024
HEIGHT 1
VIEWPOINT 0 0 0 1 0 0 0
POINTS 1024
DATA ascii
5.214922 -4.7262297 -0.99002475 4.6097815e-40
5.2156215 -4.7056103 -0.99652213 1.8439126e-40
5.1989369 -4.7295561 -0.99162757 1.8439126e-40
5.5780969 -4.6923823 -0.95497888 1.8439126e-40
5.5629339 -4.6736879 -0.95079005 2.7658689e-40
5.5442748 -4.7204552 -0.95993483 3.6878252e-40
5.5463524 -4.6984558 -0.95545244 3.6878252e-40
5.5498323 -4.6776562 -0.95842588 2.7658689e-40
5.5302343 -4.76161 -0.95021552 3.6878252e-40
5.5281405 -4.7337766 -0.94896799 3.6878252e-40
5.5342474 -4.6993399 -0.94834793 2.7658689e-40
5.502099 -4.7650909 -0.94095534 2.7658689e-40
5.4708605 -4.771203 -0.94211286 3.6878252e-40
5.4511242 -4.7746935 -0.94095534 4.6097815e-40
5.4382505 -4.7584891 -0.94635707 2.7658689e-40
5.4177322 -4.7539387 -0.9562735 2.7658689e-40
5.317872 -4.6387215 -0.98093969 2.7658689e-40
5.2921205 -4.6851053 -0.9655059 2.7658689e-40
5.2904067 -4.6651449 -0.97304326 1.8439126e-40
5.2978082 -4.6405663 -0.97109222 1.8439126e-40
5.2727184 -4.6887598 -0.96550602 1.8439126e-40
5.2446995 -4.7145576 -0.95917064 2.7658689e-40
5.2508049 -4.6924124 -0.96308285 2.7658689e-40
5.2206511 -4.7213717 -0.97079098 3.6878252e-40
5.2078152 -4.6997175 -0.95904422 2.7658689e-40
5.1984215 -4.726819 -0.97720224 3.6878252e-40
5.1913004 -4.7044792 -0.96744442 2.7658689e-40
5.1727376 -4.6853929 -0.96327513 3.6878252e-40
5.5688505 -4.6588306 -0.93359071 1.8439126e-40
5.542882 -4.6930609 -0.92466605 2.7658689e-40
5.548007 -4.6650209 -0.93192506 2.7658689e-40
5.5481553 -4.6311588 -0.93642831 2.7658689e-40
5.5239458 -4.7536979 -0.90391469 6.4536941e-40
5.5243697 -4.7265263 -0.92379564 3.6878252e-40
5.529541 -4.6952019 -0.92277145 3.6878252e-40
5.5011063 -4.75982 -0.91317487 4.6097815e-40
5.4779358 -4.764185 -0.91317487 3.6878252e-40
5.4590912 -4.7493696 -0.91992593 3.6878252e-40
5.4408631 -4.7711687 -0.91317487 2.7658689e-40
5.433526 -4.7408834 -0.92255044 3.6878252e-40
5.4107037 -4.7354598 -0.90823102 2.7658689e-40
5.2893591 -4.659585 -0.94373864 2.7658689e-40
5.2909565 -4.6233373 -0.94606197 1.8439126e-40
5.2929807 -4.5920668 -0.95170522 2.7658689e-40
5.2716789 -4.6832428 -0.93642837 2.7658689e-40
5.2795825 -4.6614265 -0.94373864 2.7658689e-40
5.2755466 -4.6186132 -0.94878447 2.7658689e-40
5.2425766 -4.6887255 -0.93642837 2.7658689e-40
5.2059841 -4.714057 -0.91950095 2.7658689e-40
5.2134733 -4.6942077 -0.93642837 3.6878252e-40
5.1963592 -4.7158709 -0.91950095 2.7658689e-40
5.189395 -4.6996965 -0.94127458 2.7658689e-40
5.5642986 -4.6634293 -0.89988434 2.7658689e-40
5.5418663 -4.6876688 -0.89624774 2.7658689e-40
5.5468984 -4.6673326 -0.90306592 2.7658689e-40
5.5255179 -4.7493076 -0.88307929 3.6878252e-40
5.5269923 -4.7225914 -0.89093584 3.6878252e-40
5.5286608 -4.6905284 -0.89814228 2.7658689e-40
5.5047474 -4.7536755 -0.88539433 3.6878252e-40
5.4674277 -4.742301 -0.89194 2.7658689e-40
5.4351349 -4.7397113 -0.88999575 3.6878252e-40
5.4101992 -4.7327843 -0.89412999 4.6097815e-40
5.3993139 -4.7126622 -0.88677496 2.7658689e-40
5.3689246 -4.6795826 -0.90026712 3.6878252e-40
5.3237863 -4.6017275 -0.90909177 2.7658689e-40
5.3054395 -4.5848045 -0.9266901 2.7658689e-40
5.2896953 -4.6722317 -0.89765805 2.7658689e-40
5.288312 -4.6540246 -0.91443396 1.8439126e-40
5.2894449 -4.619206 -0.915892 1.8439126e-40
5.2920866 -4.5873203 -0.92669004 2.7658689e-40
5.2905197 -4.566257 -0.93403155 2.7658689e-40
5.2706399 -4.6777258 -0.90735072 2.7658689e-40
5.2787094 -4.6567926 -0.91931808 2.7658689e-40
5.2403598 -4.7025428 -0.89385587 2.7658689e-40
5.2443581 -4.6829486 -0.90873533 3.6878252e-40
5.2142057 -4.7108564 -0.90054715 3.6878252e-40
5.2223086 -4.6877832 -0.91219687 2.7658689e-40
5.5604715 -4.6494274 -0.87769639 1.8439126e-40
5.5405369 -4.7070165 -0.85278374 2.7658689e-40
5.5408506 -4.6822767 -0.86782944 3.6878252e-40
5.5447507 -4.6543512 -0.8744939 2.7658689e-40
5.544229 -4.6192031 -0.87181121 2.7658689e-40
5.5303588 -4.743165 -0.85645628 3.6878252e-40
5.5267448 -4.7173204 -0.85683817 3.6878252e-40
5.5317082 -4.6858602 -0.87730223 3.6878252e-40
5.5093813 -4.7477083 -0.85946584 2.7658689e-40
5.4879351 -4.7314119 -0.85618025 2.7658689e-40
5.4660864 -4.7299671 -0.86304533 3.6878252e-40
5.4383335 -4.7233295 -0.86243302 3.6878252e-40
5.4081173 -4.7072816 -0.86782944 3.6878252e-40
5.3884201 -4.6924992 -0.87920386 2.7658689e-40
5.3775187 -4.6722956 -0.87141651 2.7658689e-40
5.3662634 -4.6520944 -0.8685804 2.7658689e-40
5.3230772 -4.5979619 -0.88924551 2.7658689e-40
5.3050342 -4.5789833 -0.89667201 2.7658689e-40
5.2913408 -4.6676369 -0.87584984 1.8439126e-40
5.2874389 -4.6493912 -0.89001346 1.8439126e-40
5.2933946 -4.6217165 -0.88322657 1.8439126e-40
5.2910137 -4.581625 -0.89667201 2.7658689e-40
5.2718134 -4.6931534 -0.87622494 2.7658689e-40
5.2723227 -4.6714239 -0.87688833 1.8439126e-40
5.2397871 -4.699502 -0.87782776 2.7658689e-40
5.2432199 -4.6769061 -0.87688839 2.7658689e-40
5.2205367 -4.7031283 -0.87782776 2.7658689e-40
5.2111874 -4.6820707 -0.87245744 2.7658689e-40
5.1919932 -4.6868291 -0.87827295 2.7658689e-40
5.5587606 -4.6403451 -0.82982814 2.7658689e-40
5.5413227 -4.7025661 -0.83088481 2.7658689e-40
5.542995 -4.6762891 -0.8394112 2.7658689e-40
5.5448208 -4.6490412 -0.84314108 2.7658689e-40
5.5468855 -4.6155291 -0.85565692 1.8439126e-40
5.5210481 -4.7152886 -0.82696956 3.6878252e-40
5.5123606 -4.7431445 -0.83909345 2.7658689e-40
5.4920125 -4.7226763 -0.82734919 2.7658689e-40
5.4649649 -4.7272739 -0.82628077 4.6097815e-40
5.4336014 -4.7166343 -0.83436835 2.7658689e-40
5.4071016 -4.7018895 -0.8394112 2.7658689e-40
5.3768311 -4.6686459 -0.85218275 6.4536941e-40
5.3653975 -4.6474967 -0.84434903 2.7658689e-40
5.3063936 -4.5715189 -0.85998321 2.7658689e-40
5.2988114 -4.5547876 -0.88360506 2.7658689e-40
5.29284 -4.6813192 -0.83615458 2.7658689e-40
5.2938528 -4.6623077 -0.85113376 1.8439126e-40
5.288579 -4.6099844 -0.85581827 1.8439126e-40
5.2895832 -4.5740299 -0.85664791 2.7658689e-40
5.2834902 -4.5566831 -0.87856239 2.7658689e-40
5.2688918 -4.6864614 -0.83936018 2.7658689e-40
5.2663956 -4.6685276 -0.85646474 2.7658689e-40
5.2462039 -4.6894751 -0.83294898 5.5317378e-40
5.2347813 -4.6740074 -0.85404158 2.7658689e-40
5.2080469 -4.6985531 -0.84256583 3.6878252e-40
5.2115679 -4.6774282 -0.84919542 2.7658689e-40
5.1909537 -4.6813116 -0.8491953 3.6878252e-40
5.5633783 -4.6367965 -0.81033576 1.8439126e-40
5.5434351 -4.6901383 -0.80482334 2.7658689e-40
5.5520244 -4.6686325 -0.80909842 1.8439126e-40
5.5169268 -4.7040095 -0.80311781 2.7658689e-40
5.5134234 -4.6756563 -0.80783534 3.6878252e-40
5.5059061 -4.734354 -0.78816253 3.6878252e-40
5.4939704 -4.7189722 -0.79865372 3.6878252e-40
5.4657192 -4.7209139 -0.80063009 4.6097815e-40
5.4352336 -4.7105217 -0.80482334 3.6878252e-40
5.4155664 -4.6947117 -0.81099296 3.6878252e-40
5.4064245 -4.6982946 -0.82046568 2.7658689e-40
5.3955851 -4.6780224 -0.81239009 2.7658689e-40
5.364531 -4.6428995 -0.82011759 2.7658689e-40
5.3434801 -4.6244392 -0.81675184 2.7658689e-40
5.316761 -4.6011372 -0.82550138 1.8439126e-40
5.2917738 -4.6566057 -0.82011771 2.7658689e-40
5.2945967 -4.6336484 -0.81675184 2.7658689e-40
5.2947469 -4.6074791 -0.82744235 2.7658689e-40
5.2670355 -4.6856794 -0.81250298 2.7658689e-40
5.2747107 -4.6593442 -0.81769454 3.6878252e-40
5.243196 -4.6867356 -0.81611943 2.7658689e-40
5.2093163 -4.6721392 -0.82011777 2.7658689e-40
5.1900878 -4.6767139 -0.82496393 5.5317378e-40
5.1772771 -4.6557498 -0.81675184 1.8439126e-40
5.5704784 -4.6571531 -0.7683655 1.8439126e-40
5.5619106 -4.6420007 -0.78852808 2.7658689e-40
5.5454063 -4.6929498 -0.77306706 1.8439126e-40
5.554801 -4.6625261 -0.78068012 2.7658689e-40
5.5162807 -4.7031612 -0.76971382 3.6878252e-40
5.5096989 -4.6732559 -0.79204744 5.5317378e-40
5.4980445 -4.7308316 -0.7626971 2.7658689e-40
5.4942679 -4.7107716 -0.77478164 3.6878252e-40
5.4630928 -4.7192907 -0.77066785 2.7658689e-40
5.4303808 -4.7112236 -0.7735979 4.6097815e-40
5.4017968 -4.6911016 -0.77941704 2.7658689e-40
5.3848381 -4.6734838 -0.77898329 2.7658689e-40
5.3696127 -4.6567793 -0.78486454 2.7658689e-40
5.3537908 -4.6392097 -0.79104 4.6097815e-40
5.3431311 -4.6225863 -0.80698365 2.7658689e-40
5.3279424 -4.6225691 -0.79233128 2.7658689e-40
5.2874546 -4.6703677 -0.77524763 2.7658689e-40
5.2907348 -4.6510882 -0.79104006 2.7658689e-40
5.2938986 -4.6299419 -0.79721534 2.7658689e-40
5.2965765 -4.6069403 -0.79876113 2.7658689e-40
5.2718711 -4.6758227 -0.7880702 2.7658689e-40
5.2649231 -4.6562681 -0.79265553 1.8439126e-40
5.2448287 -4.6821766 -0.79448146 1.8439126e-40
5.2372065 -4.6602201 -0.78619379 2.7658689e-40
5.2082767 -4.6666222 -0.79104006 2.7658689e-40
5.1888752 -4.6702776 -0.79103994 2.7658689e-40
5.5834227 -4.6696768 -0.7390185 1.8439126e-40
5.5673466 -4.6535559 -0.74705178 1.8439126e-40
5.5444255 -4.6824336 -0.74737602 2.7658689e-40
5.5554104 -4.6553392 -0.74468362 1.8439126e-40
5.5142341 -4.692399 -0.74613148 2.7658689e-40
5.4962883 -4.7257547 -0.73517382 2.7658689e-40
5.4997725 -4.7087154 -0.75201058 4.6097815e-40
5.4609671 -4.7144222 -0.74384803 2.7658689e-40
5.4306335 -4.7133737 -0.7445944 2.7658689e-40
5.3910742 -4.6862974 -0.74468362 2.7658689e-40
5.3640823 -4.6586962 -0.75414956 2.7658689e-40
5.3432236 -4.6364393 -0.76680863 2.7658689e-40
5.3233023 -4.6373358 -0.75226974 2.7658689e-40
5.3174672 -4.6207037 -0.77279484 1.8439126e-40
5.295146 -4.6649036 -0.75481182 1.8439126e-40
5.2948923 -4.6464968 -0.7716549 2.7658689e-40
5.2968316 -4.6240158 -0.76986438 1.8439126e-40
5.2719879 -4.674571 -0.75166821 2.7658689e-40
5.2560887 -4.6538067 -0.7716549 2.7658689e-40
5.2479229 -4.6721468 -0.74639702 2.7658689e-40
5.233222 -4.6568451 -0.76519328 2.7658689e-40
5.204277 -4.7196264 -0.73521084 2.7658689e-40
5.2095938 -4.6803122 -0.75120544 2.7658689e-40
5.2100587 -4.6608458 -0.76334709 3.6878252e-40
5.1901717 -4.6830263 -0.74639702 2.7658689e-40
5.1840248 -4.6658592 -0.76390088 2.7658689e-40
5.577878 -4.6661034 -0.71551675 1.8439126e-40
5.5642142 -4.6499577 -0.72573811 1.8439126e-40
5.5436621 -4.6756186 -0.71606582 2.7658689e-40
5.5543947 -4.6499472 -0.71626538 2.7658689e-40
5.5193119 -4.7163639 -0.70945114 3.6878252e-40
5.5235939 -4.6904926 -0.71224469 2.7658689e-40
5.493824 -4.7211657 -0.70945114 3.6878252e-40
5.4613857 -4.7272763 -0.70945108 3.6878252e-40
5.4284134 -4.7148266 -0.71469605 2.7658689e-40
5.4043241 -4.7086239 -0.71277428 2.7658689e-40
5.3839073 -4.6829948 -0.72100174 7.3756504e-40
5.3666048 -4.6849518 -0.71437079 2.7658689e-40
5.3544726 -4.6698275 -0.73125917 2.7658689e-40
5.3303947 -4.6603193 -0.72307473 2.7658689e-40
5.3132548 -4.6373243 -0.74257725 2.7658689e-40
5.2978225 -4.6633353 -0.72595239 2.7658689e-40
5.3033805 -4.6382322 -0.73773098 2.7658689e-40
5.2751975 -4.6785197 -0.72293323 2.7658689e-40
5.2468915 -4.6666727 -0.71754634 1.8439126e-40
5.2295499 -4.6515703 -0.73482323 3.6878252e-40
5.2061982 -4.6555882 -0.73288476 3.6878252e-40
5.1829853 -4.6603422 -0.73482323 2.7658689e-40
5.1643581 -4.6409111 -0.72883785 3.6878252e-40
5.5864406 -4.6706324 -0.69402689 1.8439126e-40
5.5665846 -4.641695 -0.68595254 1.8439126e-40
5.5409331 -4.6703558 -0.68063486 2.7658689e-40
5.5510087 -4.6450014 -0.68784708 1.8439126e-40
5.5205531 -4.7102175 -0.67935556 2.7658689e-40
5.5208092 -4.6889472 -0.68914908 2.7658689e-40
5.4928312 -4.7158947 -0.68167061 3.6878252e-40
5.4614558 -4.7238832 -0.68111062 3.6878252e-40
5.4357882 -4.7272472 -0.68475729 2.7658689e-40
5.4288583 -4.7086339 -0.6836006 2.7658689e-40
5.4037809 -4.7110844 -0.68257636 4.6097815e-40
5.3693724 -4.697072 -0.6732136 2.7658689e-40
5.359189 -4.6820679 -0.69258344 2.7658689e-40
5.3319316 -4.6850319 -0.68153191 2.7658689e-40
5.3261652 -4.6640973 -0.69604981 2.7658689e-40
5.3114457 -4.6892014 -0.68311071 2.7658689e-40
5.3056841 -4.6733928 -0.70262468 1.8439126e-40
5.2729239 -4.6711206 -0.69481611 2.7658689e-40
5.2365789 -4.6648359 -0.69831264 2.7658689e-40
5.2003083 -4.6509848 -0.70380712 2.7658689e-40
5.1857572 -4.6537261 -0.703807 2.7658689e-40
5.567121 -4.6597066 -0.6515432 1.8439126e-40
5.5690393 -4.636487 -0.66179699 1.8439126e-40
5.571805 -4.6157579 -0.6644454 1.8439126e-40
5.5447164 -4.6983876 -0.64231485 2.7658689e-40
5.5486627 -4.6697073 -0.65309703 1.8439126e-40
5.5241113 -4.7036343 -0.64925998 3.6878252e-40
5.4907179 -4.7105546 -0.65246546 3.6878252e-40
5.4592342 -4.7158556 -0.64925998 3.6878252e-40
5.433217 -4.7203932 -0.64740795 4.6097815e-40
5.4110727 -4.7251105 -0.650186 2.7658689e-40
5.3996258 -4.7074208 -0.64939564 2.7658689e-40
5.3706665 -4.708746 -0.64947331 2.7658689e-40
5.3387504 -4.7067842 -0.65372413 2.7658689e-40
5.313591 -4.7026548 -0.64814514 2.7658689e-40
5.2997637 -4.6879897 -0.66574401 2.7658689e-40
5.2835112 -4.68857 -0.6531136 2.7658689e-40
5.2633657 -4.6694007 -0.66810375 2.7658689e-40
5.2372088 -4.6593642 -0.67106473 2.7658689e-40
5.2162971 -4.6629887 -0.66946191 2.7658689e-40
5.2021794 -4.6449194 -0.67472941 2.7658689e-40
5.1823792 -4.6491256 -0.67715251 2.7658689e-40
5.1624374 -4.6307173 -0.67511266 2.7658689e-40
5.5683575 -4.650043 -0.62464339 1.8439126e-40
5.5641017 -4.6319885 -0.63416815 1.8439126e-40
5.5711226 -4.6121364 -0.64535576 1.8439126e-40
5.5452628 -4.6936455 -0.6187014 3.6878252e-40
5.5484209 -4.662322 -0.62280983 1.8439126e-40
5.5215874 -4.7066941 -0.61615878 3.6878252e-40
5.4945545 -4.7188697 -0.61646694 4.6097815e-40
5.4634323 -4.7191429 -0.61433876 2.7658689e-40
5.4313593 -4.7168274 -0.61634266 2.7658689e-40
5.4050674 -4.7194328 -0.6155265 2.7658689e-40
5.3835993 -4.7219172 -0.60758924 2.7658689e-40
5.3703513 -4.7081242 -0.62490797 2.7658689e-40
5.3564568 -4.730669 -0.6261096 2.7658689e-40
5.3369379 -4.7094069 -0.62049687 3.6878252e-40
5.3036928 -4.7035098 -0.62542206 2.7658689e-40
5.287549 -4.7023277 -0.62150979 2.7658689e-40
5.2700796 -4.686758 -0.63101053 2.7658689e-40
5.2558718 -4.671525 -0.64535576 2.7658689e-40
5.2572689 -4.6882401 -0.62627417 2.7658689e-40
5.234118 -4.6697936 -0.63678545 2.7658689e-40
5.2154379 -4.6584272 -0.64541972 5.5317378e-40
5.1933794 -4.6408644 -0.6456517 3.6878252e-40
5.1836786 -4.6426916 -0.64565164 2.7658689e-40
5.5655689 -4.6258807 -0.60448682 1.8439126e-40
5.5503106 -4.6066809 -0.59763163 1.8439126e-40
5.5428133 -4.6882849 -0.58906889 2.7658689e-40
5.5438914 -4.6593323 -0.595716 1.8439126e-40
5.5465393 -4.6290932 -0.60259229 1.8439126e-40
5.5219598 -4.6922135 -0.58906889 4.6097815e-40
5.4958315 -4.709693 -0.58617133 2.7658689e-40
5.4667444 -4.7214503 -0.584714 2.7658689e-40
5.4292784 -4.7096734 -0.58906889 2.7658689e-40
5.4014735 -4.7149115 -0.58906889 2.7658689e-40
5.3829374 -4.7184033 -0.58906889 3.6878252e-40
5.3587222 -4.7041292 -0.59342384 2.7658689e-40
5.3488436 -4.7242193 -0.58598214 2.7658689e-40
5.3293781 -4.7108793 -0.59964293 2.7658689e-40
5.3273282 -4.728879 -0.58906889 1.8439126e-40
5.3057156 -4.7110224 -0.59275639 2.7658689e-40
5.2795315 -4.705832 -0.59649205 2.7658689e-40
5.2534423 -4.7022886 -0.58860737 2.7658689e-40
5.2471108 -4.6864319 -0.60732865 2.7658689e-40
5.2261887 -4.6714907 -0.61672127 2.7658689e-40
5.2206154 -4.6890969 -0.59548771 2.7658689e-40
5.2010527 -4.6653824 -0.61427701 2.7658689e-40
5.1732845 -4.640841 -0.6262666 3.6878252e-40
5.5682778 -4.6194143 -0.57417399 1.8439126e-40
5.5520167 -4.6026087 -0.57854199 1.8439126e-40
5.5413938 -4.6872334 -0.56231046 2.7658689e-40
5.5396914 -4.6522503 -0.56619304 1.8439126e-40
5.5445757 -4.6238794 -0.57417399 1.8439126e-40
5.5229774 -4.6968527 -0.55797696 2.7658689e-40
5.4907556 -4.7309828 -0.55603027 2.7658689e-40
5.4974184 -4.7060614 -0.55806857 3.6878252e-40
5.45684 -4.734982 -0.54386598 3.6878252e-40
5.4646091 -4.716435 -0.55713886 2.7658689e-40
5.4385777 -4.7384224 -0.54386598 2.7658689e-40
5.4312563 -4.7189054 -0.5627892 2.7658689e-40
5.4203157 -4.7418628 -0.54386598 3.6878252e-40
5.3999119 -4.7259283 -0.5577414 2.7658689e-40
5.3845367 -4.7664986 -0.5399996 3.6878252e-40
5.3687897 -4.7527647 -0.5499481 2.7658689e-40
5.374588 -4.7267723 -0.56101847 4.6097815e-40
5.3563976 -4.7539043 -0.54386598 3.6878252e-40
5.343606 -4.7349663 -0.56049126 2.7658689e-40
5.3177686 -4.7354641 -0.55328357 2.7658689e-40
5.3066201 -4.7098207 -0.57243443 2.7658689e-40
5.2832985 -4.7361927 -0.55066782 2.7658689e-40
5.2803607 -4.7141266 -0.5691694 2.7658689e-40
5.2611275 -4.7340732 -0.55202824 8.2976067e-40
5.2454348 -4.7040324 -0.5722236 2.7658689e-40
5.2334881 -4.7401896 -0.55665833 2.7658689e-40
5.2207732 -4.7123327 -0.56620753 2.7658689e-40
5.2130814 -4.6881895 -0.58364677 3.6878252e-40
5.5625215 -4.6149158 -0.54575568 1.8439126e-40
5.5383449 -4.6773009 -0.52887779 1.8439126e-40
5.5387678 -4.6492567 -0.53951901 1.8439126e-40
5.5445757 -4.6186686 -0.54765028 1.8439126e-40
5.521522 -4.6939888 -0.53087276 2.7658689e-40
5.483418 -4.7254944 -0.52105784 4.6097815e-40
5.492372 -4.7057867 -0.52956372 2.7658689e-40
5.4653192 -4.7298002 -0.52561939 2.7658689e-40
5.4743013 -4.7109976 -0.53875536 2.7658689e-40
5.4414167 -4.7528172 -0.52490228 1.8439126e-40
5.4409151 -4.7340989 -0.52409887 2.7658689e-40
5.4094453 -4.7399278 -0.523592 2.7658689e-40
5.3915048 -4.7265949 -0.53875536 3.6878252e-40
5.3768468 -4.7630529 -0.51508904 2.7658689e-40
5.374073 -4.7473478 -0.52744412 2.7658689e-40
5.3791289 -4.7283249 -0.5356915 2.7658689e-40
5.3455133 -4.752594 -0.5267598 2.7658689e-40
5.3203216 -4.7568913 -0.52447897 5.5317378e-40
5.3007956 -4.7598972 -0.52105784 2.7658689e-40
5.2821417 -4.7456493 -0.53087682 2.7658689e-40
5.2549973 -4.7426605 -0.53258669 2.7658689e-40
5.2304263 -4.7366724 -0.53582293 2.7658689e-40
5.2118359 -4.7198873 -0.5327878 2.7658689e-40
5.1831737 -4.7092996 -0.53933316 2.7658689e-40
5.1533055 -4.7137651 -0.55100459 2.7658689e-40
5.1480017 -4.6918888 -0.54007208 1.8439126e-40
5.5679564 -4.6368618 -0.50441951 1.8439126e-40
5.5616751 -4.6104221 -0.52207381 1.8439126e-40
5.5397515 -4.6720324 -0.50341231 1.8439126e-40
5.5448256 -4.6453247 -0.51212615 1.8439126e-40
5.5476232 -4.6140003 -0.52681023 1.8439126e-40
5.5217237 -4.6851807 -0.50293881 2.7658689e-40
5.4827662 -4.7220321 -0.50281131 2.7658689e-40
5.4930634 -4.6969576 -0.50351018 3.6878252e-40
5.4735799 -4.7408257 -0.49470761 2.7658689e-40
5.4643407 -4.7246065 -0.49824965 3.6878252e-40
5.4726586 -4.7022772 -0.49279684 2.7658689e-40
5.4284897 -4.7655115 -0.48217204 3.6878252e-40
5.4400997 -4.7297711 -0.50129074 3.6878252e-40
5.4206371 -4.7126799 -0.49586073 2.7658689e-40
5.4100518 -4.7524371 -0.49289596 4.6097815e-40
5.4060969 -4.7366543 -0.50372368 1.8439126e-40
5.4082613 -4.7144089 -0.49279684 3.6878252e-40
5.3756323 -4.759099 -0.49380177 4.6097815e-40
5.3823233 -4.7409539 -0.50281131 2.7658689e-40
5.341958 -4.7647314 -0.49017844 2.7658689e-40
5.3434348 -4.7478318 -0.50053054 2.7658689e-40
5.3283587 -4.767293 -0.49017844 1.8439126e-40
5.3147206 -4.7535105 -0.501899 2.7658689e-40
5.2967191 -4.7549896 -0.49216753 1.8439126e-40
5.2768373 -4.7415748 -0.50505251 2.7658689e-40
5.2567954 -4.7447486 -0.50198859 1.8439126e-40
5.2292681 -4.7305231 -0.50341231 2.7658689e-40
5.2111692 -4.7163472 -0.51413053 1.8439126e-40
5.1845527 -4.7030797 -0.51150692 2.7658689e-40
5.1521297 -4.7075224 -0.51810217 1.8439126e-40
5.1506653 -4.6869202 -0.51733744 2.7658689e-40
5.5733485 -4.6593356 -0.47100171 1.8439126e-40
5.5703316 -4.6419048 -0.47961459 1.8439126e-40
5.5402598 -4.6656342 -0.47133246 1.8439126e-40
5.5483322 -4.6457286 -0.47798207 1.8439126e-40
5.5184088 -4.680829 -0.471342 2.7658689e-40
5.4845052 -4.7145348 -0.46631828 2.7658689e-40
5.4920769 -4.6941042 -0.46981761 3.6878252e-40
5.4687233 -4.7349777 -0.46028572 3.6878252e-40
5.4631996 -4.7185483 -0.46631828 2.7658689e-40
5.4376392 -4.7410707 -0.46149352 3.6878252e-40
5.4360156 -4.7248216 -0.47218323 2.7658689e-40
5.409307 -4.7484841 -0.47206163 2.7658689e-40
5.4035211 -4.7279987 -0.45719501 2.7658689e-40
5.3781962 -4.7579622 -0.46334556 3.6878252e-40
5.380693 -4.7322989 -0.45719507 3.6878252e-40
5.34552 -4.7587214 -0.46300325 1.8439126e-40
5.3183212 -4.7638454 -0.46300325 1.8439126e-40
5.3118134 -4.7466831 -0.46436328 2.7658689e-40
5.2951698 -4.7655368 -0.44941565 2.7658689e-40
5.285224 -4.7525244 -0.46859908 3.6878252e-40
5.2618256 -4.7537956 -0.45263347 3.6878252e-40
5.2484875 -4.7403803 -0.47178727 2.7658689e-40
5.224782 -4.7334723 -0.47117034 2.7658689e-40
5.1820431 -4.7028699 -0.48090613 2.7658689e-40
5.1489935 -4.6994934 -0.47423229 2.7658689e-40
5.1424484 -4.6832571 -0.49081373 1.8439126e-40
5.1291075 -4.6853981 -0.48891917 1.8439126e-40
5.5911403 -4.6518903 -0.45016634 1.8439126e-40
5.5722728 -4.6536255 -0.44090617 1.8439126e-40
5.5474892 -4.6646457 -0.43982723 1.8439126e-40
5.5166807 -4.6736255 -0.43928781 2.7658689e-40
5.48032 -4.7090492 -0.43438697 4.6097815e-40
5.4890866 -4.6883469 -0.43764663 2.7658689e-40
5.4632897 -4.7323098 -0.43094856 2.7658689e-40
5.471189 -4.7107697 -0.43438697 3.6878252e-40
5.4706874 -4.6918135 -0.43764657 2.7658689e-40
5.4412007 -4.7350607 -0.43431833 9.219563e-40
5.4299359 -4.7176447 -0.42982534 2.7658689e-40
5.4154897 -4.7022119 -0.43764657 1.8439126e-40
5.4014306 -4.7237482 -0.43355751 2.7658689e-40
5.4066186 -4.705689 -0.44683829 2.7658689e-40
5.3715849 -4.7475815 -0.43129888 3.6878252e-40
5.3798776 -4.7279711 -0.43438697 3.6878252e-40
5.3432126 -4.7527041 -0.43016657 3.6878252e-40
5.3436794 -4.7365828 -0.4435102 3.6878252e-40
5.317317 -4.7598391 -0.42978057 4.6097815e-40
5.3162861 -4.7417436 -0.4435102 7.3756504e-40
5.2954936 -4.7622719 -0.43311056 3.6878252e-40
5.2725053 -4.7477503 -0.43210614 4.6097815e-40
5.2520418 -4.7520537 -0.43438691 3.6878252e-40
5.2185516 -4.7389507 -0.43580821 3.6878252e-40
5.1953673 -4.7246289 -0.44090617 3.6878252e-40
5.1809916 -4.7101192 -0.4534944 3.6878252e-40
5.1550941 -4.7020273 -0.44608799 5.5317378e-40
5.130456 -4.6959057 -0.43819627 3.6878252e-40
5.5700502 -4.6491055 -0.41577142 1.8439126e-40
5.5621285 -4.6291542 -0.40685126 1.8439126e-40
5.5424199 -4.7173295 -0.39365101 2.7658689e-40
5.5429335 -4.6900835 -0.39789397 2.7658689e-40
5.546741 -4.6670256 -0.41174003 1.8439126e-40
5.530612 -4.7177238 -0.40016139 4.6097815e-40
5.5157576 -4.6963987 -0.40397611 3.6878252e-40
5.5160284 -4.6796598 -0.41926315 3.6878252e-40
5.5062833 -4.7150879 -0.39506531 3.6878252e-40
5.4871683 -4.7023821 -0.40701714 4.6097815e-40
5.4884295 -4.6848593 -0.41926315 3.6878252e-40
5.4612761 -4.7253461 -0.40412369 4.6097815e-40
5.470211 -4.7055764 -0.4070172 5.5317378e-40
5.4352198 -4.7341118 -0.40001965 4.6097815e-40
5.424881 -4.7159081 -0.41614047 4.6097815e-40
5.4090643 -4.7347374 -0.4018591 3.6878252e-40
5.3973575 -4.720376 -0.41249114 7.3756504e-40
5.3770027 -4.7765179 -0.39387238 1.0141519e-39
5.3826208 -4.7537284 -0.40195358 7.3756504e-40
5.3790627 -4.7236438 -0.41157883 5.5317378e-40
5.3465271 -4.7605295 -0.40196174 7.3756504e-40
5.3142509 -4.7573457 -0.40228423 4.6097815e-40
5.3153076 -4.7365503 -0.41614047 3.6878252e-40
5.2905269 -4.7600985 -0.4037196 4.6097815e-40
5.2696519 -4.7451515 -0.41614047 3.6878252e-40
5.2705617 -4.7594943 -0.39506531 3.6878252e-40
5.2499633 -4.7472925 -0.40815756 5.5317378e-40
5.2328014 -4.7503009 -0.4070172 3.6878252e-40
5.2121115 -4.7351074 -0.41007143 3.6878252e-40
5.1888852 -4.7199373 -0.41081062 6.4536941e-40
5.1520925 -4.6959009 -0.41935542 5.5317378e-40
5.1297836 -4.6923385 -0.41939488 5.5317378e-40
5.1175947 -4.6763997 -0.43208262 2.7658689e-40
5.5684514 -4.6962571 -0.35883173 2.7658689e-40
5.5610313 -4.655302 -0.38855085 1.8439126e-40
5.5505967 -4.7129922 -0.3699201 3.6878252e-40
5.5583425 -4.6840444 -0.38192827 1.8439126e-40
5.5520816 -4.6483321 -0.39460534 1.8439126e-40
5.5291872 -4.7411237 -0.35964578 4.6097815e-40
5.5220394 -4.7277446 -0.37964574 4.6097815e-40
5.4962077 -4.7461672 -0.35369334 4.6097815e-40
5.4927263 -4.7244425 -0.3754248 7.3756504e-40
5.4670067 -4.7331161 -0.37148175 5.5317378e-40
5.4695587 -4.7021141 -0.38877073 5.5317378e-40
5.4361911 -4.7385769 -0.37026694 6.4536941e-40
5.398386 -4.7672267 -0.36708635 6.4536941e-40
5.4048433 -4.7448602 -0.37021354 8.2976067e-40
5.3796573 -4.7705154 -0.36586884 4.6097815e-40
5.3799472 -4.7552195 -0.38324317 4.6097815e-40
5.3576026 -4.7752857 -0.36899963 5.5317378e-40
5.3379626 -4.7599487 -0.36705479 4.6097815e-40
5.3138514 -4.7604856 -0.370406 4.6097815e-40
5.2899652 -4.7627225 -0.3707568 4.6097815e-40
5.2697525 -4.7551975 -0.37241933 4.6097815e-40
5.2455196 -4.742528 -0.3796474 5.5317378e-40
5.2256269 -4.7456779 -0.37660632 3.6878252e-40
5.2114544 -4.7316198 -0.39168802 5.5317378e-40
5.1964722 -4.7329969 -0.38433465 3.6878252e-40
5.1714249 -4.716404 -0.37608498 4.6097815e-40
5.1501269 -4.6997499 -0.38870576 3.6878252e-40
5.5759969 -4.7276273 -0.33583596 2.7658689e-40
5.5490284 -4.7318306 -0.33137164 4.6097815e-40
5.5528593 -4.7119818 -0.34083694 2.7658689e-40
5.5276041 -4.7382593 -0.3356382 4.6097815e-40
5.5043602 -4.7747345 -0.32228997 5.5317378e-40
5.5021935 -4.7524204 -0.33700231 4.6097815e-40
5.4716845 -4.752172 -0.32909197 5.5317378e-40
5.4625664 -4.7319984 -0.34427118 6.4536941e-40
5.4417915 -4.7520323 -0.33137164 9.219563e-40
5.439806 -4.7365217 -0.34547031 5.5317378e-40
5.4066067 -4.7680454 -0.33166161 5.5317378e-40
5.4053898 -4.7418442 -0.33956027 7.3756504e-40
5.3797922 -4.7706528 -0.33504447 5.5317378e-40
5.3540525 -4.7720375 -0.33549672 5.5317378e-40
5.3336549 -4.7568727 -0.34726903 4.6097815e-40
5.3299274 -4.7722292 -0.32690731 4.6097815e-40
5.3111525 -4.7546587 -0.3415513 8.2976067e-40
5.2839813 -4.7493191 -0.34031919 4.6097815e-40
5.2508101 -4.7543163 -0.34977335 6.4536941e-40
5.248879 -4.7352629 -0.34589139 5.5317378e-40
5.2215505 -4.7407694 -0.347716 6.4536941e-40
5.1998644 -4.7427635 -0.33707228 3.6878252e-40
5.1886744 -4.7286873 -0.35492116 5.5317378e-40
5.1670198 -4.7254848 -0.34649453 4.6097815e-40
5.146646 -4.6988716 -0.36331764 4.6097815e-40
5.1271033 -4.692317 -0.3639676 3.6878252e-40
5.5647726 -4.7564359 -0.28707972 3.6878252e-40
5.5545239 -4.7339711 -0.30684012 3.6878252e-40
5.557723 -4.7093601 -0.32028842 4.6097815e-40
5.5249023 -4.7661705 -0.2983973 5.5317378e-40
5.5334597 -4.7429104 -0.3095375 4.6097815e-40
5.5090637 -4.784729 -0.28799587 4.6097815e-40
5.5038209 -4.7718716 -0.30719987 5.5317378e-40
5.4752555 -4.7912126 -0.28857857 1.2907388e-39
5.4801846 -4.7755418 -0.30321774 1.1063476e-39
5.4642277 -4.7633758 -0.31566885 1.0141519e-39
5.4593825 -4.7935162 -0.28508201 5.5317378e-40
5.4459929 -4.7796774 -0.29148099 6.4536941e-40
5.4385719 -4.7606907 -0.30905226 5.5317378e-40
5.4062533 -4.7588968 -0.30849415 5.5317378e-40
5.3794317 -4.7741399 -0.30814043 5.5317378e-40
5.3574533 -4.7817488 -0.30680501 9.219563e-40
5.3215418 -4.7701406 -0.30823827 7.3756504e-40
5.297852 -4.7738867 -0.30458561 4.6097815e-40
5.2875767 -4.7596626 -0.31729057 9.219563e-40
5.2585812 -4.7457337 -0.31353977 3.6878252e-40
5.2455196 -4.7299805 -0.31578472 5.5317378e-40
5.2219925 -4.7508469 -0.30448139 3.6878252e-40
5.221591 -4.7347126 -0.31692508 8.2976067e-40
5.1930161 -4.739872 -0.31578463 4.6097815e-40
5.1574469 -4.722085 -0.31643173 4.6097815e-40
5.133028 -4.7163601 -0.3390443 1.1063476e-39
5.1219645 -4.6914368 -0.32818148 4.6097815e-40
5.6045065 -4.8453045 -0.25000182 2.7658689e-40
5.5970502 -4.8148823 -0.26208416 2.7658689e-40
5.5800862 -4.8091192 -0.25868601 2.7658689e-40
5.5593095 -4.7803106 -0.26884714 2.7658689e-40
5.5644584 -4.7547655 -0.27827713 2.7658689e-40
5.5475564 -4.7424536 -0.2890774 6.4536941e-40
5.5356226 -4.7750316 -0.26410285 3.6878252e-40
5.5292177 -4.761405 -0.27827713 3.6878252e-40
5.5342493 -4.7449598 -0.2890774 4.6097815e-40
5.5062771 -4.7860518 -0.26643488 5.5317378e-40
5.4798155 -4.8013272 -0.26596633 4.6097815e-40
5.4535379 -4.794291 -0.26548839 5.5317378e-40
5.4411159 -4.7780018 -0.27827713 5.5317378e-40
5.42345 -4.7951326 -0.25885808 4.6097815e-40
5.412168 -4.7817254 -0.26947457 8.2976067e-40
5.4075618 -4.7597837 -0.28103369 8.2976067e-40
5.3964357 -4.7829599 -0.260672 5.5317378e-40
5.3777599 -4.7720661 -0.27699032 6.4536941e-40
5.3550611 -4.7738233 -0.2760379 5.5317378e-40
5.3192353 -4.764595 -0.27779958 5.5317378e-40
5.2912455 -4.7682891 -0.26976374 4.6097815e-40
5.2803974 -4.7545366 -0.28431427 5.5317378e-40
5.2651381 -4.7721548 -0.26440656 4.6097815e-40
5.2541332 -4.7459421 -0.28320926 6.4536941e-40
5.2425847 -4.7269483 -0.29753822 3.6878252e-40
5.2228308 -4.7492285 -0.28348356 6.4536941e-40
5.2243223 -4.7303886 -0.29753822 4.6097815e-40
5.1905155 -4.7349653 -0.2884149 4.6097815e-40
5.1739383 -4.7389841 -0.29297659 4.6097815e-40
5.1581626 -4.7217941 -0.2905792 4.6097815e-40
5.1394205 -4.7189069 -0.29132345 4.6097815e-40
5.1199698 -4.6941223 -0.31356496 4.6097815e-40
5.5628467 -4.7844296 -0.24836409 2.7658689e-40
5.5368724 -4.7720485 -0.25011677 2.7658689e-40
5.5282736 -4.7563939 -0.25186944 2.7658689e-40
5.5015936 -4.7847042 -0.23885836 4.6097815e-40
5.5103388 -4.7580433 -0.24306688 6.4536941e-40
5.5013061 -4.7324367 -0.24122183 3.6878252e-40
5.4920363 -4.6892958 -0.25013104 2.7658689e-40
5.4828424 -4.8140659 -0.23282132 4.6097815e-40
5.476769 -4.7982087 -0.23596404 4.6097815e-40
5.4486651 -4.8019419 -0.23549011 5.5317378e-40
5.4283581 -4.8032408 -0.23309052 5.5317378e-40
5.4046164 -4.7779598 -0.24306688 5.5317378e-40
5.3954916 -4.7779493 -0.2342643 1.0141519e-39
5.3763447 -4.7662172 -0.24586625 5.5317378e-40
5.3507996 -4.770812 -0.24475828 7.3756504e-40
5.3230076 -4.7740154 -0.24496453 4.6097815e-40
5.2951798 -4.7772264 -0.24517065 5.5317378e-40
5.2645001 -4.7687664 -0.24654919 4.6097815e-40
5.2210507 -4.7413168 -0.255072 4.6097815e-40
5.1879945 -4.7447934 -0.24107265 4.6097815e-40
5.1884041 -4.7297297 -0.25974184 4.6097815e-40
5.1698618 -4.748209 -0.24107265 4.6097815e-40
5.1636252 -4.7344294 -0.25990474 3.6878252e-40
5.1519856 -4.719346 -0.27219579 3.6878252e-40
5.1454039 -4.7380862 -0.26104522 4.6097815e-40
5.5004649 -4.8032951 -0.19489858 4.6097815e-40
5.4966002 -4.7773981 -0.20884186 4.6097815e-40
5.5008993 -4.7563629 -0.22546174 3.6878252e-40
5.4824839 -4.7224388 -0.21976317 3.6878252e-40
5.4734721 -4.6726975 -0.24279872 2.7658689e-40
5.4633722 -4.6359339 -0.2464426 2.7658689e-40
5.4629269 -4.6157684 -0.24360022 1.8439126e-40
5.4819283 -4.8142624 -0.20225453 4.6097815e-40
5.4747305 -4.7942076 -0.21364386 1.1063476e-39
5.4591231 -4.6718159 -0.22455224 2.7658689e-40
5.4489737 -4.6359177 -0.23255236 2.7658689e-40
5.4481277 -4.6060753 -0.23282631 1.8439126e-40
5.4533286 -4.8138685 -0.20351741 4.6097815e-40
5.4191251 -4.7972002 -0.20545278 6.4536941e-40
5.3950162 -4.7884674 -0.19766887 4.6097815e-40
5.3859892 -4.7759347 -0.21489866 4.6097815e-40
5.3675923 -4.762424 -0.21816684 5.5317378e-40
5.343811 -4.7820644 -0.20565596 7.3756504e-40
5.3498492 -4.7657666 -0.21816684 5.5317378e-40
5.3268986 -4.7851067 -0.20492241 5.5317378e-40
5.3212547 -4.7724595 -0.2248147 6.4536941e-40
5.2966204 -4.775794 -0.21816684 5.5317378e-40
5.2635427 -4.7636843 -0.21976314 4.6097815e-40
5.2252173 -4.7444153 -0.22209066 4.6097815e-40
5.1944242 -4.7397685 -0.22166182 4.6097815e-40
5.1904068 -4.7260227 -0.24279872 3.6878252e-40
5.1668911 -4.7507343 -0.21942592 4.6097815e-40
5.1670899 -4.7277269 -0.22911385 4.6097815e-40
5.1445885 -4.7337584 -0.2382371 4.6097815e-40
5.4909935 -4.7796736 -0.18515161 4.6097815e-40
5.4617171 -4.6271486 -0.20014174 1.8439126e-40
5.480742 -4.8112631 -0.17902884 4.6097815e-40
5.4818702 -4.77911 -0.17353736 4.6097815e-40
5.463335 -4.7190294 -0.18404846 3.6878252e-40
5.4442849 -4.6683373 -0.19262084 2.7658689e-40
5.4418411 -4.6347351 -0.20299324 1.8439126e-40
5.4470243 -4.6073055 -0.21542393 1.8439126e-40
5.4487753 -4.8408604 -0.16246013 3.6878252e-40
5.4486713 -4.8126597 -0.17342217 5.5317378e-40
5.4558039 -4.7892466 -0.17024356 3.6878252e-40
5.4235106 -4.81845 -0.17011134 4.6097815e-40
5.4084878 -4.8007183 -0.18326364 4.6097815e-40
5.3879795 -4.7902746 -0.17770064 6.4536941e-40
5.3703198 -4.7734675 -0.18731728 4.6097815e-40
5.3542061 -4.7941151 -0.17831799 6.4536941e-40
5.3542728 -4.7770672 -0.19025145 5.5317378e-40
5.3536515 -4.7615671 -0.20043916 6.4536941e-40
5.3292232 -4.8037291 -0.17863548 4.6097815e-40
5.3037782 -4.8010759 -0.17435873 9.219563e-40
5.292366 -4.7874327 -0.18364953 4.6097815e-40
5.2870097 -4.7735415 -0.19748455 4.6097815e-40
5.2587352 -4.7648315 -0.1938614 4.6097815e-40
5.2402439 -4.7628107 -0.19297713 5.5317378e-40
5.2156739 -4.7490597 -0.19437891 4.6097815e-40
5.1863756 -4.7361999 -0.19578066 3.6878252e-40
5.1687531 -4.7762785 -0.19297713 2.7658689e-40
5.1619849 -4.7449446 -0.19316563 5.5317378e-40
5.1615462 -4.7233939 -0.20174411 1.0141519e-39
5.4613862 -4.625392 -0.19088158 3.6878252e-40
5.4793868 -4.8316822 -0.124 4.6097815e-40
5.4742947 -4.8036118 -0.13765444 4.6097815e-40
5.4764028 -4.7762032 -0.15120295 3.6878252e-40
5.4625902 -4.7150764 -0.16321486 2.7658689e-40
5.4529223 -4.6972976 -0.15840478 2.7658689e-40
5.44347 -4.66401 -0.16981271 1.8439126e-40
5.4445953 -4.6304507 -0.1782591 1.8439126e-40
5.455102 -4.8424439 -0.13438533 7.3756504e-40
5.457469 -4.8150253 -0.14585556 4.6097815e-40
5.4553385 -4.7867761 -0.15722348 1.0141519e-39
5.4287791 -4.8449373 -0.13238734 5.5317378e-40
5.417264 -4.8260441 -0.1465086 8.2976067e-40
5.4048719 -4.8416162 -0.12421059 5.5317378e-40
5.3915644 -4.8183365 -0.14292035 4.6097815e-40
5.382648 -4.7949557 -0.15905018 7.3756504e-40
5.3646016 -4.8170366 -0.13456696 4.6097815e-40
5.3595672 -4.8024111 -0.15493909 4.6097815e-40
5.3285465 -4.8064651 -0.14781931 5.5317378e-40
5.2988653 -4.8054194 -0.14692053 5.5317378e-40
5.278285 -4.7853289 -0.15944248 5.5317378e-40
5.2703447 -4.7999315 -0.13647971 5.5317378e-40
5.2661715 -4.7855935 -0.14917281 4.6097815e-40
5.2526073 -4.7675018 -0.1654079 5.5317378e-40
5.2293901 -4.7604723 -0.16011895 3.6878252e-40
5.2103696 -4.7456417 -0.17189507 3.6878252e-40
5.1943521 -4.744638 -0.1649919 4.6097815e-40
5.1638317 -4.7348852 -0.16747321 3.6878252e-40
5.1444445 -4.7378702 -0.16407631 3.6878252e-40
5.1424685 -4.7225065 -0.17893596 4.6097815e-40
5.4978437 -4.8207617 -0.10721081 4.6097815e-40
5.4971347 -4.8025875 -0.10370284 3.6878252e-40
5.4885297 -4.7655239 -0.11674854 2.7658689e-40
5.4952383 -4.8530331 -0.10016678 3.6878252e-40
5.4849052 -4.8400068 -0.10835975 4.6097815e-40
5.4892569 -4.7967682 -0.12279438 3.6878252e-40
5.4801326 -4.74298 -0.13743608 2.7658689e-40
5.4708815 -4.7255507 -0.12952863 1.8439126e-40
5.4426546 -4.6596823 -0.14700459 1.8439126e-40
5.4442816 -4.6260891 -0.14796413 1.8439126e-40
5.440752 -4.6007009 -0.14564963 1.8439126e-40
5.4537621 -4.8418531 -0.10665158 4.6097815e-40
5.4322462 -4.6394596 -0.13432014 2.7658689e-40
5.4388933 -4.8614511 -0.088987246 4.6097815e-40
5.4303856 -4.8499088 -0.10648366 6.4536941e-40
5.4042645 -4.8383904 -0.10721081 6.4536941e-40
5.3830914 -4.8251929 -0.10941019 3.6878252e-40
5.3587942 -4.8158808 -0.11467683 4.6097815e-40
5.3306165 -4.8228445 -0.10852277 7.3756504e-40
5.3220778 -4.8052292 -0.12337127 7.3756504e-40
5.3078575 -4.8291788 -0.099757008 4.6097815e-40
5.2932224 -4.8096418 -0.11816327 4.6097815e-40
5.2703466 -4.8031378 -0.11692758 6.4536941e-40
5.2507534 -4.7844629 -0.12863351 7.3756504e-40
5.2224264 -4.7620535 -0.13134575 5.5317378e-40
5.1930094 -4.7576752 -0.12154774 5.5317378e-40
5.1880269 -4.7424884 -0.13442205 5.5317378e-40
5.1661997 -4.7627258 -0.12154774 3.6878252e-40
5.1642909 -4.7392206 -0.13572176 2.7658689e-40
5.1504583 -4.7147279 -0.14700459 3.6878252e-40
5.145155 -4.7444172 -0.13478121 3.6878252e-40
5.1367617 -4.717308 -0.14700459 4.6097815e-40
5.4970841 -4.8167295 -0.085961051 4.6097815e-40
5.4880719 -4.7695246 -0.10080312 2.7658689e-40
5.4831696 -4.832099 -0.076994218 5.5317378e-40
5.4878235 -4.7891583 -0.082688615 2.7658689e-40
5.4785509 -4.7562428 -0.083855934 2.7658689e-40
5.4506721 -4.6853528 -0.095450006 2.7658689e-40
5.4357967 -4.6209893 -0.11888227 1.8439126e-40
5.4550347 -4.8548803 -0.071020268 5.5317378e-40
5.4558477 -4.8399286 -0.080101632 5.5317378e-40
5.432056 -4.6536131 -0.10595 2.7658689e-40
5.4282813 -4.6300879 -0.11622456 1.8439126e-40
5.4379945 -4.8566785 -0.06383346 1.0141519e-39
5.4217248 -4.8457346 -0.076935813 7.3756504e-40
5.3951354 -4.8446093 -0.073843755 5.5317378e-40
5.3810005 -4.8219423 -0.090861075 4.6097815e-40
5.3662519 -4.8410645 -0.070304759 5.5317378e-40
5.3577428 -4.8256512 -0.087436616 8.2976067e-40
5.3431945 -4.8415451 -0.064711295 5.5317378e-40
5.3335676 -4.8291965 -0.082299866 5.5317378e-40
5.3034849 -4.8275433 -0.082552642 6.4536941e-40
5.2804956 -4.8210273 -0.074235335 5.5317378e-40
5.2684526 -4.8056917 -0.09224081 4.6097815e-40
5.2377481 -4.779995 -0.093423255 6.4536941e-40
5.2210059 -4.7632117 -0.10535765 4.6097815e-40
5.1985207 -4.7575407 -0.10241035 3.6878252e-40
5.1594019 -4.7642541 -0.099070102 3.6878252e-40
5.1595612 -4.7361689 -0.10208912 5.5317378e-40
5.1475296 -4.761858 -0.099226028 4.6097815e-40
5.1452708 -4.7464199 -0.11343712 1.3829344e-39
5.4879236 -4.7494736 -0.052413378 1.8439126e-40
5.4861107 -4.7262888 -0.058212969 2.7658689e-40
5.478075 -4.8245234 -0.048323441 5.5317378e-40
5.4798317 -4.7889814 -0.051620755 3.6878252e-40
5.4778295 -4.7589722 -0.059689406 2.7658689e-40
5.4733677 -4.7312837 -0.071416818 1.8439126e-40
5.4498239 -4.6727028 -0.077726051 1.8439126e-40
5.4406981 -4.6492958 -0.092265062 1.8439126e-40
5.4398031 -4.6290064 -0.088361554 1.8439126e-40
5.4540286 -4.8495393 -0.042871989 6.4536941e-40
5.4620714 -4.8323288 -0.047387853 7.3756504e-40
5.4318004 -4.8545508 -0.047064286 5.5317378e-40
5.4185305 -4.8400574 -0.044975854 6.4536941e-40
5.394475 -4.8450632 -0.047387913 6.4536941e-40
5.3674064 -4.8499966 -0.046543706 5.5317378e-40
5.3376603 -4.8422198 -0.045958284 6.4536941e-40
5.324234 -4.8267493 -0.060897041 1.9361082e-39
5.316761 -4.8415151 -0.039211601 5.5317378e-40
5.3044958 -4.8290157 -0.053503234 6.4536941e-40
5.2776461 -4.8177543 -0.054843009 8.2976067e-40
5.2559762 -4.8011951 -0.061874744 6.4536941e-40
5.2310877 -4.776926 -0.071416818 7.3756504e-40
5.2199459 -4.7588921 -0.058618046 4.6097815e-40
5.196208 -4.7514048 -0.068960138 4.6097815e-40
5.1613827 -4.7632608 -0.072176881 5.5317378e-40
5.1587973 -4.7244425 -0.077846184 3.6878252e-40
5.1423507 -4.7284217 -0.075999469 4.6097815e-40
5.4854259 -4.7458344 -0.031495426 2.7658689e-40
5.4854817 -4.7229486 -0.040607844 2.7658689e-40
5.4708128 -4.8146734 -0.022171125 6.4536941e-40
5.4728441 -4.7812624 -0.024620682 2.7658689e-40
5.476819 -4.7536077 -0.03141797 1.8439126e-40
5.4668455 -4.6885462 -0.032260939 2.7658689e-40
5.4539914 -4.843575 -0.012477865 8.2976067e-40
5.460885 -4.821228 -0.017880643 4.6097815e-40
5.4249072 -4.8487105 -0.010731017 6.4536941e-40
5.4216342 -4.8344178 -0.019247128 7.3756504e-40
5.3997316 -4.8534532 -0.010731076 6.4536941e-40
5.3964872 -4.840261 -0.024875302 6.4536941e-40
5.3771534 -4.8566089 -0.0051412927 6.4536941e-40
5.3635941 -4.8452415 -0.018684244 6.4536941e-40
5.3359542 -4.8481684 -0.016456153 6.4536941e-40
5.3161535 -4.8382893 -0.022211786 6.4536941e-40
5.2928667 -4.8250895 -0.022371823 9.219563e-40
5.270175 -4.8136582 -0.026831914 5.5317378e-40
5.2511811 -4.8013611 -0.035702661 5.5317378e-40
5.2400365 -4.7833147 -0.02284262 1.8439126e-39
5.1939259 -4.7479129 -0.041089904 9.219563e-40
5.1724234 -4.7466421 -0.045653962 4.6097815e-40
5.1547008 -4.7305079 -0.041488845 4.6097815e-40
5.1353931 -4.7276974 -0.049362849 4.6097815e-40
5.5012665 -4.77742 0.020433882 2.7658689e-40
5.4879417 -4.7432356 -0.0027457757 1.8439126e-40
5.4709549 -4.8027258 0.01037113 3.6878252e-40
5.4752064 -4.7768941 0.0058968985 1.8439126e-40
5.4717827 -4.7546864 -0.0096625006 1.8439126e-40
5.4665265 -4.6868515 -0.023332257 3.6878252e-40
5.451931 -4.8384032 0.015820116 4.6097815e-40
5.4567919 -4.8078794 0.011784048 5.5317378e-40
5.4267554 -4.8431463 0.015820146 6.4536941e-40
5.4177113 -4.8290753 0.011707834 5.5317378e-40
5.3945136 -4.8494101 0.014852718 6.4536941e-40
5.4006615 -4.8314581 0.01592898 5.5317378e-40
5.3679714 -4.8539953 0.016963553 6.4536941e-40
5.3588667 -4.8418198 0.0032656011 3.6878252e-40
5.3332162 -4.8449926 0.011707803 6.4536941e-40
5.3068285 -4.8373537 0.0083718374 4.6097815e-40
5.2875624 -4.8204818 0.0061652837 5.5317378e-40
5.2764435 -4.8181524 0.0075833467 7.3756504e-40
5.2497849 -4.7939496 0.0033575508 4.6097815e-40
5.229043 -4.7660694 -0.014200123 4.6097815e-40
5.200695 -4.7453275 -0.011811282 5.5317378e-40
5.158958 -4.7188282 -0.013253344 5.5317378e-40
5.1441784 -4.7440691 -0.0054749222 4.6097815e-40
5.1313715 -4.71208 -0.020274339 4.6097815e-40
5.1186628 -4.6965194 -0.02384074 4.6097815e-40
5.1004004 -4.6999598 -0.02384074 3.6878252e-40
5.4701953 -4.7986937 0.031620856 2.7658689e-40
5.4735727 -4.765976 0.034898844 1.8439126e-40
5.4510617 -4.8337898 0.040135521 6.4536941e-40
5.451087 -4.8058023 0.041893348 4.6097815e-40
5.4575052 -4.7806177 0.046117399 1.8439126e-40
5.4215107 -4.8383684 0.045166314 9.219563e-40
5.4213758 -4.8219872 0.044270791 9.219563e-40
5.3986993 -4.8428488 0.044234704 8.2976067e-40
5.3885403 -4.829042 0.039848678 5.5317378e-40
5.3671136 -4.8494396 0.040974051 5.5317378e-40
5.3612804 -4.8314128 0.053919114 4.6097815e-40
5.3474827 -4.8528633 0.042371422 1.4751301e-39
5.3311791 -4.8399858 0.039145131 5.5317378e-40
5.3056717 -4.8294091 0.03303754 4.6097815e-40
5.2892966 -4.8139877 0.037556216 1.1985432e-39
5.274075 -4.8057637 0.037744015 5.5317378e-40
5.2490091 -4.7898321 0.025057735 5.5317378e-40
5.2378492 -4.7717052 0.038346551 6.4536941e-40
5.1944456 -4.7365627 0.020136962 5.5317378e-40
5.1524763 -4.7389975 0.012382442 5.5317378e-40
5.1570525 -4.7150154 0.011370585 5.5317378e-40
5.1378069 -4.7026362 0.021620678 3.6878252e-40
5.4917674 -4.7885065 0.062787235 1.8439126e-40
5.462923 -4.7598085 0.062434338 1.8439126e-40
5.4477634 -4.8048301 0.067932539 4.6097815e-40
5.4498835 -4.7716846 0.065133832 1.8439126e-40
5.4193125 -4.8343897 0.067525215 1.6595213e-39
5.4230762 -4.8162694 0.071741536 6.4536941e-40
5.404727 -4.8369179 0.06864319 5.5317378e-40
5.3838382 -4.823431 0.072914243 4.6097815e-40
5.3594027 -4.8219428 0.070158593 5.5317378e-40
5.3311706 -4.8210497 0.072235957 4.6097815e-40
5.3134193 -4.8237743 0.054287296 3.6878252e-40
5.2915182 -4.7981877 0.065207489 8.2976067e-40
5.2758746 -4.7964973 0.055046763 3.6878252e-40
5.2556372 -4.7737732 0.055602983 6.4536941e-40
5.2353358 -4.7510481 0.056220442 4.6097815e-40
5.2103214 -4.729568 0.052386858 5.5317378e-40
5.1938272 -4.7310147 0.045015275 5.5317378e-40
5.1541862 -4.7049012 0.041859854 4.6097815e-40
5.1374831 -4.7009172 0.030679107 1.0141519e-39
5.1253481 -4.6818166 0.044583637 5.5317378e-40
5.4561014 -4.7574654 0.080903158 2.7658689e-40
5.4400783 -4.8015842 0.087987512 4.6097815e-40
5.4453435 -4.7711644 0.084792234 2.7658689e-40
5.4193883 -4.7254839 0.099535748 2.7658689e-40
5.417594 -4.8108311 0.090611532 7.3756504e-40
5.4125905 -4.7706313 0.097812526 1.0141519e-39
5.4157791 -4.7439194 0.09883827 5.5317378e-40
5.3921757 -4.8153434 0.092018619 6.4536941e-40
5.369678 -4.7853889 0.10604541 5.5317378e-40
5.3589177 -4.8081055 0.090411864 6.4536941e-40
5.3505516 -4.7898331 0.10176481 4.6097815e-40
5.3307981 -4.8131528 0.091686867 1.1985432e-39
5.3290539 -4.7934618 0.10390508 6.4536941e-40
5.2953711 -4.7944012 0.089222491 6.4536941e-40
5.2584472 -4.7628179 0.086249366 8.2976067e-40
5.2172246 -4.7264481 0.077475227 5.5317378e-40
5.1952434 -4.7204151 0.065954506 5.5317378e-40
5.1836071 -4.7025328 0.073178783 6.4536941e-40
5.1566677 -4.690629 0.064648069 4.6097815e-40
5.142632 -4.6731834 0.071953401 8.2976067e-40
5.1306205 -4.676342 0.067391768 3.6878252e-40
5.1122303 -4.6600161 0.067897521 2.7658689e-40
5.3932896 -4.7375669 0.10789762 1.5673257e-39
5.382484 -4.6951833 0.10979455 5.5317378e-40
5.3775659 -4.7694044 0.10950384 5.5317378e-40
5.3668237 -4.7408414 0.11660836 8.2976067e-40
5.3696909 -4.7136316 0.11783839 3.6878252e-40
5.3732958 -4.6951733 0.11865839 3.6878252e-40
5.370779 -4.6503563 0.11180292 2.7658689e-40
5.3514571 -4.7734137 0.11694773 5.5317378e-40
5.3577943 -4.7408314 0.12531903 6.4536941e-40
5.3341017 -4.773675 0.11537836 5.5317378e-40
5.3164954 -4.7546306 0.12158268 5.5317378e-40
5.2955918 -4.7826233 0.10675956 1.0141519e-39
5.2882032 -4.7547932 0.12097894 7.3756504e-40
5.2721243 -4.7692766 0.10751829 4.6097815e-40
5.2451949 -4.7388144 0.10903583 1.0141519e-39
5.2154932 -4.7190828 0.10757851 6.4536941e-40
5.1917329 -4.7140598 0.10166924 5.5317378e-40
5.1738825 -4.7003889 0.093414202 5.5317378e-40
5.158206 -4.6863351 0.085029453 4.6097815e-40
5.1418171 -4.6688557 0.094761528 4.6097815e-40
5.4622631 -4.7427578 0.14985356 1.8439126e-40
5.4385109 -4.7246027 0.14546652 1.8439126e-40
5.3893814 -4.672368 0.14018303 2.7658689e-40
5.379787 -4.6554155 0.12489157 1.8439126e-40
5.3684325 -4.7069511 0.15304865 5.5317378e-40
5.3640804 -4.6860113 0.13456425 6.4536941e-40
5.3672762 -4.6506138 0.12967771 2.7658689e-40
5.3415294 -4.7397161 0.13762042 4.6097815e-40
5.3396106 -4.7137642 0.1460066 6.4536941e-40
5.3460474 -4.6968231 0.13638601 8.2976067e-40
5.3165412 -4.7439232 0.1341868 6.4536941e-40
5.3095303 -4.7187386 0.14952762 4.6097815e-40
5.2794151 -4.7252922 0.14504628 8.2976067e-40
5.253397 -4.7306972 0.14248557 6.4536941e-40
5.2426529 -4.7168818 0.13343143 4.6097815e-40
5.2215457 -4.7173128 0.12773925 6.4536941e-40
5.1933289 -4.7102509 0.1195266 7.3756504e-40
5.4254293 -4.7094612 0.1752938 2.7658689e-40
5.4264326 -4.6919889 0.17358798 1.8439126e-40
5.3996143 -4.724966 0.17819631 3.6878252e-40
5.4009986 -4.6982217 0.16625249 2.7658689e-40
5.3957582 -4.6802835 0.15933977 1.8439126e-40
5.3735132 -4.7284632 0.17319411 4.6097815e-40
5.3813329 -4.7027912 0.16185121 6.4536941e-40
5.3468847 -4.7298059 0.18292831 4.6097815e-40
5.3369675 -4.7094193 0.17065378 9.219563e-40
5.3319483 -4.6951256 0.15854557 9.219563e-40
5.3200264 -4.7270279 0.18694888 5.5317378e-40
5.3104582 -4.7139807 0.17285438 5.5317378e-40
5.3095322 -4.6980419 0.16519341 4.6097815e-40
5.2932315 -4.719388 0.16185121 6.4536941e-40
5.2793136 -4.7022114 0.17294927 4.6097815e-40
5.2506442 -4.6988144 0.17025401 5.5317378e-40
5.4539881 -4.7005672 0.21111345 2.7658689e-40
5.4461508 -4.6836624 0.19706146 1.8439126e-40
5.4269476 -4.7060051 0.20936523 1.8439126e-40
5.4283733 -4.6861467 0.20146275 1.8439126e-40
5.4207435 -4.6659937 0.19003129 1.8439126e-40
5.4058003 -4.7451553 0.21590678 1.8439126e-40
5.4076557 -4.7246742 0.20457709 2.7658689e-40
5.4062471 -4.6750336 0.18956892 2.7658689e-40
5.3804607 -4.7482605 0.21326613 3.6878252e-40
5.3732724 -4.7331676 0.19431891 3.6878252e-40
5.3562837 -4.749176 0.218804 7.3756504e-40
5.3438168 -4.7348342 0.20411575 5.5317378e-40
5.3181939 -4.7287655 0.20975088 4.6097815e-40
5.3006258 -4.7102127 0.20146275 6.4536941e-40
5.2863588 -4.7286472 0.21098752 4.6097815e-40
5.2828479 -4.712697 0.20586403 4.6097815e-40
5.2774525 -4.6984253 0.19400081 4.6097815e-40
5.2665958 -4.7319412 0.21317281 3.6878252e-40
5.2503514 -4.6854744 0.190956 4.6097815e-40
5.2335162 -4.6706018 0.18784632 7.3756504e-40
5.4540715 -4.6931882 0.23065533 1.8439126e-40
5.4250679 -4.7497234 0.23446271 2.7658689e-40
5.4297476 -4.7058849 0.23419346 1.8439126e-40
5.410037 -4.7677197 0.24695165 1.8439126e-40
5.4128881 -4.7444191 0.2414901 1.8439126e-40
5.4151587 -4.7167501 0.23771915 1.8439126e-40
5.3915038 -4.7706547 0.24978498 2.7658689e-40
5.3764048 -4.7533689 0.23955256 2.7658689e-40
5.3491058 -4.7520237 0.23932667 3.6878252e-40
5.3263998 -4.7485971 0.25040627 3.6878252e-40
5.3140159 -4.7326021 0.23159787 6.4536941e-40
5.2863445 -4.73069 0.23321275 6.4536941e-40
5.2659707 -4.7286239 0.23065539 3.6878252e-40
5.4576421 -4.7182283 0.27913558 1.8439126e-40
5.4545832 -4.6964083 0.26359493 1.8439126e-40
5.448668 -4.6728115 0.2498769 2.7658689e-40
5.4329634 -4.7638159 0.28704333 2.7658689e-40
5.4285345 -4.7308278 0.27667665 1.8439126e-40
5.4315248 -4.7025595 0.25976354 1.8439126e-40
5.4091525 -4.7646465 0.27878782 1.8439126e-40
5.4109659 -4.7431116 0.26757246 1.8439126e-40
5.414228 -4.7118092 0.26375932 1.8439126e-40
5.3834372 -4.7730064 0.28172073 3.6878252e-40
5.3733501 -4.752552 0.26965868 1.8439126e-40
5.349966 -4.7809811 0.28769499 3.6878252e-40
5.3443613 -4.7518063 0.27311555 3.6878252e-40
5.3245997 -4.7804041 0.28541395 3.6878252e-40
5.317555 -4.7497015 0.27014336 4.6097815e-40
5.3016 -4.7347317 0.25507924 7.3756504e-40
5.2937436 -4.7491045 0.27913564 4.6097815e-40
