# .PCD v0.7 - Point Cloud Data file format
VERSION 0.7
FIELDS x y z rgb
SIZE 4 4 4 4
TYPE F F F F
COUNT 1 1 1 1
WIDTH 1010
HEIGHT 1
VIEWPOINT 0 0 0 1 0 0 0
POINTS 1010
DATA ascii
2.4202416 -0.97979945 -1.3475472 8.2915096e-39
2.4369416 -0.97252768 -1.3660638 7.8319734e-39
2.4562645 -0.9603616 -1.378762 8.5695329e-39
2.4391084 -0.95262825 -1.3580669 8.1996657e-39
2.4609926 -0.94109446 -1.3702484 8.2007517e-39
2.5038488 -0.93505162 -1.3714696 7.9205733e-39
2.5236826 -0.93218774 -1.3823347 8.566258e-39
2.4777663 -0.92225939 -1.3796077 8.2922355e-39
2.4997964 -0.91467398 -1.3862145 8.7539297e-39
2.3395612 -0.75403053 -1.334676 1.5014543e-38
2.3587663 -0.75016165 -1.3402543 1.1882476e-38
2.3805742 -0.76558578 -1.336385 1.2626799e-38
2.3178501 -0.73875302 -1.3381913 1.2348082e-38
2.3570471 -0.72765207 -1.3464583 9.306728e-39
2.3762777 -0.74290746 -1.3520131 9.0322963e-39
2.3574457 -0.7019245 -1.3449073 9.4904032e-39
2.3792434 -0.71698153 -1.3410734 8.6624417e-39
2.3361206 -0.68063086 -1.3469896 9.7687907e-39
2.3574183 -0.67458928 -1.3449073 8.846833e-39
2.377908 -0.66351682 -1.3457618 8.3865681e-39
2.4186187 -0.65897524 -1.3523082 8.3847604e-39
2.3939087 -0.64649069 -1.363008 9.2119932e-39
2.4147029 -0.64910758 -1.366591 8.7527807e-39
2.4370568 -0.65085524 -1.3644643 9.300949e-39
2.4585993 -0.64944905 -1.3690878 9.7525679e-39
2.4669874 -1.100762 -1.3400654 1.6581504e-38
2.4281471 -1.0735716 -1.3189813 1.6214915e-38
2.4444764 -1.0720065 -1.3388745 1.6119833e-38
2.3936925 -1.0331281 -1.3197212 1.5846828e-38
2.3679292 -1.0058169 -1.3076833 1.272012e-38
2.3880785 -0.99689215 -1.3224269 1.0044646e-38
2.3969359 -0.97530574 -1.320647 7.8298098e-39
2.4228308 -0.96498954 -1.3380251 7.6464793e-39
2.4004688 -0.9452675 -1.3148395 6.9074962e-39
2.4254115 -0.94195324 -1.3285031 7.0936713e-39
2.4443433 -0.93935817 -1.3388743 7.1840579e-39
2.484446 -0.93741226 -1.3552364 7.644334e-39
2.506537 -0.93504888 -1.3616399 8.1974769e-39
2.3656414 -0.75401396 -1.3151281 9.954984e-39
2.3882573 -0.75585693 -1.3082546 1.1339691e-38
2.3647897 -0.72965431 -1.3181525 8.2940264e-39
2.3873897 -0.74289638 -1.3113801 8.0192556e-39
2.3642321 -0.70191771 -1.3200912 8.2925774e-39
2.38393 -0.70239526 -1.3238826 7.833044e-39
2.3642097 -0.6794064 -1.3200912 8.3858633e-39
2.3856053 -0.66836965 -1.3176315 8.1081778e-39
2.4251287 -0.65896875 -1.3285033 7.8315895e-39
2.4440684 -0.6641131 -1.3388745 8.10711e-39
2.4440536 -0.64919019 -1.3388745 8.9314322e-39
2.4143751 -1.0896714 -1.2897892 1.3997887e-38
2.4307659 -1.0883763 -1.3094594 1.6490752e-38
2.4124105 -1.0627385 -1.2968749 1.1980806e-38
2.4307511 -1.0735689 -1.3094594 1.5309871e-38
2.3743107 -1.025106 -1.2844183 8.096746e-39
2.3936725 -1.0426241 -1.2895011 1.0968057e-38
2.356477 -1.0010309 -1.2737237 8.8479134e-39
2.3704691 -1.0009906 -1.2983773 8.7499949e-39
2.3566248 -0.9806056 -1.2731079 9.1223353e-39
2.3742576 -0.97204357 -1.2844183 8.3840486e-39
2.3910306 -0.964858 -1.2988778 7.8294553e-39
2.3574269 -0.94071174 -1.2700295 8.6613613e-39
2.3729563 -0.94310176 -1.2890713 7.8316147e-39
2.3910015 -0.93569469 -1.2988778 7.5561082e-39
2.3574076 -0.92156315 -1.2700295 8.2943949e-39
2.4055939 -0.91595221 -1.2959915 8.0116647e-39
2.4011376 -0.75380921 -1.2990574 1.2533176e-38
2.4321775 -0.76425838 -1.3031114 1.262288e-38
2.3701894 -0.72120714 -1.2983773 8.4791365e-39
2.3955824 -0.73442686 -1.2922213 8.8468358e-39
2.3723958 -0.70070356 -1.2902346 8.0174479e-39
2.3952579 -0.7048142 -1.2824684 8.5706175e-39
2.3726957 -0.68261391 -1.2890712 7.2809633e-39
2.3953068 -0.66891456 -1.2905828 7.1869501e-39
2.4316385 -0.65896219 -1.3046985 7.2791388e-39
2.4355245 -0.63921523 -1.2904155 8.9339293e-39
2.4506142 -0.64918363 -1.3148837 8.1899253e-39
2.4091797 -1.0870677 -1.2654521 1.3818152e-38
2.4195225 -1.0700772 -1.2708939 1.0043937e-38
2.3806777 -1.0299234 -1.2611533 8.755722e-39
2.4013703 -1.047477 -1.2613707 9.3103363e-39
2.3625402 -1.0029397 -1.2515591 8.5695315e-39
2.3599229 -0.97588545 -1.2501986 8.4791337e-39
2.3780701 -0.9672159 -1.2704593 9.0294236e-39
2.3549838 -0.94331956 -1.2452742 8.4784148e-39
2.3491752 -0.9126966 -1.2432357 8.4776862e-39
2.3780122 -0.90932971 -1.2704593 8.0156304e-39
2.3566875 -0.88722366 -1.2422086 8.0152591e-39
2.3788395 -0.88842547 -1.2673573 9.9459134e-39
2.4161868 -0.7557025 -1.2693068 1.2438135e-38
2.4434698 -0.77247339 -1.2618498 1.4927375e-38
2.4101219 -0.73432136 -1.2661324 7.7422973e-39
2.3811963 -0.70029277 -1.2580513 8.3876639e-39
2.3984754 -0.71696228 -1.2707474 8.3898247e-39
2.381598 -0.67778105 -1.2565002 7.9277536e-39
2.4009862 -0.66349375 -1.2613707 7.462814e-39
2.4191062 -0.6538114 -1.2708941 7.1862243e-39
2.4407377 -0.64414579 -1.2713717 7.7390253e-39
2.4022245 -0.61974752 -1.2566823 1.1506761e-38
2.4169128 -1.0855587 -1.2425841 1.4647537e-38
2.4184518 -1.0697874 -1.2444812 1.1700563e-38
2.39043 -1.0266978 -1.2254803 9.0323243e-39
2.4090631 -1.0474693 -1.2332402 1.0504919e-38
2.3693953 -1.0029328 -1.2264922 7.9245208e-39
2.3522766 -0.97352719 -1.2131625 7.8334013e-39
2.3516617 -0.9442848 -1.2153049 8.4780589e-39
2.3337615 -0.90620387 -1.2085915 7.7401323e-39
2.3493488 -0.90973818 -1.2236362 8.2925746e-39
2.3345735 -0.88891262 -1.205559 8.2021755e-39
2.3531768 -0.87759435 -1.2221568 8.4737345e-39
2.3345406 -0.85590345 -1.205559 8.0991828e-39
2.4269552 -0.75174862 -1.2425512 8.2918614e-39
2.4473758 -0.77246952 -1.2475668 1.3821398e-38
2.4178438 -0.73431373 -1.2378957 7.9270599e-39
2.3864555 -0.69996595 -1.2388189 8.3858675e-39
2.4095743 -0.70398986 -1.2301147 7.925604e-39
2.386688 -0.67777592 -1.2378883 8.4766198e-39
2.4090502 -0.66834623 -1.2319007 8.0174353e-39
2.3904812 -0.65365291 -1.2239293 7.4642293e-39
2.4268572 -0.65380365 -1.2425512 7.6486373e-39
2.4479008 -0.64660645 -1.2451863 7.7404588e-39
2.4689791 -0.64419097 -1.2477099 7.3734868e-39
2.4876907 -0.63939059 -1.2626723 1.1223743e-38
2.4255362 -0.62442148 -1.247275 1.0946813e-38
2.395952 -1.034732 -1.2053173 1.1887122e-38
2.3724568 -1.0067195 -1.1900367 8.3880241e-39
2.3591278 -0.97742248 -1.1881241 7.8316119e-39
2.3410916 -0.93889135 -1.1819063 8.3858549e-39
2.3569148 -0.95723534 -1.1961429 8.6606523e-39
2.3342707 -0.91324311 -1.1861753 8.4776988e-39
2.3073976 -0.88040775 -1.1608456 8.2922173e-39
2.3261242 -0.88218868 -1.1849837 8.1081848e-39
2.3057356 -0.85253406 -1.1668208 8.0167122e-39
2.3283908 -0.85745269 -1.1920391 8.0156248e-39
2.2885027 -0.82340997 -1.1614921 9.8544577e-39
2.3057079 -0.82465887 -1.1668208 1.1046532e-38
2.4195111 -0.76165259 -1.2066263 1.1978585e-38
2.4164448 -0.73638654 -1.2051098 7.7422819e-39
2.4164107 -0.70236278 -1.20511 7.7412127e-39
2.4163766 -0.66833889 -1.2051098 8.0170807e-39
2.434608 -0.6537959 -1.2142085 7.6468479e-39
2.4570146 -0.64659733 -1.2118596 7.6475611e-39
2.4755363 -0.64086813 -1.2237192 8.4737107e-39
2.3754992 -1.0014489 -1.1662549 1.0232623e-38
2.3483303 -0.96277648 -1.1555246 8.6631522e-39
2.3675919 -0.98335212 -1.1571941 7.4588749e-39
2.3290951 -0.94083834 -1.1537544 8.4769855e-39
2.311512 -0.90982735 -1.1459079 8.1096295e-39
2.3272264 -0.92445761 -1.1605268 7.9234488e-39
2.2934208 -0.8741464 -1.1436943 8.2933005e-39
2.3114889 -0.88659811 -1.1459079 8.3858633e-39
2.2940962 -0.85437638 -1.1411517 8.0163619e-39
2.2933793 -0.83263081 -1.1436943 7.7401281e-39
2.3122408 -0.82155514 -1.1429204 7.3731449e-39
2.3283582 -0.82148033 -1.1560118 1.021497e-38
2.2957804 -0.80033851 -1.1347953 1.3540788e-38
2.4241619 -0.76068175 -1.1769794 1.0504898e-38
2.405823 -0.72599536 -1.1680932 7.6483038e-39
2.424139 -0.73776764 -1.1769794 7.5557341e-39
2.4070809 -0.71152252 -1.1634402 7.6483136e-39
2.4238443 -0.69943905 -1.1779171 7.0043722e-39
2.4240694 -0.66833127 -1.1769795 8.0178038e-39
2.442359 -0.65378815 -1.1858656 7.7419288e-39
2.4652119 -0.64115983 -1.1818656 7.9245082e-39
2.4820981 -0.64169061 -1.1997286 8.475161e-39
2.3915741 -0.99333638 -1.1453543 1.0234427e-38
2.3570392 -0.96433967 -1.1236845 9.6765909e-39
2.3719709 -0.97622204 -1.1411564 8.0091396e-39
2.3429275 -0.94551229 -1.1271987 9.0312341e-39
2.3019753 -0.91104066 -1.112548 8.2940208e-39
2.2970645 -0.88195932 -1.1152344 8.109268e-39
2.2952039 -0.8536455 -1.1143528 8.2922299e-39
2.2933977 -0.82196695 -1.1125706 7.7404967e-39
2.2841635 -0.79002351 -1.109 9.5764387e-39
2.4160411 -0.76457608 -1.1308693 1.2805448e-38
2.4313409 -0.75970232 -1.1507244 8.201444e-39
2.4137793 -0.72960532 -1.139012 7.0951174e-39
2.429276 -0.74609488 -1.1582259 7.462821e-39
2.4134407 -0.70910418 -1.1401752 6.8203368e-39
2.4317904 -0.69627172 -1.148849 6.9103689e-39
2.437712 -0.66880161 -1.1477728 7.6479353e-39
2.4526887 -0.64888054 -1.1480752 7.7415729e-39
2.4709406 -0.64115411 -1.1609173 8.2911397e-39
2.4886515 -0.63422257 -1.175738 1.1872713e-38
2.4552476 -0.62439179 -1.1386276 1.1597198e-38
2.3278816 -0.93923497 -1.086157 1.0688956e-38
2.3437142 -0.94940513 -1.1003274 1.0506703e-38
2.3054168 -0.91180468 -1.0804698 8.8475519e-39
2.2773654 -0.87070554 -1.0659163 8.2915208e-39
2.2922294 -0.88252783 -1.0798436 8.3858605e-39
2.2763858 -0.85070068 -1.0694249 8.2936578e-39
2.2896571 -0.84726578 -1.0891207 8.0167192e-39
2.277329 -0.83433127 -1.0659163 8.477703e-39
2.2914443 -0.82207501 -1.0824943 8.0181626e-39
2.2760794 -0.78431785 -1.070302 6.817453e-39
2.2904539 -0.79826099 -1.0860283 7.0032651e-39
2.2772608 -0.76612943 -1.0659163 6.6276555e-39
2.2923536 -0.7652843 -1.0789602 1.0310021e-38
2.4217649 -0.76215839 -1.1099308 1.0137887e-38
2.4390376 -0.76358312 -1.122594 8.29472e-39
2.3127601 -0.74496734 -1.0725029 1.6119387e-38
2.421097 -0.73080391 -1.1122572 6.1731569e-39
2.4210777 -0.71150857 -1.1122572 6.266084e-39
2.4394844 -0.69747919 -1.1207187 6.2671574e-39
2.4537506 -0.67382979 -1.1190115 6.9110681e-39
2.4785147 -0.66385114 -1.1333038 7.5546523e-39
2.4617362 -0.65376878 -1.1150087 7.5524915e-39
2.4797971 -0.64410669 -1.1285429 7.7390533e-39
2.3319635 -0.93613362 -1.0712192 1.0782574e-38
2.3519394 -0.94315594 -1.0702277 1.2442765e-38
2.2857881 -0.89797783 -1.0352161 9.7698809e-39
2.3130457 -0.91631389 -1.0550259 1.0046822e-38
2.2836721 -0.88092947 -1.0428911 8.9390384e-39
2.2717795 -0.85316521 -1.0436296 8.2029153e-39
2.2717783 -0.82469481 -1.042753 7.8334168e-39
2.2728744 -0.79473943 -1.0441496 7.4657006e-39
2.2513866 -0.75380796 -1.0278008 7.2784283e-39
2.2668252 -0.76585531 -1.0455869 7.1858655e-39
2.4102764 -0.75395983 -1.0760902 9.2299298e-39
2.4287548 -0.75395083 -1.0843393 6.6351721e-39
2.2773192 -0.74302113 -1.0383227 6.8113265e-39
2.3065512 -0.73835331 -1.0496919 1.1873737e-38
2.4287317 -0.73079628 -1.0843393 5.7121704e-39
2.4290693 -0.70460927 -1.0830098 6.081327e-39
2.4466584 -0.6916393 -1.0944637 6.5401374e-39
2.4621916 -0.67049026 -1.0917422 6.6341407e-39
2.4876235 -0.65890622 -1.0999769 6.911808e-39
2.4681952 -0.65376228 -1.0913898 7.0011183e-39
2.4876089 -0.64409888 -1.099977 7.1869529e-39
2.5043972 -0.63420683 -1.1181604 1.1869113e-38
2.2893863 -0.89797419 -1.0220588 1.013973e-38
2.3096478 -0.90449351 -1.0162301 1.2718277e-38
2.2873561 -0.88055664 -1.009922 9.6769664e-39
2.2735779 -0.85451978 -1.0114682 8.479498e-39
2.2583942 -0.82432681 -1.0024344 7.7412253e-39
2.2707756 -0.82284421 -1.0216008 8.201472e-39
2.2435784 -0.78564948 -0.99202389 7.7401211e-39
2.2569482 -0.79743278 -1.007623 7.2809633e-39
2.2702684 -0.79215115 -1.0233425 8.3876653e-39
2.2429714 -0.7656188 -0.99417073 7.0936685e-39
2.2560251 -0.76090074 -1.0108658 8.1117777e-39
2.433841 -0.75008661 -1.0657272 6.4475368e-39
2.2586572 -0.73288208 -1.0011373 8.295813e-39
2.2716413 -0.73617911 -1.0181178 7.738675e-39
2.41383 -0.73337644 -1.0440665 5.5256155e-39
2.4358556 -0.72885966 -1.0582825 5.4344989e-39
2.2592306 -0.71495116 -0.99897534 7.5553795e-39
2.417815 -0.71565497 -1.0483845 5.9887601e-39
2.4360209 -0.70305187 -1.0575844 5.5281505e-39
2.452296 -0.68774527 -1.0738347 5.7139753e-39
2.4203069 -0.68214232 -1.0391493 5.8969288e-39
2.4375813 -0.67290115 -1.0517682 5.2512161e-39
2.4543259 -0.66635674 -1.0663333 5.6192699e-39
2.4684579 -0.64234066 -1.0651155 6.357544e-39
2.2975218 -0.87796026 -0.99223566 9.8613675e-39
2.3172808 -0.88616657 -0.98825192 1.1614849e-38
2.2664509 -0.84045595 -0.97303253 9.0305124e-39
2.2878127 -0.85741806 -0.98217201 9.0327026e-39
2.2482975 -0.80790162 -0.97484899 8.2021965e-39
2.265255 -0.8270095 -0.97735631 8.018178e-39
2.2482796 -0.79009622 -0.97484905 7.9252523e-39
2.2377398 -0.75982153 -0.97031492 7.0940469e-39
2.2468817 -0.73437643 -0.97331321 7.0014785e-39
2.2627871 -0.72391278 -0.98600394 7.5561068e-39
2.4161007 -0.72721082 -1.0167844 5.3430277e-39
2.4414515 -0.72595972 -1.0378093 4.7891239e-39
2.2505436 -0.70551759 -0.96626157 7.3699149e-39
2.2639532 -0.70777428 -0.98168015 7.003991e-39
2.2820847 -0.70186406 -0.9798035 5.5321091e-39
2.4261022 -0.70470458 -1.0180403 5.2508181e-39
2.441437 -0.71148819 -1.0378093 5.2522628e-39
2.4205029 -0.67245221 -1.0177182 6.4483089e-39
2.4413888 -0.66324973 -1.0378093 6.6316324e-39
2.4439192 -0.64877564 -1.0285032 6.0813285e-39
2.4619877 -0.63524145 -1.0382029 6.1720821e-39
2.44644 -0.62465376 -1.0191972 1.0777822e-38
2.320493 -0.87700373 -0.97647166 1.0505613e-38
2.3009512 -0.85345626 -0.95685965 9.5851337e-39
2.2565169 -0.80789346 -0.94479299 8.8479372e-39
2.2735319 -0.82700121 -0.94708973 9.4011054e-39
2.2564991 -0.790088 -0.94479311 8.0160031e-39
2.2403359 -0.75883424 -0.93933517 8.2947466e-39
2.2448046 -0.73043633 -0.94130367 7.2795031e-39
2.25372 -0.70717466 -0.94176346 7.5564515e-39
2.273402 -0.6970067 -0.94708973 7.3698981e-39
2.3083761 -0.69789648 -0.95188677 6.7255978e-39
2.3611434 -0.70381069 -0.96366745 5.988732e-39
2.3763993 -0.70909452 -0.97992873 6.0791522e-39
2.4308875 -0.70545602 -0.99211961 5.6188831e-39
2.4142718 -0.67215025 -0.9853614 5.9894859e-39
2.4217119 -0.65133697 -0.98840612 6.2642596e-39
2.4515464 -0.64118767 -1.0005852 7.0933042e-39
2.4515297 -0.62464869 -1.0005852 1.0311085e-38
2.2651365 -0.81678748 -0.91330576 7.8348489e-39
2.2782617 -0.82699639 -0.92979449 9.1241458e-39
2.2537146 -0.79243922 -0.90894884 7.1876788e-39
2.2343345 -0.75969392 -0.89683676 7.5557397e-39
2.2470767 -0.76907432 -0.91472238 8.6624432e-39
2.2329228 -0.73731142 -0.90191704 8.7568052e-39
2.2464564 -0.73150331 -0.91685414 7.5560886e-39
2.2340608 -0.71755981 -0.89768344 7.3706015e-39
2.2575803 -0.70772308 -0.9118948 7.4628055e-39
2.3059723 -0.69986957 -0.92656446 7.4631657e-39
2.3660452 -0.7038058 -0.94574213 5.5331503e-39
2.3913834 -0.70770222 -0.94913983 5.8075848e-39
2.4331994 -0.70281345 -0.96364719 4.8820328e-39
2.4339318 -0.67197174 -0.96171802 6.5408591e-39
2.4357281 -0.64760399 -0.96746773 7.5542921e-39
2.4614072 -0.64031637 -0.96452445 8.2003664e-39
2.4612823 -0.62142301 -0.96491218 8.0163268e-39
2.2272563 -0.80866385 -0.86224228 1.0043487e-38
2.2596154 -0.8159135 -0.89052653 9.2134477e-39
2.2413158 -0.79479885 -0.87143546 8.7564423e-39
2.2549095 -0.78984141 -0.88615602 7.7426561e-39
2.2398977 -0.76583284 -0.87651581 7.4649804e-39
2.2273791 -0.73536223 -0.8716346 7.6490059e-39
2.2398493 -0.71755403 -0.87651575 8.1114204e-39
2.2694409 -0.70441586 -0.88334614 7.4624552e-39
2.2875865 -0.69250995 -0.89520407 7.4642489e-39
2.3058891 -0.69281274 -0.89272565 7.370963e-39
2.3750324 -0.7037968 -0.91287911 6.3597006e-39
2.4064372 -0.70596546 -0.9240976 5.3430235e-39
2.4387133 -0.69856924 -0.93399203 5.1596888e-39
2.4449472 -0.67166263 -0.93637002 6.633775e-39
2.4505799 -0.64860195 -0.92832685 7.1847753e-39
2.4685121 -0.64071125 -0.93854517 7.6482702e-39
2.4881372 -0.62938273 -0.94255948 7.5582045e-39
2.4693384 -0.61884224 -0.93544316 8.6577278e-39
2.2445769 -0.81410712 -0.85958159 4.9601944e-39
2.2667181 -0.81856686 -0.85024238 5.7103851e-39
2.2477081 -0.78777003 -0.84803557 8.2043559e-39
2.2463138 -0.7609731 -0.84752321 7.8344846e-39
2.2421887 -0.73250014 -0.8459602 8.0177926e-39
2.2479537 -0.71754593 -0.84688097 8.0185017e-39
2.2710185 -0.70781934 -0.85273111 7.5564431e-39
2.2970505 -0.69698304 -0.86061358 7.55499e-39
2.3186824 -0.69449538 -0.86869472 7.3713302e-39
2.3832023 -0.70378864 -0.88300365 6.3643851e-39
2.4134271 -0.70473093 -0.89253074 5.5274162e-39
2.4363492 -0.69493037 -0.90471458 4.9753172e-39
2.4498296 -0.67066175 -0.90407217 6.5405045e-39
2.4540188 -0.64650738 -0.90491223 7.1880165e-39
2.4769926 -0.63813007 -0.90752518 7.648273e-39
2.4766524 -0.61618179 -0.90868843 8.291483e-39
2.4983749 -0.60993022 -0.9050523 9.8444048e-39
2.2906041 -0.84347028 -0.82027519 1.7499415e-39
2.2724922 -0.8243013 -0.82198846 6.3571839e-39
2.2542968 -0.79024923 -0.81889796 8.5724223e-39
2.2496026 -0.75939083 -0.81674159 8.2036216e-39
2.2525985 -0.73497683 -0.81782931 8.2943767e-39
2.2565174 -0.71402615 -0.81555277 8.0174157e-39
2.2821028 -0.70360672 -0.82668459 7.6482828e-39
2.3029625 -0.69697714 -0.83899456 7.6471884e-39
2.3383603 -0.6978665 -0.84224302 7.280208e-39
2.3905554 -0.70378131 -0.8561157 6.5469141e-39
2.4174619 -0.70111042 -0.86576051 5.3426452e-39
2.4269128 -0.68227702 -0.86714476 5.895484e-39
2.4614727 -0.66860509 -0.87340307 6.8163599e-39
2.4660406 -0.64020896 -0.8717612 7.8312153e-39
2.4820786 -0.6342659 -0.88891315 8.1092596e-39
2.4839749 -0.62220436 -0.88193369 7.9252214e-39
2.5096414 -0.61121917 -0.88552141 9.7633607e-39
2.2964797 -0.84791583 -0.79880661 6.3593993e-39
2.2654164 -0.81408626 -0.78337783 9.2163568e-39
2.279459 -0.82773221 -0.79652512 9.8624437e-39
2.2597134 -0.79243571 -0.79067421 8.4805854e-39
2.2329552 -0.75091505 -0.7767455 8.5720496e-39
2.2504358 -0.76735872 -0.78744054 8.5716853e-39
2.2329466 -0.74225819 -0.7767455 8.3883744e-39
2.2521911 -0.73337734 -0.78898394 8.3865737e-39
2.263 -0.71314186 -0.7918449 8.0174016e-39
2.2856004 -0.69772476 -0.79507488 7.648273e-39
2.3638098 -0.70292735 -0.81743777 7.1894332e-39
2.4259031 -0.70256555 -0.83889973 4.8838306e-39
2.4355345 -0.67975336 -0.83560795 6.0795138e-39
2.4576535 -0.66743374 -0.84187365 6.6326721e-39
2.4646866 -0.64283115 -0.84225845 7.0947293e-39
2.4543233 -0.62460554 -0.83873081 8.0181051e-39
2.4927535 -0.62074834 -0.84982795 8.2025188e-39
2.5143557 -0.60905254 -0.85924816 9.7658788e-39
2.2993121 -0.85036802 -0.76697493 1.1063495e-38
2.2713742 -0.8178423 -0.76160532 9.123794e-39
2.2879522 -0.83533615 -0.76549536 9.6780566e-39
2.259584 -0.79108012 -0.75796258 8.9397657e-39
2.2398059 -0.7509082 -0.75169468 8.7557108e-39
2.2558019 -0.76877582 -0.75771242 8.6635193e-39
2.2397974 -0.74225134 -0.75169468 8.5713363e-39
2.257014 -0.73299998 -0.75748187 8.3862136e-39
2.2677996 -0.71379763 -0.76418757 7.8340992e-39
2.2955809 -0.70416975 -0.76576453 7.831951e-39
2.3218815 -0.69695818 -0.76981372 7.5553599e-39
2.3784034 -0.70545584 -0.79820174 7.0975907e-39
2.4077218 -0.71305591 -0.79337716 6.9106827e-39
2.4245434 -0.69968498 -0.80384564 4.6980128e-39
2.4362869 -0.66978419 -0.80280912 5.8047261e-39
2.4462836 -0.64830536 -0.79618692 6.9085542e-39
2.4686813 -0.6442495 -0.81473315 7.0014785e-39
2.4721899 -0.62062675 -0.81129253 7.2769695e-39
2.4990218 -0.61173761 -0.82687312 8.4740526e-39
2.5175972 -0.60018998 -0.83472633 1.1427927e-38
2.5023992 -0.59565473 -0.81446517 1.0600299e-38
2.281651 -0.84040403 -0.72410828 1.0319081e-38
2.2731049 -0.81800002 -0.72928184 8.9411936e-39
2.2943673 -0.83753985 -0.7420454 9.0323243e-39
2.2657318 -0.79178703 -0.72822589 9.1241528e-39
2.2477984 -0.75090021 -0.72246879 8.664234e-39
2.2640169 -0.7693904 -0.72767508 8.5724111e-39
2.2477853 -0.73791492 -0.72246879 8.7549905e-39
2.2639732 -0.72579402 -0.72767508 8.478412e-39
2.2721632 -0.71291977 -0.72800845 8.5698762e-39
2.3011851 -0.70567065 -0.7408002 8.2014412e-39
2.3277936 -0.69695228 -0.74819469 7.8333747e-39
2.3880899 -0.70544612 -0.7627812 6.639837e-39
2.4331863 -0.69967633 -0.772241 4.8816726e-39
2.4362252 -0.66907209 -0.77411377 5.89584e-39
2.4490623 -0.6459173 -0.77401274 7.0029008e-39
2.4759929 -0.63603711 -0.78986013 7.4635118e-39
2.4826169 -0.61709517 -0.78939825 7.5564263e-39
2.5087759 -0.61011988 -0.79120016 7.2794835e-39
2.5291364 -0.60017842 -0.79253078 1.0041003e-38
2.4858801 -0.59112078 -0.79903394 1.0410504e-38
2.2781641 -0.8456111 -0.69896829 1.0510673e-38
2.2733734 -0.82022661 -0.69797969 8.664248e-39
2.2720885 -0.79118055 -0.69823855 8.7560765e-39
2.2557907 -0.75089222 -0.69324279 9.123759e-39
2.2720668 -0.76938236 -0.69823855 8.8486295e-39
2.2558777 -0.73436528 -0.69286323 8.8471875e-39
2.271791 -0.72317052 -0.69907963 8.5713111e-39
2.2868168 -0.71374506 -0.70475495 8.2947298e-39
2.3111765 -0.70416117 -0.70873564 8.2003734e-39
2.3337057 -0.69694638 -0.72657567 7.8323083e-39
2.3547146 -0.70179147 -0.71421605 7.556792e-39
2.3965769 -0.70543766 -0.73174644 6.1774365e-39
2.4240525 -0.70374781 -0.73362619 5.1597029e-39
2.4393599 -0.69967014 -0.74966621 4.8816866e-39
2.4248509 -0.6851635 -0.73063862 4.8816684e-39
2.4405665 -0.67158455 -0.74515128 5.8040017e-39
2.4541719 -0.6423617 -0.74931359 7.2794835e-39
2.4586945 -0.61999935 -0.75070113 8.2007195e-39
2.4918497 -0.61625153 -0.75834143 8.2943627e-39
2.5151381 -0.61011356 -0.76793516 8.6606173e-39
2.5317054 -0.60503638 -0.78315395 9.2102065e-39
2.516396 -0.59564072 -0.76328212 1.1055181e-38
2.2867186 -0.85070354 -0.67528743 1.0048615e-38
2.25846 -0.83028221 -0.65344304 8.1117875e-39
2.281354 -0.82100677 -0.66998112 8.3883688e-39
2.2801387 -0.7911725 -0.66880196 8.6620802e-39
2.2660668 -0.75088191 -0.65566659 8.4784036e-39
2.2798262 -0.76610488 -0.66985327 8.5713195e-39
2.2641463 -0.73357004 -0.66262513 8.3858408e-39
2.2791595 -0.73188239 -0.67216623 8.4780323e-39
2.2660322 -0.71625447 -0.65566659 7.7393882e-39
2.2923427 -0.71302736 -0.67241639 7.7419078e-39
2.3201737 -0.70294476 -0.67941022 7.6482716e-39
2.3455255 -0.69245201 -0.68333763 6.4500675e-39
2.3730235 -0.69654381 -0.6984235 5.5292084e-39
2.4051056 -0.69399792 -0.7118904 4.3285087e-39
2.4035594 -0.67918259 -0.69929278 4.5129013e-39
2.4292517 -0.67400903 -0.71450585 5.0682331e-39
2.4473503 -0.66455668 -0.72031897 5.6206894e-39
2.4570615 -0.64115602 -0.72073555 7.094009e-39
2.4661577 -0.6199919 -0.72340965 8.1095833e-39
2.50038 -0.61424702 -0.73346108 8.6623997e-39
2.5227678 -0.60528201 -0.74001712 9.5807827e-39
2.544522 -0.60016304 -0.73626995 1.0868963e-38
2.521481 -0.59081179 -0.74467015 1.1702358e-38
2.127501 -0.84055817 -0.59024996 1.2902355e-38
2.145735 -0.84530944 -0.5981468 1.2903072e-38
2.1274769 -0.81624991 -0.59024996 1.2257685e-38
2.1397848 -0.82179731 -0.60212868 1.2809789e-38
2.2618568 -0.81302381 -0.6409601 8.385136e-39
2.2859063 -0.80860519 -0.64777595 8.2933131e-39
2.1274607 -0.80004442 -0.59024996 1.0043536e-38
2.14361 -0.79875118 -0.60321915 9.6751531e-39
2.1721678 -0.79559112 -0.61124778 9.1183626e-39
2.2087822 -0.80700898 -0.63030332 8.1099882e-39
2.2276804 -0.80379009 -0.61805159 1.0218257e-38
2.269109 -0.79711193 -0.62954652 9.6704616e-39
2.2863803 -0.78992063 -0.64597362 8.2932879e-39
2.270184 -0.75780326 -0.64063609 8.1099812e-39
2.2875898 -0.76718706 -0.64146811 8.0181457e-39
2.2711916 -0.7378915 -0.63687849 7.8330412e-39
2.290544 -0.73134553 -0.64569837 7.6500723e-39
2.3023653 -0.71529698 -0.64790452 7.4638733e-39
2.3276436 -0.70194662 -0.65502095 6.3568139e-39
2.351433 -0.68796343 -0.66171861 4.9749473e-39
2.3764558 -0.68167794 -0.66876107 5.4355681e-39
2.4111028 -0.6732322 -0.67851216 5.251174e-39
2.4370873 -0.6665678 -0.68582541 5.0678716e-39
2.452904 -0.6622107 -0.70000172 6.6312442e-39
2.4383037 -0.65727484 -0.68134403 5.8025471e-39
2.4644973 -0.64114857 -0.69354498 7.1858445e-39
2.5015399 -0.6221931 -0.70397317 7.924106e-39
2.5304124 -0.61492211 -0.71209913 8.5684104e-39
2.547096 -0.60988152 -0.72689319 9.5811372e-39
2.5878315 -0.614384 -0.73338276 1.0224332e-38
2.1275694 -0.85154474 -0.56962895 1.1427945e-38
2.1099021 -0.81426382 -0.55215144 1.1601532e-38
2.1225035 -0.82379067 -0.56865823 1.0773215e-38
2.1098902 -0.80225837 -0.55215144 1.1786987e-38
2.1246128 -0.793082 -0.57031047 1.0588099e-38
2.1559303 -0.78699946 -0.57834458 1.0587733e-38
2.1774809 -0.79118717 -0.57411188 1.1325647e-38
2.2125115 -0.79671657 -0.59641105 1.003709e-38
2.2427609 -0.80211991 -0.59133321 1.0221106e-38
2.2744737 -0.79615277 -0.60891557 7.7354268e-39
2.29163 -0.78244174 -0.62674981 7.1894557e-39
2.2794967 -0.76493597 -0.60660875 5.619979e-39
2.293458 -0.77023286 -0.62002146 7.1887144e-39
2.2697022 -0.73313886 -0.60498184 4.9756829e-39
2.2974877 -0.72883826 -0.6253531 6.6337581e-39
2.2740643 -0.7030527 -0.6002503 3.6860077e-39
2.3021994 -0.70855516 -0.62422454 5.434852e-39
2.3321595 -0.69850481 -0.63556504 4.9735221e-39
2.2768207 -0.68005025 -0.59586447 3.7760509e-39
2.303231 -0.67436397 -0.60819632 3.409432e-39
2.3337195 -0.67409128 -0.62516904 4.0530036e-39
2.3585098 -0.67002624 -0.63577574 4.6051012e-39
2.3867588 -0.66931534 -0.64809895 4.9731564e-39
2.4159431 -0.66403478 -0.66077799 4.8845453e-39
2.3467789 -0.65645629 -0.61417675 3.9593618e-39
2.3632216 -0.65209121 -0.61848056 4.3249157e-39
2.3915339 -0.65113997 -0.63057184 3.8686081e-39
2.4195318 -0.64333397 -0.64270461 3.868971e-39
2.4453948 -0.64054257 -0.65535235 4.9727963e-39
2.4681144 -0.6397382 -0.67311084 6.8174207e-39
2.4760582 -0.62067449 -0.65633965 6.6315749e-39
2.5084169 -0.61435962 -0.67338365 8.1070637e-39
2.5355022 -0.61491704 -0.69348711 8.567344e-39
2.1403577 -0.87295634 -0.54335535 1.2809074e-38
2.1281319 -0.85361761 -0.53491765 1.2161902e-38
2.1130772 -0.82226437 -0.54057115 1.2245111e-38
2.1329541 -0.82344508 -0.53164905 1.3073787e-38
2.2517588 -0.81913483 -0.55849147 1.3438962e-38
2.2874432 -0.81434447 -0.57773077 1.2427296e-38
2.1134102 -0.80358875 -0.53928447 1.2888325e-38
2.1328349 -0.79827547 -0.54026306 1.279755e-38
2.1626906 -0.79573953 -0.54481 1.2980142e-38
2.1954107 -0.79610127 -0.56163883 1.2980507e-38
2.2399898 -0.80377775 -0.57304013 1.2979764e-38
2.2844391 -0.79562223 -0.58106571 7.3669918e-39
2.3042977 -0.79986763 -0.58049238 5.2468874e-39
2.2866359 -0.76817507 -0.58051419 3.9622695e-39
2.27109 -0.73287141 -0.57657689 3.6867448e-39
2.27106 -0.70277786 -0.57657689 4.1462712e-39
2.2798853 -0.67714292 -0.5806036 4.2388326e-39
2.3132424 -0.66825932 -0.58369577 4.0547902e-39
2.3349993 -0.66069186 -0.59281838 4.1459069e-39
2.4018903 -0.66142863 -0.60979825 4.8813307e-39
2.3514755 -0.65645158 -0.59700191 4.5125188e-39
2.3655865 -0.65208882 -0.60983294 4.6058228e-39
2.3948994 -0.65042645 -0.60802644 4.4232224e-39
2.4261637 -0.63931173 -0.61478448 4.0533651e-39
2.4542072 -0.62938368 -0.62308687 3.6863791e-39
2.472631 -0.63410658 -0.6277625 4.3285129e-39
2.4818289 -0.622356 -0.63010031 4.6050927e-39
2.5185125 -0.6150322 -0.64188331 5.6167097e-39
2.1384695 -0.87546098 -0.49719602 1.2166574e-38
2.1089942 -0.86469048 -0.50258332 1.2349167e-38
2.138032 -0.85601693 -0.50535876 1.3724914e-38
2.2825375 -0.84033698 -0.53510863 1.5004461e-38
2.1407423 -0.82356417 -0.50859749 1.5100632e-38
2.167042 -0.82177007 -0.50245643 1.5560517e-38
2.1995766 -0.81434298 -0.51993477 1.5098091e-38
2.2928379 -0.82281756 -0.54994702 1.1323473e-38
2.146697 -0.80002517 -0.51990801 1.454743e-38
2.1691682 -0.80389076 -0.52115387 1.4730386e-38
2.2946539 -0.79413772 -0.55128819 4.3288702e-39
2.2946281 -0.76816708 -0.55128819 3.8707787e-39
2.2790279 -0.73286349 -0.54754907 3.9633191e-39
2.2815459 -0.70098174 -0.54689032 3.8711192e-39
2.2892299 -0.67908257 -0.5504837 3.9615212e-39
2.3176003 -0.66814214 -0.55832464 3.8707605e-39
2.3473032 -0.66184932 -0.56394362 4.145181e-39
2.3762374 -0.66104335 -0.57091868 4.5129069e-39
2.359695 -0.65644336 -0.56694591 4.2359599e-39
2.4003286 -0.65447241 -0.58136451 4.2355788e-39
2.4304564 -0.63975602 -0.58866405 3.3161532e-39
2.4615602 -0.62937635 -0.59619892 4.0544245e-39
2.4440539 -0.62490201 -0.59196055 3.5023367e-39
2.4603255 -0.62008584 -0.60068023 4.2384668e-39
2.4944992 -0.62115347 -0.60177064 4.6072493e-39
2.1553273 -0.88104415 -0.48864496 1.2533202e-38
2.1455586 -0.85321325 -0.47877428 1.4185166e-38
2.1710033 -0.83808166 -0.48803017 1.4916979e-38
2.2714572 -0.84313339 -0.51498044 1.4637832e-38
2.3032715 -0.84823477 -0.51997471 1.3439643e-38
2.1527081 -0.83381003 -0.47151384 1.4640017e-38
2.1823897 -0.8288067 -0.49058726 1.5006623e-38
2.2027738 -0.82315934 -0.49943179 1.4729677e-38
2.3026812 -0.82875729 -0.52206224 8.0116479e-39
2.3195262 -0.82310373 -0.52488989 5.1571959e-39
2.3023179 -0.79165667 -0.52325517 3.6853183e-39
2.3026206 -0.76815915 -0.5220623 3.9622583e-39
2.2869663 -0.73285538 -0.51852143 3.8711431e-39
2.2973487 -0.70161813 -0.52087724 3.9629617e-39
2.299926 -0.6764915 -0.52147216 3.7792907e-39
2.3295257 -0.66767842 -0.52819449 4.052642e-39
2.3679235 -0.66533792 -0.53688985 3.9626002e-39
2.3679144 -0.65643513 -0.53688985 3.9629645e-39
2.3856878 -0.65206873 -0.53632826 3.4083292e-39
2.4086876 -0.64539248 -0.55076516 3.5001787e-39
2.4459226 -0.63565981 -0.5624209 3.9618645e-39
2.4664624 -0.62937146 -0.57827359 5.2511586e-39
2.4998 -0.63409644 -0.5764311 5.5288259e-39
2.5355234 -0.63648403 -0.57975805 5.6192138e-39
2.1543982 -0.87544507 -0.43894944 1.2348461e-38
2.3072915 -0.87203711 -0.50536174 1.3901352e-38
2.1557693 -0.85442394 -0.4515489 1.3723824e-38
2.1802599 -0.84133548 -0.45419404 1.3442526e-38
2.20805 -0.84074187 -0.46251065 1.3163795e-38
2.3053515 -0.86044365 -0.49219552 1.1046157e-38
2.3285034 -0.85589582 -0.49218261 6.5379331e-39
2.1479864 -0.83519459 -0.46224806 1.4456341e-38
2.3104053 -0.82408822 -0.49379975 3.8682606e-39
2.3261678 -0.82019067 -0.50059313 3.7782202e-39
2.3115261 -0.79315895 -0.48958901 3.8696955e-39
2.3253751 -0.79403365 -0.50339657 3.9604618e-39
2.3107157 -0.76736397 -0.4924567 3.9626072e-39
2.2949042 -0.73284757 -0.48949364 4.0548042e-39
2.2991853 -0.70164776 -0.49105734 3.8707661e-39
2.3061337 -0.67482322 -0.49021065 3.7785789e-39
2.3390124 -0.66563833 -0.50158525 4.1448321e-39
2.3749688 -0.66533089 -0.51112753 3.9608065e-39
2.3749595 -0.6564281 -0.51112759 3.5012577e-39
2.3915999 -0.65206283 -0.51470923 3.1306829e-39
2.4180264 -0.64111894 -0.52039069 3.7749705e-39
2.4552164 -0.63259733 -0.52842516 5.1578924e-39
2.5134447 -0.638807 -0.55056363 5.161149e-39
2.5515924 -0.63892663 -0.55891854 4.9738571e-39
2.4635224 -0.62488258 -0.52076906 5.3440885e-39
2.481159 -0.62006497 -0.52449769 7.3626702e-39
2.1713536 -0.87697673 -0.43002671 1.2256265e-38
2.1967685 -0.8795926 -0.42050374 1.252672e-38
2.3198509 -0.87202454 -0.45943525 1.1969917e-38
2.1713374 -0.86077124 -0.43002671 1.3629821e-38
2.1903419 -0.85054672 -0.42797521 1.3441095e-38
2.2225673 -0.8474797 -0.43598604 1.2520575e-38
2.2599738 -0.85753393 -0.44329479 1.3071574e-38
2.3142025 -0.86405498 -0.46489769 9.7640487e-39
2.3350735 -0.85464358 -0.46815276 3.9607981e-39
2.318944 -0.82116628 -0.46256661 3.4079985e-39
2.3353825 -0.83471364 -0.46695134 3.3165301e-39
2.3186314 -0.79411381 -0.46361038 3.5005683e-39
2.3186057 -0.76814318 -0.46361038 3.778939e-39
2.3028426 -0.73283964 -0.46046597 3.9625974e-39
2.3046124 -0.7014944 -0.45994541 3.8700458e-39
2.3125877 -0.67437398 -0.46321577 3.7771341e-39
2.3497822 -0.66477615 -0.47432935 3.6856616e-39
2.3772016 -0.66522509 -0.47718298 3.7764139e-39
2.3838818 -0.65463859 -0.4784953 3.1324878e-39
2.4003773 -0.64565033 -0.48258954 3.3157889e-39
2.4226098 -0.63793319 -0.49495488 3.960438e-39
2.4507184 -0.62956333 -0.49936998 4.881674e-39
2.4589431 -0.62033492 -0.50337946 5.6134951e-39
2.2085598 -0.90080005 -0.404001 1.216515e-38
2.2053573 -0.88125664 -0.40148565 1.243561e-38
2.3188119 -0.8733595 -0.43291128 1.0773537e-38
2.3446174 -0.8695814 -0.43330956 4.7880505e-39
2.2053308 -0.85532391 -0.40237287 1.3625847e-38
2.2338555 -0.85427201 -0.42127004 1.362836e-38
2.2530651 -0.85992253 -0.40791026 1.3166293e-38
2.3232677 -0.86336422 -0.44690984 6.635123e-39
2.3429914 -0.85388827 -0.4391968 3.5909408e-39
2.3274121 -0.82151836 -0.43160096 3.317228e-39
2.3411324 -0.83470786 -0.44592521 3.8675291e-39
2.3266234 -0.79410583 -0.43438438 3.4090873e-39
2.3265977 -0.76813513 -0.43438435 3.4105152e-39
2.3107805 -0.73283166 -0.43143821 3.9604338e-39
2.3136764 -0.70023543 -0.43286255 3.7774901e-39
2.3240881 -0.67966115 -0.4345721 3.9615226e-39
2.3498147 -0.67432916 -0.4378522 3.9622457e-39
2.3774412 -0.66584939 -0.44838184 3.3168791e-39
2.3913941 -0.65196025 -0.45101556 3.0399292e-39
2.4081447 -0.64308113 -0.45417595 3.5008976e-39
2.4333711 -0.63631827 -0.46047142 4.3299352e-39
2.46684 -0.63411599 -0.4745535 3.9622359e-39
2.4946489 -0.62934327 -0.47520316 8.0836803e-39
2.5333374 -0.62935591 -0.47778639 1.5853984e-38
2.2183042 -0.90079033 -0.36836812 1.2072223e-38
2.191679 -0.89721328 -0.35577691 1.1980773e-38
2.2136221 -0.88209033 -0.37293181 1.3077375e-38
2.2353325 -0.87377149 -0.36286667 1.4361266e-38
2.3007662 -0.8687225 -0.40789947 1.1602947e-38
2.3324106 -0.87201196 -0.41350874 7.2776057e-39
2.3492172 -0.86957681 -0.41648865 3.8693312e-39
2.2165291 -0.85810447 -0.37470284 1.3717671e-38
2.239712 -0.85545522 -0.3786284 1.3257762e-38
2.2755384 -0.85751837 -0.38637915 1.0866086e-38
2.290405 -0.86311823 -0.38890234 1.0866805e-38
2.3308043 -0.85671556 -0.40199566 3.9618799e-39
2.3515086 -0.86085522 -0.40807822 3.1335542e-39
2.3346465 -0.82439691 -0.4051584 3.1328437e-39
2.3346162 -0.79409778 -0.40515849 3.3161616e-39
2.3345904 -0.76812714 -0.40515849 3.5920338e-39
2.3187191 -0.73282379 -0.40241054 3.5934632e-39
2.3204997 -0.70147848 -0.40185028 3.9618827e-39
2.3302586 -0.67930627 -0.40550816 3.9615226e-39
2.3588481 -0.6683585 -0.4108634 3.686735e-39
2.3848298 -0.66436857 -0.42135879 3.2253967e-39
2.3931665 -0.64664906 -0.42107978 3.4090663e-39
2.4152305 -0.6341089 -0.42823312 4.2384528e-39
2.4498379 -0.6340999 -0.43436825 4.6054445e-39
2.4708655 -0.63068259 -0.44276178 3.8671844e-39
2.4995508 -0.62933838 -0.45727786 6.888028e-39
2.517071 -0.62470061 -0.46522424 1.446532e-38
2.2215874 -0.9029302 -0.34575528 1.2439573e-38
2.2558572 -0.92077482 -0.3410593 1.2257008e-38
2.224999 -0.88272351 -0.34382096 1.3812778e-38
2.2386024 -0.87376827 -0.35090938 1.3716987e-38
2.222594 -0.8597402 -0.35253125 1.3533635e-38
2.2486846 -0.86221939 -0.35190883 1.30734e-38
2.2713878 -0.85930878 -0.35607275 1.1969187e-38
2.3065073 -0.86134726 -0.36413211 7.5510187e-39
2.3399613 -0.85511464 -0.37650374 3.5019878e-39
2.3424101 -0.82410055 -0.37676761 3.2250366e-39
2.3426082 -0.79408979 -0.37593248 3.5001871e-39
2.3425825 -0.76811916 -0.37593251 3.6849385e-39
2.3141406 -0.72780812 -0.35847747 4.328866e-39
2.3258734 -0.7338087 -0.37625366 3.8689696e-39
2.3141279 -0.71499896 -0.35847747 4.4192778e-39
2.3266273 -0.70272225 -0.37338281 3.8703962e-39
2.3332222 -0.67883426 -0.37445232 3.7785789e-39
2.3661559 -0.66688818 -0.38413587 3.776767e-39
2.3909659 -0.66063589 -0.38816419 3.5930932e-39
2.3717618 -0.6471982 -0.39389205 3.2250646e-39
2.3981862 -0.64297974 -0.39034259 3.5941806e-39
2.4258723 -0.63409829 -0.38931885 4.4196323e-39
2.4435432 -0.63704205 -0.4119041 4.2366634e-39
2.4793484 -0.63525391 -0.4117589 5.2439826e-39
2.5118108 -0.63397199 -0.41246465 7.7386413e-39
2.2293315 -0.90666133 -0.31921971 1.2715798e-38
2.2500803 -0.90681362 -0.30905893 1.3631257e-38
2.2318196 -0.88230628 -0.31887794 1.4273035e-38
2.2524545 -0.87303692 -0.31352198 1.3902438e-38
2.3210392 -0.86870223 -0.33376649 8.3843695e-39
2.3518207 -0.87199259 -0.34253144 4.691941e-39
2.2532048 -0.86402893 -0.32401311 1.2980844e-38
2.280473 -0.86191094 -0.32791477 1.1783006e-38
2.3027143 -0.86310595 -0.34389088 9.8544381e-39
2.3488412 -0.85582012 -0.34730074 3.1321235e-39
2.3493009 -0.82390755 -0.34651536 3.1317647e-39
2.3629825 -0.83468604 -0.36602598 2.4010366e-39
2.350601 -0.79408181 -0.34670657 3.4079873e-39
2.3488028 -0.76753241 -0.34644526 3.7778446e-39
2.3163888 -0.72353619 -0.35024047 3.501985e-39
2.3350511 -0.73452711 -0.34269634 4.0544343e-39
2.3163805 -0.71499676 -0.35024047 3.5027151e-39
2.3363869 -0.70146263 -0.34375528 4.2373934e-39
2.3444149 -0.68142557 -0.34869677 4.1455537e-39
2.3775392 -0.6710375 -0.35263553 3.6852874e-39
2.397964 -0.662839 -0.36258239 3.5001801e-39
2.4073513 -0.64544803 -0.36399731 3.9615268e-39
2.4306021 -0.63409352 -0.37202364 4.6050941e-39
2.4510946 -0.63850242 -0.36155072 4.882037e-39
2.4821374 -0.63869148 -0.38451216 4.9745829e-39
2.5179429 -0.63861173 -0.39005801 4.5161243e-39
2.5410655 -0.63247478 -0.40151921 1.0766341e-38
2.5368261 -0.62468088 -0.39298502 1.4932742e-38
2.2237983 -0.91144907 -0.295243 1.317498e-38
2.2549906 -0.91231829 -0.29112306 1.372454e-38
2.2413886 -0.88708532 -0.28390494 1.4827262e-38
2.254688 -0.88201642 -0.29211947 1.4454894e-38
2.280674 -0.86826557 -0.30698314 1.2335824e-38
2.312794 -0.87158024 -0.30706334 1.0864278e-38
2.3546743 -0.87482089 -0.31694233 4.8805922e-39
2.2609892 -0.86431307 -0.29024276 1.3073019e-38
2.3583415 -0.85388523 -0.31861925 2.4863995e-39
2.3566251 -0.82366294 -0.31720436 2.6711467e-39
2.3503578 -0.79310662 -0.31726453 3.4994739e-39
2.3284481 -0.76906782 -0.30630982 3.5923743e-39
2.3509753 -0.76573557 -0.3176637 3.6849413e-39
2.3425333 -0.73279989 -0.31532735 3.9622345e-39
2.3425035 -0.7027064 -0.31532741 4.0551546e-39
2.3533878 -0.67983145 -0.31404066 4.1455551e-39
2.3811696 -0.67093086 -0.32491681 3.5938233e-39
2.4049599 -0.66283202 -0.33700064 3.6842365e-39
2.3618803 -0.65556037 -0.30495524 3.87042e-39
2.3902903 -0.65156865 -0.32615542 3.9615156e-39
2.4159834 -0.64932126 -0.33346975 4.3295891e-39
2.4388878 -0.64305037 -0.34175703 4.6976499e-39
2.4678447 -0.64462137 -0.34581384 4.7887637e-39
2.5016134 -0.64327824 -0.35425451 5.3415858e-39
2.5252957 -0.6386044 -0.36317006 5.5277679e-39
2.5477364 -0.63285893 -0.3711251 8.5529387e-39
2.5429995 -0.62467468 -0.37041026 1.3638007e-38
2.2464633 -0.90897131 -0.26542866 1.3724206e-38
2.2639947 -0.90656227 -0.26300246 1.4367026e-38
2.2693417 -0.88198417 -0.26303154 1.4361266e-38
2.2928245 -0.87453139 -0.26257524 1.2244001e-38
2.3281612 -0.87013 -0.27929631 7.2758415e-39
2.3575006 -0.87332082 -0.2914381 3.6813428e-39
2.3814173 -0.86954463 -0.29874247 2.579663e-39
2.2647116 -0.86450422 -0.27309307 1.2978319e-38
2.3077881 -0.86591554 -0.26848245 9.3920404e-39
2.3652079 -0.85392416 -0.2859298 2.3034474e-39
2.3390086 -0.8174476 -0.26787049 2.5778959e-39
2.3666172 -0.82554543 -0.28825465 2.6711509e-39
2.3521352 -0.79094416 -0.28649518 3.3165147e-39
2.3389659 -0.77475029 -0.26787049 3.408709e-39
2.350502 -0.76288557 -0.28629971 3.7774943e-39
2.3350954 -0.73376483 -0.28187338 4.1441146e-39
2.3519735 -0.72275937 -0.28077051 4.0544581e-39
2.3366473 -0.70857185 -0.27610746 3.9633163e-39
2.3501582 -0.70269877 -0.28733641 4.1477159e-39
2.3604248 -0.67668182 -0.28829771 3.9608051e-39
2.3840852 -0.66245931 -0.28822938 3.9615114e-39
2.3943849 -0.65485269 -0.29603186 3.9625806e-39
2.4252155 -0.64685673 -0.30315426 4.4224895e-39
2.4448001 -0.64304447 -0.32013801 4.6980157e-39
2.4810305 -0.64316237 -0.32033876 4.9735165e-39
2.4990506 -0.63867462 -0.32266566 5.4345213e-39
2.5326488 -0.63859707 -0.33628213 4.0584098e-39
2.5694175 -0.63639325 -0.34587762 8.554354e-39
2.3038027 -0.91588825 -0.23774728 1.418335e-38
2.2841351 -0.88219237 -0.23751462 1.4454174e-38
2.2994423 -0.86824679 -0.23835275 1.1879893e-38
2.3712308 -0.87197316 -0.27155417 2.2094735e-39
2.3132582 -0.86022925 -0.23979388 9.1158066e-39
2.332226 -0.86022407 -0.25018111 5.7124843e-39
2.3646355 -0.85241622 -0.25827312 2.1186862e-39
2.3435054 -0.80890357 -0.25139651 2.3949242e-39
2.3585036 -0.82628912 -0.25727195 2.3952773e-39
2.3430324 -0.7867015 -0.25304386 3.5913192e-39
2.3579922 -0.80095571 -0.25904918 3.1314144e-39
2.3418541 -0.7666561 -0.25017095 3.4094362e-39
2.3596072 -0.75992972 -0.26165748 3.9608051e-39
2.3428695 -0.73631889 -0.25345576 3.6874524e-39
2.3610771 -0.72903037 -0.25424495 3.9626128e-39
2.3586886 -0.70190859 -0.25614101 4.0562322e-39
2.3691659 -0.67649907 -0.25817043 5.1579106e-39
2.3904123 -0.6646328 -0.26510063 9.4907311e-39
2.3748205 -0.65554744 -0.25763705 8.0188604e-39
2.40113 -0.65447885 -0.26630965 8.108891e-39
2.4292612 -0.64992034 -0.27571222 7.3713204e-39
2.455442 -0.64303386 -0.28122377 9.028304e-39
2.4882267 -0.64315516 -0.29402426 8.0163465e-39
2.5067787 -0.63500303 -0.29439297 7.2830862e-39
2.5387764 -0.63859093 -0.31387556 5.6257257e-39
2.5685868 -0.63402343 -0.3128936 1.0024828e-38
2.5267956 -0.62481928 -0.28939682 9.0002682e-39
2.5615201 -0.62465614 -0.30268601 1.5765776e-38
2.3352423 -0.93943304 -0.22522427 1.3085296e-38
2.3162594 -0.91310376 -0.21341661 1.4549612e-38
2.2917354 -0.88020039 -0.2097142 1.5099176e-38
2.3068123 -0.87800521 -0.2114388 1.3903864e-38
2.2947278 -0.85629004 -0.19868524 1.0772468e-38
2.315979 -0.85337883 -0.21422409 9.4838801e-39
2.335149 -0.84610462 -0.22522427 3.9604478e-39
2.3641918 -0.84455442 -0.23653778 1.4744014e-39
2.2905202 -0.82755601 -0.19627492 5.3430025e-39
2.3213508 -0.82420093 -0.20862511 1.750645e-39
2.3403108 -0.81983942 -0.22046798 1.290736e-39
2.3647351 -0.82090896 -0.23446439 1.9368173e-39
2.3505607 -0.79123664 -0.21921311 2.7626193e-39
2.3664169 -0.80156142 -0.22824414 2.5807504e-39
2.348418 -0.76269996 -0.22107714 3.4998256e-39
2.3652356 -0.7542727 -0.23239098 3.6849441e-39
2.3471286 -0.72952414 -0.21890026 3.7771285e-39
2.3646491 -0.73492736 -0.23446439 3.9611555e-39
2.3524172 -0.71069092 -0.21844853 4.0547986e-39
2.3659918 -0.70022625 -0.22942904 4.0555105e-39
2.3743708 -0.67485607 -0.2290235 5.8954798e-39
2.398458 -0.66026509 -0.23566405 9.6765671e-39
2.4134493 -0.65593451 -0.24148457 9.6769314e-39
2.4412496 -0.64690948 -0.24720751 8.2932613e-39
2.4601717 -0.64302909 -0.26392853 8.6606187e-39
2.4898109 -0.63684803 -0.26261866 8.2010572e-39
2.5135386 -0.62950051 -0.26965433 6.9146736e-39
2.5239224 -0.61933523 -0.27258822 1.3263918e-38
2.5485618 -0.61999756 -0.27802491 1.6138895e-38
2.3267553 -0.93333143 -0.19937061 1.281231e-38
2.3453135 -0.93942297 -0.18839671 7.0119476e-39
2.3263433 -0.91786069 -0.18734278 8.2867999e-39
2.293329 -0.88373446 -0.17495187 7.2762479e-39
2.288363 -0.85458994 -0.17595722 6.5386758e-39
2.2723746 -0.83506286 -0.17040761 3.7746342e-39
2.29282 -0.82520479 -0.17697096 3.9608037e-39
2.3252995 -0.81621349 -0.18404849 2.6729432e-39
2.3451862 -0.81215698 -0.18839674 1.9364782e-39
2.3500135 -0.79350328 -0.18963146 2.2105259e-39
2.3495431 -0.75994748 -0.19295248 3.1324906e-39
2.352036 -0.73078775 -0.18929605 3.5016277e-39
2.3594937 -0.70763403 -0.19256082 3.8721828e-39
2.3737667 -0.69899017 -0.20099369 3.9636722e-39
2.3830063 -0.67641342 -0.20178315 5.4341331e-39
2.4134603 -0.66248125 -0.21114121 9.9517246e-39
2.4203959 -0.65592754 -0.21608333 9.4907395e-39
2.4461963 -0.64959717 -0.21838695 7.7419008e-39
2.4712076 -0.64301807 -0.22357303 7.7375722e-39
2.5013771 -0.64219087 -0.2322858 8.293627e-39
2.5254319 -0.63330144 -0.2375508 8.2885963e-39
2.5571496 -0.62928075 -0.24665566 1.2985529e-38
2.5955322 -0.62929368 -0.25035742 1.660022e-38
2.5763366 -0.62464136 -0.24850655 1.6600216e-38
2.3305426 -0.91536885 -0.15512891 6.1756821e-39
2.3084633 -0.88226247 -0.14855352 5.5281463e-39
2.3248601 -0.89333326 -0.14549978 5.8979882e-39
2.2996619 -0.85268909 -0.14878519 4.8831314e-39
2.3021224 -0.82388389 -0.14740267 4.6061717e-39
2.3299806 -0.81525964 -0.15681814 3.8678991e-39
2.3530192 -0.81214917 -0.1597531 2.9459245e-39
2.3399618 -0.79844838 -0.15058577 2.7593795e-39
2.3575249 -0.79050058 -0.16215339 2.5785868e-39
2.3811378 -0.78005123 -0.17433554 2.5786078e-39
2.3658063 -0.75970548 -0.16398072 3.1313976e-39
2.3839579 -0.76500171 -0.16396849 3.2232247e-39
2.3398943 -0.7310136 -0.15058577 4.0501267e-39
2.3622022 -0.72918713 -0.16141054 3.6842126e-39
2.3641763 -0.70636016 -0.16509391 4.1455509e-39
2.3827548 -0.6962176 -0.16811533 4.1473348e-39
2.3900487 -0.67468709 -0.17402616 5.8947484e-39
2.4226933 -0.66465193 -0.17738619 9.3063566e-39
2.4457667 -0.66058111 -0.18777362 8.7538821e-39
2.4575844 -0.65121096 -0.1905604 7.5560774e-39
2.4767256 -0.64301258 -0.20339525 7.6421661e-39
2.5082479 -0.64421958 -0.20375764 7.9241396e-39
2.5336251 -0.63588774 -0.20987469 8.477298e-39
2.5645027 -0.62927341 -0.21976772 1.2528141e-38
2.5837541 -0.63399547 -0.22141685 1.2805088e-38
2.5644934 -0.61998165 -0.21976772 1.5581436e-38
2.5812752 -0.62463641 -0.23044676 1.5864107e-38
2.3405511 -0.90732074 -0.1286107 6.2696784e-39
2.3150573 -0.89576882 -0.12449031 5.4352234e-39
2.3366888 -0.88071448 -0.12646206 5.5277749e-39
2.3128181 -0.85003537 -0.13251138 4.8845845e-39
2.3314464 -0.85565883 -0.12127725 4.9774864e-39
2.3159871 -0.82848716 -0.12084445 4.5161481e-39
2.3376286 -0.82042557 -0.12453762 4.332103e-39
2.3642097 -0.81213796 -0.11883352 3.4115858e-39
2.3444171 -0.80687332 -0.13432418 3.0431494e-39
2.362745 -0.79156142 -0.13122241 3.039202e-39
2.370163 -0.76075065 -0.13343076 3.4065468e-39
2.3432295 -0.73101026 -0.13838959 4.1444859e-39
2.3615682 -0.72850859 -0.12818657 3.9615184e-39
2.3935518 -0.71985167 -0.12872054 3.9636694e-39
2.3432126 -0.71415156 -0.13838959 3.6874567e-39
2.3744915 -0.70981497 -0.13772593 3.5963344e-39
2.3941317 -0.69605571 -0.13999295 4.5143349e-39
2.4026353 -0.67834586 -0.14734317 6.1702661e-39
2.4328718 -0.66815144 -0.14624502 9.6751237e-39
2.4603989 -0.6659742 -0.16006747 9.3063384e-39
2.4703009 -0.65277159 -0.16247775 7.2801911e-39
2.485007 -0.64748687 -0.17312863 7.4609881e-39
2.5202143 -0.64766991 -0.17707093 8.4776609e-39
2.5438178 -0.64017117 -0.18171684 8.9382789e-39
2.5718651 -0.63855785 -0.19287977 1.1236327e-38
2.6008227 -0.63868934 -0.19503407 1.4468213e-38
2.3487544 -0.900114 -0.1036422 5.621079e-39
2.3462913 -0.87966776 -0.097409375 5.251551e-39
2.3259833 -0.85417992 -0.084384933 5.2500908e-39
2.3380663 -0.85146683 -0.097054757 5.0671597e-39
2.3230283 -0.82369238 -0.095079713 4.5161369e-39
2.344502 -0.82080978 -0.095467329 4.6994576e-39
2.3664477 -0.81213576 -0.11064966 3.501992e-39
2.3558941 -0.79562271 -0.092314988 3.4090691e-39
2.368665 -0.79130816 -0.10246579 3.1324794e-39
2.383311 -0.76156843 -0.10566499 3.6842197e-39
2.400399 -0.76283568 -0.10383963 3.8678906e-39
2.3743019 -0.72831237 -0.10436843 3.7796411e-39
2.3958197 -0.71984941 -0.12042692 4.1477047e-39
2.3817008 -0.71066171 -0.11136749 4.0555063e-39
2.4053018 -0.69696754 -0.11324045 4.7905588e-39
2.4110022 -0.6814819 -0.12542444 6.8098649e-39
2.4349773 -0.6777209 -0.12240661 9.9520623e-39
2.4722884 -0.67044669 -0.12949599 9.39889e-39
2.4962559 -0.66316456 -0.13205247 8.2907361e-39
2.5314221 -0.66129911 -0.13613725 8.4779916e-39
2.4909239 -0.65196347 -0.15150961 6.8999698e-39
2.5186305 -0.6543541 -0.14876814 8.8417715e-39
2.54497 -0.65084153 -0.15479656 9.4910926e-39
2.5841386 -0.65712899 -0.14806652 9.6733188e-39
2.5961103 -0.64334452 -0.17626737 1.3358277e-38
2.3931556 -0.90278792 -0.070182554 6.3596684e-39
2.3591666 -0.87889528 -0.070543021 5.1611574e-39
2.3788373 -0.89272523 -0.065638177 5.9934208e-39
2.3281727 -0.85001999 -0.076363891 5.0675142e-39
2.3508615 -0.85768604 -0.062421098 4.8845607e-39
2.3314505 -0.83754331 -0.064332269 4.9756675e-39
2.3499258 -0.82338238 -0.066583641 4.9756703e-39
2.3586304 -0.79492301 -0.067143388 3.1321263e-39
2.3757446 -0.78384513 -0.076550052 3.4083362e-39
2.3833244 -0.76151979 -0.0749956 3.8689696e-39
2.3730898 -0.74001169 -0.086097948 3.9626142e-39
2.4082546 -0.73201019 -0.08051572 4.5150621e-39
2.4205458 -0.71032864 -0.090631574 4.5157698e-39
2.4420311 -0.70125788 -0.088611796 6.7230727e-39
2.4784381 -0.69753194 -0.089921176 9.1233807e-39
2.4423287 -0.68430936 -0.10565668 1.0409065e-38
2.4788566 -0.67931789 -0.10551129 1.0045697e-38
2.5027704 -0.67436451 -0.10827152 7.8323111e-39
2.5270565 -0.66628593 -0.11312599 8.0155898e-39
2.5730708 -0.66167581 -0.12031715 8.1006009e-39
2.6241703 -0.65755862 -0.14574011 1.215649e-38
2.5510166 -0.65694189 -0.1327085 8.8471581e-39
2.587815 -0.65712529 -0.13462257 8.9310973e-39
2.3702791 -0.87596822 -0.040006768 5.3451941e-39
2.3833094 -0.88847858 -0.049270391 5.1586771e-39
2.3693299 -0.85218424 -0.039059237 4.8852712e-39
2.3657138 -0.82114166 -0.038303871 4.9760473e-39
2.3637347 -0.79795069 -0.043435421 3.7771257e-39
2.3848257 -0.7885496 -0.043359768 3.9600751e-39
2.3934109 -0.76534539 -0.047420848 4.1451936e-39
2.414001 -0.75637341 -0.05407786 4.4239399e-39
2.4175317 -0.73396289 -0.056248359 4.6987289e-39
2.447969 -0.72125041 -0.054839507 4.885983e-39
2.4270217 -0.71609348 -0.066972576 4.6083171e-39
2.4567621 -0.7084375 -0.065965265 5.2518887e-39
2.4844432 -0.69546354 -0.07409367 5.617814e-39
2.5098784 -0.68780506 -0.082328707 5.4345199e-39
2.4924061 -0.68301892 -0.081755869 5.712169e-39
