# .PCD v0.7 - Point Cloud Data file format
VERSION 0.7
FIELDS x y z rgb
SIZE 4 4 4 4
TYPE F F F F
COUNT 1 1 1 1
WIDTH 1025
HEIGHT 1
VIEWPOINT 0 0 0 1 0 0 0
POINTS 1025
DATA ascii
5.6833749 -3.9711134 -1.0273982 1.1985432e-39
5.6337786 -3.8614793 -1.0462382 2.7658689e-40
5.6077785 -3.8851326 -1.0430754 3.6878252e-40
5.6131597 -3.8485491 -1.0528208 3.6878252e-40
5.5848031 -3.8886504 -1.0443672 3.6878252e-40
5.5537758 -3.9122286 -1.0371549 5.5317378e-40
5.5626011 -3.89294 -1.0501801 3.6878252e-40
5.5250401 -3.8972015 -1.0446544 5.5317378e-40
5.5089211 -3.8810892 -1.0557832 3.6878252e-40
5.5027103 -3.9000678 -1.0430754 3.6878252e-40
5.4910173 -3.8817728 -1.0462382 3.6878252e-40
5.8062754 -3.9787583 -0.98738265 2.7658689e-40
5.7816739 -4.0116072 -0.98386043 3.6878252e-40
5.7893958 -3.9849658 -0.98581004 2.7658689e-40
5.7539959 -4.0449004 -0.98776406 3.6878252e-40
5.7546597 -4.0171137 -0.9829101 3.6878252e-40
5.7278523 -4.0197792 -0.98653257 3.6878252e-40
5.7113581 -3.9957082 -0.98401129 3.6878252e-40
5.6855736 -3.9645739 -0.99546677 4.6097815e-40
5.6478724 -3.8938766 -1.0116386 5.5317378e-40
5.6403089 -3.8740425 -1.0099208 7.3756504e-40
5.6068778 -3.8787949 -1.0099208 3.6878252e-40
5.6136065 -3.8460426 -1.0227137 4.6097815e-40
5.5825157 -3.9027598 -1.0095495 3.6878252e-40
5.5928078 -3.8826423 -1.0193936 3.6878252e-40
5.5575376 -3.9173119 -1.0073544 3.6878252e-40
5.5290833 -3.9133308 -1.0072246 3.6878252e-40
5.4971361 -3.8951335 -1.0137099 3.6878252e-40
5.8226948 -3.9388549 -0.96353543 3.6878252e-40
5.821239 -3.9191341 -0.96157402 2.7658689e-40
5.8075647 -3.9656751 -0.96343374 2.7658689e-40
5.8132477 -3.9384186 -0.95441222 2.7658689e-40
5.7764187 -4.0028191 -0.96107894 5.5317378e-40
5.7825356 -3.9800949 -0.95583153 3.6878252e-40
5.7498174 -4.0047374 -0.96339446 3.6878252e-40
5.7522058 -3.9836752 -0.95208424 4.6097815e-40
5.7319846 -4.0085158 -0.96977204 3.6878252e-40
5.7188101 -3.9880166 -0.95863456 6.4536941e-40
5.6912198 -3.9747252 -0.9566856 1.3829344e-39
5.6815567 -3.9583247 -0.96049434 3.6878252e-40
5.6546721 -3.9083335 -0.98522633 3.6878252e-40
5.6061053 -3.8733625 -0.98150253 3.6878252e-40
5.6121898 -3.8476298 -0.99465179 4.6097815e-40
5.5887518 -3.9047427 -0.98030734 3.6878252e-40
5.5615993 -3.9366894 -0.96256238 3.6878252e-40
5.5635748 -3.9200699 -0.97900724 2.7658689e-40
5.5284424 -3.9159684 -0.97925633 3.6878252e-40
5.5046654 -3.9069002 -0.97403586 4.6097815e-40
5.4914207 -3.8892028 -0.97913438 3.6878252e-40
5.4769006 -3.8898818 -0.97202981 3.6878252e-40
5.8219509 -3.9336231 -0.93616569 2.7658689e-40
5.8227935 -3.9116964 -0.94127476 3.6878252e-40
5.8013949 -3.9582641 -0.933595 2.7658689e-40
5.810514 -3.9356935 -0.93844652 2.7658689e-40
5.778861 -3.97594 -0.93184882 3.6878252e-40
5.7500806 -3.9779572 -0.93070912 3.6878252e-40
5.7185502 -3.971786 -0.9323203 4.6097815e-40
5.6968169 -3.9703965 -0.93856883 1.2907388e-39
5.6086793 -3.8902814 -0.96463513 2.7658689e-40
5.6073799 -3.8676393 -0.95308429 2.7658689e-40
5.6121955 -3.8477948 -0.96033484 2.7658689e-40
5.5803094 -3.929816 -0.9409554 5.5317378e-40
5.5930343 -3.904074 -0.95010871 5.5317378e-40
5.5590353 -3.9326143 -0.93979782 3.6878252e-40
5.5389738 -3.9338858 -0.93169522 3.6878252e-40
5.5283246 -3.9196231 -0.95102137 3.6878252e-40
5.4968538 -3.9029694 -0.94818395 3.6878252e-40
5.4861946 -3.8867133 -0.96255708 3.6878252e-40
5.4766431 -3.8880711 -0.96255708 3.6878252e-40
5.8214555 -3.9301353 -0.91791916 2.7658689e-40
5.8192677 -3.9002182 -0.9132548 2.7658689e-40
5.8251786 -3.8701484 -0.91370684 3.6878252e-40
5.7990656 -3.9508724 -0.90348786 3.6878252e-40
5.8120079 -3.9296989 -0.90879595 2.7658689e-40
5.7755432 -3.9630806 -0.90305257 4.6097815e-40
5.7493439 -3.9674819 -0.90148854 3.6878252e-40
5.7171445 -3.9604406 -0.90233523 3.6878252e-40
5.6071467 -3.8794997 -0.90823102 2.7658689e-40
5.6046896 -3.8634033 -0.92940241 2.7658689e-40
5.5804882 -3.9243729 -0.91317481 2.7658689e-40
5.5902004 -3.8915641 -0.92257446 3.6878252e-40
5.5902338 -3.8645346 -0.92466605 3.6878252e-40
5.5571451 -3.9276912 -0.91317487 3.6878252e-40
5.5384703 -3.9303458 -0.91317487 3.6878252e-40
5.5235605 -3.9142361 -0.91992593 3.6878252e-40
5.494678 -3.8984871 -0.92361385 4.6097815e-40
5.4749513 -3.9019578 -0.92703241 3.6878252e-40
5.4707088 -3.8806014 -0.91992968 3.6878252e-40
5.4571686 -3.862386 -0.92215556 4.6097815e-40
5.8204637 -3.9231594 -0.88142622 3.6878252e-40
5.8232036 -3.8879125 -0.88086063 2.7658689e-40
5.8264084 -3.8675478 -0.90126866 2.7658689e-40
5.7986107 -3.9435606 -0.8751601 3.6878252e-40
5.8111405 -3.9235952 -0.87686461 2.7658689e-40
5.7725844 -3.9477649 -0.87774825 3.6878252e-40
5.770988 -3.927227 -0.86622083 3.6878252e-40
5.750061 -3.9516397 -0.88119906 4.6097815e-40
5.742084 -3.9329669 -0.87458372 3.6878252e-40
5.7306924 -3.9140799 -0.86965698 3.6878252e-40
5.7152839 -3.9658132 -0.88105309 4.6097815e-40
5.7162881 -3.938561 -0.8844673 4.6097815e-40
5.7114978 -3.910574 -0.87777656 4.6097815e-40
5.6066356 -3.8759055 -0.88942957 2.7658689e-40
5.6084361 -3.8554816 -0.89151138 2.7658689e-40
5.6103802 -3.8350232 -0.89352107 2.7658689e-40
5.5748129 -3.9179561 -0.87613416 3.6878252e-40
5.5876713 -3.8920066 -0.89103377 2.7658689e-40
5.5536861 -3.922507 -0.88407147 3.6878252e-40
5.5629034 -3.9040954 -0.89660436 3.6878252e-40
5.5339303 -3.9252124 -0.8835423 3.6878252e-40
5.5207014 -3.9110038 -0.90126866 2.7658689e-40
5.5000982 -3.8991115 -0.88856816 4.6097815e-40
5.4709692 -3.8755767 -0.89435321 3.6878252e-40
5.4569092 -3.8605616 -0.91261077 3.6878252e-40
5.8395038 -3.8584094 -0.86395413 2.7658689e-40
5.8181438 -3.8868461 -0.85639375 2.7658689e-40
5.8267508 -3.8587065 -0.85618031 2.7658689e-40
5.8026857 -3.9394484 -0.85704333 3.6878252e-40
5.8022547 -3.9188538 -0.84607351 2.7658689e-40
5.785553 -3.9009039 -0.84208179 3.6878252e-40
5.779851 -3.9426944 -0.85704333 5.5317378e-40
5.7712379 -3.9234848 -0.84721398 3.6878252e-40
5.7690697 -3.904681 -0.84943515 3.6878252e-40
5.7358732 -3.8995852 -0.8547883 2.7658689e-40
5.7144957 -3.8953912 -0.86224389 2.7658689e-40
5.700551 -3.8680723 -0.85743439 4.6097815e-40
5.6094933 -3.8782747 -0.85091203 2.7658689e-40
5.6031456 -3.8525388 -0.87256587 2.7658689e-40
5.6004963 -3.8345666 -0.88397628 2.7658689e-40
5.5835395 -3.9123299 -0.85364515 2.7658689e-40
5.5894861 -3.8891294 -0.86561364 3.6878252e-40
5.557353 -3.9208963 -0.8562125 3.6878252e-40
5.5332761 -3.92061 -0.85946584 2.7658689e-40
5.5193076 -3.9011962 -0.84996122 3.6878252e-40
5.5032272 -3.8939116 -0.8641839 3.6878252e-40
5.4834919 -3.8677003 -0.86309308 3.6878252e-40
5.4743261 -3.8717742 -0.87730223 3.6878252e-40
5.4596696 -3.8523514 -0.87252253 3.6878252e-40
5.8155813 -3.8780077 -0.82674056 3.6878252e-40
5.8264031 -3.8479335 -0.827061 2.7658689e-40
5.7962942 -3.8870239 -0.82169271 3.6878252e-40
5.764441 -3.8893261 -0.8212927 3.6878252e-40
5.7386823 -3.8868368 -0.83600676 3.6878252e-40
5.7293253 -3.8664305 -0.82477391 2.7658689e-40
5.7120647 -3.8639574 -0.82588589 2.7658689e-40
5.6873059 -3.8344791 -0.84130579 3.6878252e-40
5.6614981 -3.8147266 -0.82670736 3.6878252e-40
5.611897 -3.8813391 -0.82734919 2.7658689e-40
5.6165724 -3.8441646 -0.8394112 2.7658689e-40
5.6088238 -3.8240757 -0.83625215 2.7658689e-40
5.5870986 -3.9060967 -0.82427722 3.6878252e-40
5.5560436 -3.9137485 -0.824175 3.6878252e-40
5.5320244 -3.9137192 -0.82321888 5.5317378e-40
5.5003653 -3.8873799 -0.82860541 3.6878252e-40
5.4831057 -3.864984 -0.84888393 3.6878252e-40
5.4683924 -3.8643045 -0.83467484 3.6878252e-40
5.460165 -3.8489304 -0.85534179 3.6878252e-40
5.865695 -3.8401325 -0.78932512 2.7658689e-40
5.8451638 -3.8381052 -0.79913145 2.7658689e-40
5.8155708 -3.8692851 -0.8020528 2.7658689e-40
5.820014 -3.8415809 -0.79862118 2.7658689e-40
5.7948275 -3.8707893 -0.79464465 2.7658689e-40
5.7929859 -3.8518324 -0.79632157 3.6878252e-40
5.7613702 -3.8751841 -0.79279262 2.7658689e-40
5.765614 -3.8561783 -0.79865372 3.6878252e-40
5.7382231 -3.8780229 -0.79047763 3.6878252e-40
5.7249799 -3.862864 -0.80331802 3.6878252e-40
5.7072868 -3.8547838 -0.80173856 3.6878252e-40
5.6826615 -3.8292279 -0.81099296 2.7658689e-40
5.660069 -3.8115792 -0.80952668 2.7658689e-40
5.6315069 -3.7736378 -0.8104251 3.6878252e-40
5.6094542 -3.8719194 -0.80071026 2.7658689e-40
5.5865545 -3.900034 -0.79279262 2.7658689e-40
5.554873 -3.9070637 -0.79321748 3.6878252e-40
5.5258617 -3.9086614 -0.79279262 3.6878252e-40
5.5069356 -3.9095459 -0.7835325 3.6878252e-40
5.4900742 -3.8879645 -0.8030017 4.6097815e-40
5.471375 -3.8768001 -0.79542267 4.6097815e-40
5.4631019 -3.861362 -0.81572926 8.2976067e-40
5.8468003 -3.8365276 -0.77025497 2.7658689e-40
5.8213782 -3.8598819 -0.75806701 2.7658689e-40
5.8220453 -3.8406787 -0.77789116 1.8439126e-40
5.7965589 -3.8668149 -0.76439124 3.6878252e-40
5.7632089 -3.8695049 -0.76501215 3.6878252e-40
5.73316 -3.8735187 -0.76368922 3.6878252e-40
5.7023973 -3.8550842 -0.77334034 3.6878252e-40
5.6756535 -3.8524339 -0.76663011 3.6878252e-40
5.6676908 -3.8267376 -0.78731102 4.6097815e-40
5.6388144 -3.7910924 -0.79448146 2.7658689e-40
5.6158485 -3.8907101 -0.76633501 1.8439126e-40
5.6204963 -3.8704395 -0.76600355 2.7658689e-40
5.6145129 -3.8296783 -0.76362914 2.7658689e-40
5.5857997 -3.8947237 -0.76501215 2.7658689e-40
5.5539436 -3.9014544 -0.76628488 3.6878252e-40
5.5251069 -3.9033511 -0.76501209 3.6878252e-40
5.4983568 -3.9066374 -0.76236635 3.6878252e-40
5.4844842 -3.8925023 -0.77999651 3.6878252e-40
5.4781685 -3.9082174 -0.75575197 3.6878252e-40
5.8752389 -3.8666446 -0.7317813 1.8439126e-40
5.8606215 -3.8511429 -0.7418617 2.7658689e-40
5.8428912 -3.8340178 -0.74134928 2.7658689e-40
5.822011 -3.8559542 -0.73838913 2.7658689e-40
5.8265486 -3.8347816 -0.73335332 2.7658689e-40
5.7944899 -3.8719628 -0.73360384 3.6878252e-40
5.7605562 -3.8726814 -0.73482448 4.6097815e-40
5.7378697 -3.9033196 -0.7194885 2.7658689e-40
5.7343545 -3.8766654 -0.74060756 6.4536941e-40
5.7056103 -3.9074607 -0.71720773 3.6878252e-40
5.7052112 -3.8824756 -0.73913658 3.6878252e-40
5.6781363 -3.9122555 -0.72176933 1.8439126e-40
5.6754556 -3.8906503 -0.73430997 2.7658689e-40
5.6384215 -3.8615239 -0.73335332 1.8439126e-40
5.6086397 -3.8878651 -0.74649179 2.7658689e-40
5.6101747 -3.8583059 -0.74315083 2.7658689e-40
5.6142554 -3.8278677 -0.75415635 2.7658689e-40
5.5900807 -3.9010193 -0.73360384 2.7658689e-40
5.5601168 -3.9114389 -0.73178136 4.6097815e-40
5.5287514 -3.9076843 -0.73421133 3.6878252e-40
5.5001755 -3.9021997 -0.74093568 3.6878252e-40
5.4833436 -3.8844776 -0.73801762 2.7658689e-40
5.4732485 -3.9071109 -0.74649179 4.6097815e-40
5.4623265 -3.8825982 -0.73943394 2.7658689e-40
5.8435726 -3.8243918 -0.715931 1.8439126e-40
5.8154516 -3.8516948 -0.71176612 2.7658689e-40
5.8222284 -3.8313935 -0.71283036 2.7658689e-40
5.7937384 -3.8666775 -0.70595455 3.6878252e-40
5.7603102 -3.8961265 -0.6989612 4.6097815e-40
5.7679038 -3.8765244 -0.70420623 3.6878252e-40
5.7389669 -3.9172971 -0.69701171 2.7658689e-40
5.7405972 -3.8989289 -0.69896114 4.6097815e-40
5.711237 -3.9188833 -0.68493384 4.6097815e-40
5.7050524 -3.9035366 -0.69668037 3.6878252e-40
5.7032757 -3.8875041 -0.71339786 2.7658689e-40
5.6792688 -3.9234276 -0.68493384 2.7658689e-40
5.6775784 -3.9083314 -0.70124203 3.6878252e-40
5.6770153 -3.891237 -0.71339792 2.7658689e-40
5.645071 -3.9107285 -0.68983793 2.7658689e-40
5.64431 -3.8823473 -0.7107895 1.8439126e-40
5.6287618 -3.8610778 -0.72402471 1.8439126e-40
5.6146245 -3.8850665 -0.70309556 1.8439126e-40
5.6099491 -3.8637521 -0.72402465 2.7658689e-40
5.5852761 -3.9192283 -0.68983793 3.6878252e-40
5.589447 -3.8985472 -0.70710039 2.7658689e-40
5.5576782 -3.9231513 -0.68983793 2.7658689e-40
5.5594387 -3.9066699 -0.70683241 2.7658689e-40
5.5315623 -3.9101202 -0.70420623 3.6878252e-40
5.4955854 -3.8967121 -0.70945108 3.6878252e-40
5.4582052 -3.8759587 -0.71557337 3.6878252e-40
5.4316154 -3.8455167 -0.71152896 3.6878252e-40
5.8433495 -3.8178022 -0.68490881 2.7658689e-40
5.8142662 -3.8521817 -0.67999077 3.6878252e-40
5.8251548 -3.8249738 -0.68204588 2.7658689e-40
5.7835698 -3.9033017 -0.65775865 2.7658689e-40
5.7907944 -3.8860998 -0.66976678 4.6097815e-40
5.797339 -3.8674109 -0.67892897 2.7658689e-40
5.7654252 -3.9067643 -0.66228789 3.6878252e-40
5.7712512 -3.890568 -0.6784339 4.6097815e-40
5.7369742 -3.9114714 -0.66568476 3.6878252e-40
5.7460155 -3.8946002 -0.68071473 2.7658689e-40
5.7107449 -3.9154203 -0.66681707 3.6878252e-40
5.6793351 -3.9213517 -0.66642463 2.7658689e-40
5.6496754 -3.9311368 -0.6622014 1.8439126e-40
5.6494231 -3.9083307 -0.68071473 2.7658689e-40
5.6238842 -3.9337468 -0.65949827 1.8439126e-40
5.6125641 -3.9131253 -0.6784339 2.7658689e-40
5.6144776 -3.8947492 -0.68582278 2.7658689e-40
5.582871 -3.9335976 -0.66681707 2.7658689e-40
5.5859303 -3.9155772 -0.6715914 2.7658689e-40
5.5737371 -3.934896 -0.66681707 4.6097815e-40
5.557147 -3.9194145 -0.67028809 2.7658689e-40
5.5234232 -3.9060788 -0.67755026 3.6878252e-40
5.492888 -3.8978677 -0.68000215 4.6097815e-40
5.4761558 -3.8940566 -0.68167061 3.6878252e-40
5.4535584 -3.8715472 -0.67637557 3.6878252e-40
5.4398727 -3.8592784 -0.68261433 2.7658689e-40
5.4214201 -3.8423476 -0.68784708 4.6097815e-40
5.4127059 -3.8258941 -0.70262468 2.7658689e-40
5.3940372 -3.8090084 -0.70792949 2.7658689e-40
5.8346252 -3.8128197 -0.653 3.6878252e-40
5.8144431 -3.8466578 -0.64875865 2.7658689e-40
5.8242674 -3.8187327 -0.64939564 4.6097815e-40
5.7830772 -3.8998387 -0.63964188 2.7658689e-40
5.7944698 -3.8805957 -0.64422166 2.7658689e-40
5.7988443 -3.8613713 -0.6490559 3.6878252e-40
5.7661548 -3.9061623 -0.6386314 4.6097815e-40
5.7422318 -3.9193535 -0.63608712 2.7658689e-40
5.7088065 -3.9119837 -0.63828456 2.7658689e-40
5.6798458 -3.9226868 -0.63839549 1.8439126e-40
5.6518359 -3.9535244 -0.62936622 1.8439126e-40
5.6619749 -3.9346766 -0.63506216 1.8439126e-40
5.6295719 -3.9557459 -0.6245299 1.8439126e-40
5.6182256 -3.9414804 -0.63805997 2.7658689e-40
5.5917997 -3.9348378 -0.63899177 2.7658689e-40
5.5706534 -3.9295931 -0.63737732 3.6878252e-40
5.5509691 -3.915565 -0.64604634 2.7658689e-40
5.5309548 -3.9167197 -0.63737929 3.6878252e-40
5.5190916 -3.9022133 -0.65457094 3.6878252e-40
5.4929905 -3.9048481 -0.64905596 3.6878252e-40
5.4610176 -3.8880818 -0.63999981 5.5317378e-40
5.4527798 -3.8719945 -0.6517278 3.6878252e-40
5.4326205 -3.8613412 -0.65274006 4.6097815e-40
5.8329134 -3.8120461 -0.62140977 3.6878252e-40
5.8132744 -3.8725848 -0.61685199 4.6097815e-40
5.821476 -3.8433449 -0.61320776 3.6878252e-40
5.7914729 -3.8933456 -0.61246675 2.7658689e-40
5.8039513 -3.8730206 -0.61229032 2.7658689e-40
5.7660904 -3.9028409 -0.61100501 2.7658689e-40
5.7398009 -3.934273 -0.59476763 3.6878252e-40
5.7428889 -3.9181323 -0.60920572 3.6878252e-40
5.7087374 -3.9197185 -0.60970825 3.6878252e-40
5.678648 -3.9250844 -0.608576 2.7658689e-40
5.650013 -3.9487774 -0.60369629 2.7658689e-40
5.661242 -3.9295194 -0.60808152 2.7658689e-40
5.623004 -3.9526167 -0.60369629 2.7658689e-40
5.5969687 -3.9583452 -0.60052806 2.7658689e-40
5.5889387 -3.9415512 -0.61707509 2.7658689e-40
5.5732441 -3.9579489 -0.59476763 2.7658689e-40
5.5581217 -3.9396365 -0.61192256 3.6878252e-40
5.535059 -3.9345086 -0.60498768 3.6878252e-40
5.52213 -3.9151571 -0.6229341 5.5317378e-40
5.5095749 -3.9148662 -0.61229032 3.6878252e-40
5.4874825 -3.8993573 -0.61688501 4.6097815e-40
5.4612718 -3.8831699 -0.61499739 5.5317378e-40
5.447506 -3.8686509 -0.63073838 2.7658689e-40
5.4462566 -3.8847623 -0.61221933 3.6878252e-40
5.4380999 -3.869988 -0.63073838 3.6878252e-40
5.8379211 -3.8254757 -0.59369898 2.7658689e-40
5.8318996 -3.8049133 -0.58409524 2.7658689e-40
5.8120351 -3.8638651 -0.57123572 3.6878252e-40
5.8184066 -3.8360076 -0.58792502 3.6878252e-40
5.7906113 -3.8872852 -0.58076233 4.6097815e-40
5.8030834 -3.8669169 -0.58035892 3.6878252e-40
5.766715 -3.9010162 -0.57836652 2.7658689e-40
5.7388544 -3.931304 -0.56936127 3.6878252e-40
5.7466593 -3.9121158 -0.58110094 2.7658689e-40
5.7147903 -3.9424274 -0.56656057 2.7658689e-40
5.7015615 -3.9202805 -0.59009445 3.6878252e-40
5.6850672 -3.9448977 -0.56715441 3.6878252e-40
5.6788902 -3.9235032 -0.59009445 3.6878252e-40
5.6690187 -3.990279 -0.5560627 2.7658689e-40
5.6648269 -3.9750051 -0.56436056 2.7658689e-40
5.6574044 -3.9525094 -0.58074576 2.7658689e-40
5.623457 -3.9631579 -0.56945771 2.7658689e-40
5.5924711 -3.955292 -0.57142264 3.6878252e-40
5.5673251 -3.9540012 -0.57021379 4.6097815e-40
5.5519314 -3.9415503 -0.59009445 3.6878252e-40
5.5317602 -3.9568806 -0.55905288 4.6097815e-40
5.5336914 -3.9399593 -0.58050865 4.6097815e-40
5.5095367 -3.938169 -0.57350427 3.6878252e-40
5.4903088 -3.9113779 -0.58035898 4.6097815e-40
5.482224 -3.8956234 -0.59390563 2.7658689e-40
5.4808617 -3.9109414 -0.57123572 3.6878252e-40
5.4634376 -3.8965011 -0.584714 4.6097815e-40
5.445879 -3.8821073 -0.59832907 2.7658689e-40
5.8372922 -3.8210504 -0.57054853 2.7658689e-40
5.8116632 -3.8612492 -0.55755085 3.6878252e-40
5.8182364 -3.8273933 -0.5591175 2.7658689e-40
5.7962642 -3.8862176 -0.5477584 3.6878252e-40
5.7591906 -3.919908 -0.53524309 3.6878252e-40
5.7695169 -3.90207 -0.546251 4.6097815e-40
5.7380075 -3.9579072 -0.53003055 3.6878252e-40
5.7432909 -3.9339697 -0.54150021 5.5317378e-40
5.7504606 -3.9063134 -0.5541203 4.6097815e-40
5.7077327 -3.977957 -0.52109748 3.6878252e-40
5.7161655 -3.9619136 -0.53465188 3.6878252e-40
5.6830821 -3.9855618 -0.5293172 2.7658689e-40
5.6868143 -3.9672446 -0.54059362 3.6878252e-40
5.6912265 -3.9502087 -0.54612821 2.7658689e-40
5.6627979 -3.9944355 -0.52800691 3.6878252e-40
5.6473761 -3.9743385 -0.54822254 2.7658689e-40
5.6295862 -3.9972289 -0.52452755 2.7658689e-40
5.6265063 -3.9761605 -0.54235417 4.6097815e-40
5.6022139 -4.0003486 -0.5231334 3.6878252e-40
5.5998783 -3.9799457 -0.54235417 3.6878252e-40
5.5689692 -3.9981084 -0.52328277 3.6878252e-40
5.5730114 -3.9820483 -0.53355157 3.6878252e-40
5.5635529 -3.9624453 -0.5474602 3.6878252e-40
5.5429554 -4.0017204 -0.52284575 3.6878252e-40
5.5330696 -3.987726 -0.53355157 3.6878252e-40
5.5392861 -3.971807 -0.54612821 3.6878252e-40
5.5072699 -4.0068789 -0.52328283 3.6878252e-40
5.51088 -3.9908803 -0.53355157 3.6878252e-40
5.5135112 -3.9577336 -0.55012423 3.6878252e-40
5.4965429 -3.9424078 -0.5541203 4.6097815e-40
5.4762406 -3.9773116 -0.52840054 2.7658689e-40
5.4668145 -3.911159 -0.56211245 3.6878252e-40
5.8106718 -3.8542736 -0.52105784 4.6097815e-40
5.8184457 -3.8294227 -0.53292865 2.7658689e-40
5.7937403 -3.8840766 -0.51911515 3.6878252e-40
5.8017201 -3.8573251 -0.53018105 3.6878252e-40
5.7675638 -3.9492426 -0.50714386 4.6097815e-40
5.7719569 -3.9235291 -0.51036388 6.4536941e-40
5.7723985 -3.8979337 -0.52713972 3.6878252e-40
5.7441421 -3.9524157 -0.50634372 4.6097815e-40
5.7530675 -3.9362323 -0.51953673 3.6878252e-40
5.7134037 -3.9735708 -0.50274074 3.6878252e-40
5.7233038 -3.9563925 -0.51154518 3.6878252e-40
5.6873817 -3.9830401 -0.50243855 3.6878252e-40
5.661006 -3.9979892 -0.50008583 3.6878252e-40
5.6303725 -4.0023441 -0.50008583 5.5317378e-40
5.6016321 -4.0045815 -0.49957687 5.5317378e-40
5.5691504 -4.0009699 -0.50222164 3.6878252e-40
5.5416489 -4.00841 -0.50238997 3.6878252e-40
5.5133462 -4.0021791 -0.5036149 3.6878252e-40
5.4924107 -3.9883556 -0.50714386 2.7658689e-40
5.4730148 -3.9683881 -0.51194006 3.6878252e-40
5.4474578 -3.9364448 -0.51941335 4.6097815e-40
5.4243021 -3.9091959 -0.52105784 3.6878252e-40
5.4070201 -3.8767955 -0.54276806 3.6878252e-40
5.8291292 -3.8632615 -0.48564923 2.7658689e-40
5.8162675 -3.8496234 -0.50129074 3.6878252e-40
5.7893815 -3.9152431 -0.48585245 3.6878252e-40
5.7967424 -3.8777344 -0.49309763 3.6878252e-40
5.7668467 -3.9441948 -0.48073617 3.6878252e-40
5.7763124 -3.9215574 -0.48496696 5.5317378e-40
5.7395387 -3.9644859 -0.47520557 3.6878252e-40
5.7502341 -3.9467709 -0.4818365 4.6097815e-40
5.7169285 -3.9723358 -0.47655973 2.7658689e-40
5.6827135 -4.0055408 -0.46495447 5.5317378e-40
5.6904578 -3.9847302 -0.47598228 3.6878252e-40
5.6668196 -4.0080805 -0.46639094 5.5317378e-40
5.6560402 -3.9944634 -0.47838566 4.6097815e-40
5.6296654 -3.9973664 -0.47404563 3.6878252e-40
5.5990319 -4.0017209 -0.47404563 3.6878252e-40
5.5683985 -4.0060754 -0.47404563 3.6878252e-40
5.5421414 -4.0098076 -0.47404563 4.6097815e-40
5.5128903 -4.0017004 -0.47520387 2.7658689e-40
5.4918127 -3.984149 -0.48513746 2.7658689e-40
5.4826975 -3.9837282 -0.4763349 6.4536941e-40
5.4663177 -3.9660585 -0.48719913 3.6878252e-40
5.4486699 -3.9538913 -0.48315915 2.7658689e-40
5.4322982 -3.9232039 -0.503766 2.7658689e-40
5.824316 -3.862179 -0.47659084 3.6878252e-40
5.8148408 -3.8423386 -0.46289706 3.6878252e-40
5.8219037 -3.8240349 -0.47441339 2.7658689e-40
5.7878337 -3.914289 -0.45609468 3.6878252e-40
5.7921801 -3.8718393 -0.46313983 3.6878252e-40
5.799861 -3.8442454 -0.46175671 3.6878252e-40
5.7670565 -3.952477 -0.43368435 2.7658689e-40
5.7711325 -3.9379451 -0.45181346 3.6878252e-40
5.7785978 -3.9155424 -0.45104244 2.7658689e-40
5.7423997 -3.9582546 -0.44533947 2.7658689e-40
5.7528152 -3.9410393 -0.45432848 2.7658689e-40
5.7161002 -3.9664984 -0.44602126 2.7658689e-40
5.6886797 -4.0072756 -0.44068697 3.6878252e-40
5.6938066 -3.9819613 -0.44180542 3.6878252e-40
5.6654277 -4.0125055 -0.4388372 3.6878252e-40
5.6342907 -4.0079422 -0.44197097 4.6097815e-40
5.6200871 -3.9928033 -0.44366539 5.5317378e-40
5.5962973 -3.9959431 -0.44242543 3.6878252e-40
5.5675731 -4.000268 -0.44366542 3.6878252e-40
5.541316 -4.0040007 -0.44366542 4.6097815e-40
5.5124836 -4.0024729 -0.44470909 3.6878252e-40
5.4873853 -3.9935107 -0.44024032 2.7658689e-40
5.4732237 -3.9807832 -0.45432848 2.7658689e-40
5.4656167 -3.9667215 -0.4663538 3.6878252e-40
5.45225 -3.9579551 -0.45913127 3.6878252e-40
5.8206854 -3.8582273 -0.42655298 2.7658689e-40
5.8207474 -3.8371251 -0.44046912 2.7658689e-40
5.7946649 -3.8723788 -0.42959577 3.6878252e-40
5.766819 -3.9508061 -0.42494303 7.3756504e-40
5.7696099 -3.9317853 -0.4191182 3.6878252e-40
5.7771955 -3.9058635 -0.4220919 4.6097815e-40
5.7445459 -3.9522674 -0.41620177 3.6878252e-40
5.7561765 -3.9328365 -0.41471693 6.4536941e-40
5.7183828 -3.9686763 -0.41401437 3.6878252e-40
5.6837077 -3.9974101 -0.40992084 4.6097815e-40
5.6936569 -3.9764206 -0.41328523 4.6097815e-40
5.669405 -4.0279732 -0.39620736 5.5317378e-40
5.6643887 -4.0136099 -0.40857494 3.6878252e-40
5.6479778 -4.0310192 -0.39620736 5.5317378e-40
5.6279387 -4.0048261 -0.4119854 4.6097815e-40
5.6008554 -4.0083022 -0.41007012 5.5317378e-40
5.5826197 -4.0082836 -0.40605929 4.6097815e-40
5.5642805 -3.9950533 -0.41452524 6.4536941e-40
5.5482082 -4.015696 -0.41898751 7.3756504e-40
5.5404606 -3.9979856 -0.41220021 5.5317378e-40
5.5142331 -4.0019255 -0.41328523 4.6097815e-40
5.4854097 -3.9891036 -0.41620171 4.6097815e-40
5.4722672 -3.9740527 -0.4191182 3.6878252e-40
5.8460593 -3.8629084 -0.40123022 2.7658689e-40
5.8261671 -3.9155915 -0.37730601 2.7658689e-40
5.8257837 -3.8873637 -0.39316523 3.6878252e-40
5.8264437 -3.8613226 -0.40592986 2.7658689e-40
5.7995992 -3.9197974 -0.37950665 6.4536941e-40
5.7979841 -3.8945301 -0.39540654 5.5317378e-40
5.7918925 -3.8723619 -0.41022375 4.6097815e-40
5.7609863 -3.9414067 -0.37249514 5.5317378e-40
5.7722754 -3.9250546 -0.38654879 3.6878252e-40
5.7746806 -3.9041324 -0.40233856 7.3756504e-40
5.7381139 -3.9794567 -0.37158409 5.5317378e-40
5.7442646 -3.9550662 -0.38551143 4.6097815e-40
5.7555785 -3.9286299 -0.39271051 3.6878252e-40
5.7182536 -3.9844878 -0.37235433 9.219563e-40
5.7167225 -3.9690795 -0.39245304 5.5317378e-40
5.6833282 -4.0213523 -0.37240764 5.5317378e-40
5.6921706 -3.9956503 -0.37893128 1.1985432e-39
5.6931853 -3.9731023 -0.39592507 5.5317378e-40
5.6653762 -4.0242362 -0.37410757 7.3756504e-40
5.6535935 -4.0099502 -0.38194031 1.0141519e-39
5.6427689 -4.0251288 -0.36220777 8.2976067e-40
5.6311026 -4.0128136 -0.38022801 6.4536941e-40
5.6043139 -4.0121298 -0.3782931 8.2976067e-40
5.5789423 -4.0032034 -0.37732995 7.3756504e-40
5.5601654 -3.9900358 -0.38579836 1.0141519e-39
5.5372896 -4.0090542 -0.37697083 6.4536941e-40
5.5434666 -3.992208 -0.38476503 6.4536941e-40
5.5209656 -4.0111647 -0.37589347 7.3756504e-40
5.5038509 -3.9979846 -0.38550904 6.4536941e-40
5.4788294 -3.992559 -0.38428673 5.5317378e-40
5.4614244 -3.9848421 -0.3768658 4.6097815e-40
5.8486528 -3.9255357 -0.35501254 1.8439126e-40
5.8522568 -3.9080205 -0.35750026 2.7658689e-40
5.8412871 -3.872833 -0.35369334 1.8439126e-40
5.8309059 -3.9272058 -0.35064194 4.6097815e-40
5.8328733 -3.9118059 -0.36278179 2.7658689e-40
5.8385906 -3.8964176 -0.37771559 2.7658689e-40
5.8363795 -3.8598995 -0.37874639 2.7658689e-40
5.8045821 -3.9317999 -0.3550126 6.4536941e-40
5.7637172 -3.9724557 -0.35434648 6.4536941e-40
5.7736855 -3.9358511 -0.3532643 1.1063476e-39
5.7681751 -3.9216895 -0.36630282 6.4536941e-40
5.7432833 -3.9742398 -0.3486006 6.4536941e-40
5.7474079 -3.952677 -0.35313141 5.5317378e-40
5.7192125 -4.0092897 -0.33670807 2.5814776e-39
5.7229128 -3.9921534 -0.34964776 9.219563e-40
5.6899719 -4.0194407 -0.34333295 7.3756504e-40
5.6950088 -3.9977188 -0.34940791 1.5673257e-39
5.6637335 -4.0188332 -0.34520796 6.4536941e-40
5.6348839 -4.0227842 -0.34443519 7.3756504e-40
5.6121936 -4.025331 -0.34095803 7.3756504e-40
5.5978184 -4.0114393 -0.34891865 6.4536941e-40
5.5703559 -4.0057197 -0.34780237 7.3756504e-40
5.5564618 -3.9849198 -0.35686481 1.1985432e-39
5.5376444 -4.0037518 -0.35003707 6.4536941e-40
5.5478277 -3.9869938 -0.36120483 8.2976067e-40
5.5167398 -4.0063868 -0.3483133 6.4536941e-40
5.4973245 -3.9929032 -0.35469478 8.2976067e-40
5.4819489 -3.9946654 -0.35252482 1.1985432e-39
5.4608307 -3.9806645 -0.35501254 1.1063476e-39
5.4528408 -3.9647975 -0.35750026 4.6097815e-40
5.431531 -3.9409583 -0.35687307 5.5317378e-40
5.8602734 -3.9666576 -0.31059736 3.6878252e-40
5.8506975 -3.9295027 -0.33200726 2.7658689e-40
5.8381243 -3.9639585 -0.31577659 6.4536941e-40
5.8403249 -3.9403369 -0.33516467 4.6097815e-40
5.8068237 -3.9702868 -0.31326413 8.2976067e-40
5.805315 -3.9453137 -0.33516467 5.5317378e-40
5.777452 -3.9677305 -0.31199494 5.5317378e-40
5.7705169 -3.9427726 -0.33263874 7.3756504e-40
5.7445774 -3.9682238 -0.31869593 6.4536941e-40
5.7548122 -3.9512231 -0.32865462 5.5317378e-40
5.7143497 -4.0058365 -0.31545833 6.4536941e-40
5.7227588 -3.987597 -0.31773159 8.2976067e-40
5.6905403 -4.0143671 -0.31652504 6.4536941e-40
5.6934948 -3.9912002 -0.31487787 1.0141519e-39
5.6626563 -4.0232115 -0.31412101 6.4536941e-40
5.631381 -4.0243168 -0.31457397 7.3756504e-40
5.6113853 -4.0196443 -0.31120837 8.2976067e-40
5.5940342 -4.006062 -0.31858772 5.5317378e-40
5.5650692 -3.9939702 -0.31987125 5.5317378e-40
5.5555186 -3.9782829 -0.32214457 8.2976067e-40
5.5350394 -3.9979026 -0.31814748 6.4536941e-40
5.5425081 -3.980979 -0.32648462 7.3756504e-40
5.509748 -4.0015535 -0.31843477 8.2976067e-40
5.5060396 -3.9861629 -0.32648459 6.4536941e-40
5.4911404 -4.0040588 -0.31771654 6.4536941e-40
5.4769239 -3.9907248 -0.32865462 8.2976067e-40
5.4557705 -3.9766958 -0.33097392 4.6097815e-40
5.4430084 -3.9593287 -0.32228997 4.6097815e-40
5.4175363 -3.9287159 -0.33137164 5.5317378e-40
5.3997488 -3.9123201 -0.32928196 4.6097815e-40
5.8679295 -3.9790323 -0.28995863 3.6878252e-40
5.8547544 -3.9585497 -0.28609738 3.6878252e-40
5.835032 -4.0117731 -0.26506379 4.6097815e-40
5.8357601 -3.984906 -0.28256205 4.6097815e-40
5.8431654 -3.9650548 -0.2899079 6.4536941e-40
5.8138957 -4.0147772 -0.26506379 6.4536941e-40
5.8137188 -3.9907377 -0.28514463 8.2976067e-40
5.7937031 -3.9733379 -0.29632878 6.4536941e-40
5.7927599 -4.0177817 -0.26506379 5.5317378e-40
5.7858934 -3.9953077 -0.27985665 8.2976067e-40
5.7742219 -3.9756899 -0.2941885 6.4536941e-40
5.7458401 -3.9659657 -0.28928122 5.5317378e-40
5.713541 -4.0001497 -0.28570867 1.2907388e-39
5.7237616 -3.9798241 -0.28798288 7.3756504e-40
5.6952257 -4.0107942 -0.28473979 9.219563e-40
5.6642284 -4.023241 -0.28377089 6.4536941e-40
5.6329551 -4.0241146 -0.28420785 7.3756504e-40
5.6028748 -4.0176697 -0.28549975 8.2976067e-40
5.5848651 -4.0176125 -0.28145874 9.219563e-40
5.5656004 -4.0020361 -0.28927571 8.2976067e-40
5.5392532 -4.0030155 -0.28835469 7.3756504e-40
5.5088468 -3.9960792 -0.28970543 7.3756504e-40
5.4925518 -3.9983954 -0.28970543 6.4536941e-40
5.4722381 -3.9846802 -0.29424444 6.4536941e-40
5.4548798 -3.9704299 -0.29819399 5.5317378e-40
5.4425297 -3.9559634 -0.30468485 8.2976067e-40
5.4023499 -3.9054272 -0.3116582 6.4536941e-40
5.3724804 -3.8747516 -0.30666146 5.5317378e-40
5.8585505 -3.9745641 -0.26020896 4.6097815e-40
5.8620653 -3.9586115 -0.27064529 3.6878252e-40
5.8382282 -4.0160851 -0.24554816 6.4536941e-40
5.8444457 -3.9799647 -0.25886595 6.4536941e-40
5.8275414 -4.0381899 -0.23681706 9.219563e-40
5.8120127 -4.0233192 -0.24814907 6.4536941e-40
5.7914371 -4.0180731 -0.24581186 7.3756504e-40
5.7762175 -4.0015593 -0.25422296 7.3756504e-40
5.7620144 -3.9874578 -0.25595903 8.2976067e-40
5.743784 -3.970978 -0.25989842 1.0141519e-39
5.7128482 -3.9952757 -0.26020896 7.3756504e-40
5.7217917 -3.9746161 -0.25695586 7.3756504e-40
5.6958776 -4.027956 -0.2466177 7.3756504e-40
5.6965866 -4.0016794 -0.25817171 7.3756504e-40
5.6590891 -4.0331039 -0.24619846 7.3756504e-40
5.6664991 -4.0162258 -0.25648543 1.2907388e-39
5.6434603 -4.0354075 -0.24661769 9.219563e-40
5.6313143 -4.0229807 -0.25844413 6.4536941e-40
5.6067576 -4.0254583 -0.25324887 7.3756504e-40
5.574698 -4.0137534 -0.25425899 9.219563e-40
5.5598121 -4.000742 -0.26636472 5.5317378e-40
5.5326319 -4.0192356 -0.25170907 6.4536941e-40
5.5376983 -3.9986048 -0.26038507 8.2976067e-40
5.5092368 -4.0216141 -0.246852 7.3756504e-40
5.5093775 -4.0034657 -0.26466557 5.5317378e-40
5.4835863 -4.0077806 -0.26096106 6.4536941e-40
5.4577093 -3.9811838 -0.26572418 6.4536941e-40
5.4326973 -3.9504943 -0.26947457 5.5317378e-40
5.4250488 -3.9379163 -0.2890774 4.6097815e-40
5.4034038 -3.9197552 -0.27512094 9.219563e-40
5.3987713 -3.9054434 -0.29330781 7.3756504e-40
5.3853006 -3.9216318 -0.27154949 4.6097815e-40
5.3809681 -3.8898702 -0.295423 7.3756504e-40
5.8594842 -4.0017567 -0.23152542 4.6097815e-40
5.8394604 -4.009058 -0.21744606 5.5317378e-40
5.8458729 -3.9875422 -0.23311734 4.6097815e-40
5.8175621 -4.0353718 -0.21509126 5.5317378e-40
5.815681 -4.0210915 -0.21961983 6.4536941e-40
5.8018303 -4.0370026 -0.21198757 6.4536941e-40
5.784833 -4.0184588 -0.21754315 6.4536941e-40
5.769145 -3.9976258 -0.2288962 7.3756504e-40
5.7525778 -3.982583 -0.22408439 6.4536941e-40
5.7401638 -3.9684269 -0.23212013 5.5317378e-40
5.7204952 -3.9875581 -0.22620939 7.3756504e-40
5.7314148 -3.9688356 -0.22783956 1.1985432e-39
5.6859398 -4.0247908 -0.22314082 1.3829344e-39
5.6946592 -3.9973657 -0.22390714 8.2976067e-40
5.6661615 -4.033596 -0.21735877 8.2976067e-40
5.6336713 -4.0312667 -0.21824984 7.3756504e-40
5.6300678 -4.0171213 -0.22748916 7.3756504e-40
5.5987782 -4.0210199 -0.22467515 6.4536941e-40
5.5681348 -4.0110302 -0.22496228 7.3756504e-40
5.5375762 -4.0130076 -0.22337608 6.4536941e-40
5.5344238 -3.9936376 -0.23252524 6.4536941e-40
5.5118256 -4.0163918 -0.22195941 6.4536941e-40
5.5070868 -4.0015588 -0.23212013 5.5317378e-40
5.4800472 -3.9952056 -0.2304723 1.2907388e-39
5.4474134 -3.9690011 -0.23560677 6.4536941e-40
5.4026108 -3.9182775 -0.24797678 5.5317378e-40
5.3834782 -3.9152741 -0.23762053 4.6097815e-40
5.3760195 -3.8976774 -0.25589317 4.6097815e-40
5.8383217 -4.0036421 -0.18980423 5.5317378e-40
5.8149147 -4.0292244 -0.18164037 7.3756504e-40
5.8211322 -4.0142245 -0.18838024 5.5317378e-40
5.801043 -4.0314655 -0.18301982 7.3756504e-40
5.7807388 -4.0175657 -0.18737246 8.2976067e-40
5.7610044 -4.006762 -0.18541011 7.3756504e-40
5.7458286 -3.9826195 -0.19825153 8.2976067e-40
5.7180758 -3.9841797 -0.19506331 7.3756504e-40
5.7309494 -3.9655626 -0.21071725 6.4536941e-40
5.6905618 -4.0209703 -0.18933684 8.2976067e-40
5.6961451 -3.9943521 -0.20109874 6.4536941e-40
5.6755238 -4.0468869 -0.17060505 8.2976067e-40
5.6657329 -4.0363145 -0.18838027 7.3756504e-40
5.6314654 -4.0293717 -0.18934283 9.219563e-40
5.6057396 -4.0294461 -0.18855433 8.2976067e-40
5.5961342 -4.0176916 -0.20568003 7.3756504e-40
5.5875745 -4.0305977 -0.18121782 8.2976067e-40
5.5704079 -4.016572 -0.19653122 6.4536941e-40
5.541492 -4.0112553 -0.19614336 8.2976067e-40
5.5097041 -4.0117202 -0.19645974 9.219563e-40
5.4838767 -4.0145626 -0.1922098 5.5317378e-40
5.4762912 -4.0017624 -0.21071725 8.2976067e-40
5.4549489 -3.991214 -0.19733693 1.1985432e-39
5.4389277 -3.9694014 -0.21403609 5.5317378e-40
5.4212985 -3.9555993 -0.19766887 9.219563e-40
5.413271 -3.9412394 -0.20785661 6.4536941e-40
5.4053674 -3.9277499 -0.22259875 5.5317378e-40
5.3874946 -3.9112208 -0.21976314 4.6097815e-40
5.3696113 -3.8955572 -0.22135952 5.5317378e-40
5.8336377 -4.021183 -0.15405205 6.4536941e-40
5.8345795 -4.0016422 -0.1600395 5.5317378e-40
5.8357544 -3.9774559 -0.1740216 4.6097815e-40
5.8159318 -4.0239019 -0.15508661 5.5317378e-40
5.8200006 -4.0062628 -0.14672752 5.5317378e-40
5.7890787 -4.0271587 -0.15221283 8.2976067e-40
5.7785287 -4.0159483 -0.16616546 6.4536941e-40
5.7518578 -4.0126266 -0.15846297 6.4536941e-40
5.7220483 -4.0057592 -0.15187177 7.3756504e-40
5.7180576 -3.9911625 -0.17057328 9.219563e-40
5.6917086 -4.0409546 -0.15198295 7.3756504e-40
5.69872 -4.0230036 -0.16175492 1.0141519e-39
5.6994386 -3.9960098 -0.16980049 6.4536941e-40
5.6667285 -4.044909 -0.15405205 6.4536941e-40
5.6638803 -4.0333285 -0.17171916 6.4536941e-40
5.6375194 -4.0490608 -0.15405205 7.3756504e-40
5.6358805 -4.0373087 -0.17171916 6.4536941e-40
5.6047044 -4.0328074 -0.16107689 6.4536941e-40
5.5826635 -4.0263901 -0.15606406 6.4536941e-40
5.5683217 -4.0144835 -0.16895628 5.5317378e-40
5.5428762 -4.0102262 -0.16608831 8.2976067e-40
5.5095158 -4.0072999 -0.1666206 7.3756504e-40
5.4831839 -4.0096884 -0.16671008 7.3756504e-40
5.4541163 -3.9892848 -0.17277183 7.3756504e-40
5.4290934 -3.9683239 -0.17892364 5.5317378e-40
5.4036775 -3.937453 -0.18144889 6.4536941e-40
5.3958273 -3.9247844 -0.20043916 7.3756504e-40
5.3843079 -3.9192715 -0.1875101 4.6097815e-40
5.8431973 -4.0150094 -0.11529756 4.6097815e-40
5.8363853 -4.0009546 -0.13145486 4.6097815e-40
5.8154402 -4.0252094 -0.12248047 5.5317378e-40
5.8197742 -4.0046701 -0.13839698 1.8439126e-39
5.7864037 -4.0259705 -0.12608612 5.5317378e-40
5.7576041 -4.0253553 -0.12002644 7.3756504e-40
5.7482615 -4.0140233 -0.13423169 6.4536941e-40
5.7258763 -4.0130014 -0.13025996 8.2976067e-40
5.6951504 -4.0352192 -0.12508444 1.0141519e-39
5.7045698 -4.0041561 -0.13091026 8.2976067e-40
5.6651416 -4.0405531 -0.12406892 1.1063476e-39
5.63727 -4.0468698 -0.12575501 8.2976067e-40
5.6072984 -4.0460939 -0.11680778 7.3756504e-40
5.6012621 -4.0349188 -0.13423169 6.4536941e-40
5.5904951 -4.0476751 -0.11266956 7.3756504e-40
5.5728073 -4.028409 -0.12955925 5.5317378e-40
5.5626636 -4.0113363 -0.14869484 6.4536941e-40
5.5436373 -4.0119004 -0.13772003 6.4536941e-40
5.5085526 -4.001297 -0.13689692 7.3756504e-40
5.4809084 -4.0039339 -0.13554381 6.4536941e-40
5.4532995 -3.9835382 -0.14270686 5.5317378e-40
5.428268 -3.9625168 -0.1485434 5.5317378e-40
5.4095507 -3.9502087 -0.14651859 4.6097815e-40
5.394084 -3.9336669 -0.1550412 5.5317378e-40
5.3931932 -3.9476616 -0.13647971 4.6097815e-40
5.3849688 -3.9332461 -0.14623864 4.6097815e-40
5.3859262 -3.9192774 -0.1649839 5.5317378e-40
5.3590765 -3.8865314 -0.1673983 4.6097815e-40
5.3495193 -3.8843822 -0.14941125 8.2976067e-40
5.3411641 -3.852515 -0.16981271 4.6097815e-40
5.3221922 -3.8341227 -0.16189526 5.5317378e-40
5.3129196 -3.8179367 -0.17236125 5.5317378e-40
5.8692966 -4.0428076 -0.0904819 1.8439126e-40
5.8705692 -4.0209637 -0.095447041 2.7658689e-40
5.8552527 -4.0394402 -0.090670042 4.6097815e-40
5.8373079 -4.0248899 -0.091337621 9.219563e-40
5.8167038 -4.0136037 -0.094405837 7.3756504e-40
5.7857265 -4.0185695 -0.093672663 8.2976067e-40
5.7570543 -4.0299249 -0.092415772 9.219563e-40
5.7127748 -4.0409899 -0.083118744 9.219563e-40
5.7195907 -4.0112753 -0.099243388 6.4536941e-40
5.6970315 -4.0403967 -0.09271536 9.219563e-40
5.7040005 -4.0001488 -0.10994877 1.4751301e-39
5.664566 -4.0423026 -0.091637738 9.219563e-40
5.638412 -4.0531635 -0.091337562 1.0141519e-39
5.6124291 -4.0526218 -0.092640966 9.219563e-40
5.5866623 -4.0446692 -0.094461203 7.3756504e-40
5.5651588 -4.0238924 -0.10412274 6.4536941e-40
5.5514784 -4.0193772 -0.097371861 6.4536941e-40
5.5345597 -4.0070992 -0.10648369 6.4536941e-40
5.5062089 -3.9982424 -0.10792111 6.4536941e-40
5.4772816 -3.998924 -0.10721081 6.4536941e-40
5.4600244 -4.0005484 -0.10296087 6.4536941e-40
5.4457693 -3.9828217 -0.11244573 5.5317378e-40
5.4275603 -3.9575388 -0.12250328 5.5317378e-40
5.4265652 -3.9707975 -0.10009176 5.5317378e-40
5.4115124 -3.9532003 -0.11845146 5.5317378e-40
5.3927183 -3.9443197 -0.11899712 5.5317378e-40
5.3714161 -3.9334559 -0.13743608 3.6878252e-40
5.3579378 -3.8971391 -0.12601207 3.6878252e-40
5.3397179 -3.8805139 -0.12243064 9.219563e-40
5.3061943 -3.8211286 -0.15042068 4.6097815e-40
5.845685 -4.0346799 -0.060314305 3.6878252e-40
5.8531013 -4.0170355 -0.062571622 2.7658689e-40
5.8161979 -4.0165386 -0.066885442 7.3756504e-40
5.7897882 -4.0194788 -0.065124482 8.2976067e-40
5.7564135 -4.029768 -0.063878745 9.219563e-40
5.7223706 -4.0228076 -0.065935127 1.0141519e-39
5.7131901 -4.0084486 -0.08008308 9.219563e-40
5.6849079 -4.0547018 -0.053995308 6.4536941e-40
5.6966534 -4.0374756 -0.061787814 1.1063476e-39
5.6644368 -4.0584078 -0.058077693 6.4536941e-40
5.6696916 -4.0437937 -0.066093966 9.219563e-40
5.6519766 -4.0593829 -0.053995308 7.3756504e-40
5.6366224 -4.048008 -0.063598953 8.2976067e-40
5.6112857 -4.0500946 -0.064270742 8.2976067e-40
5.5836568 -4.0395012 -0.065769382 1.1063476e-39
5.5659642 -4.0277519 -0.071752541 6.4536941e-40
5.5499706 -4.0223575 -0.071994275 7.3756504e-40
5.5284348 -4.0027018 -0.079468399 6.4536941e-40
5.5071445 -3.9997857 -0.077130131 9.219563e-40
5.4790015 -3.9983332 -0.077300422 7.3756504e-40
5.4563975 -3.9955382 -0.074627832 7.3756504e-40
5.4374552 -3.9825733 -0.084012158 5.5317378e-40
5.417172 -3.9670906 -0.074235335 2.9502602e-39
5.4055877 -3.953722 -0.086914986 1.0141519e-39
5.3841972 -3.9466481 -0.086294495 4.6097815e-40
5.3703394 -3.925884 -0.097824536 4.6097815e-40
5.3574276 -3.9112282 -0.10293718 4.6097815e-40
5.3485417 -3.8775058 -0.11343712 3.6878252e-40
5.3212781 -3.844667 -0.11507325 5.5317378e-40
5.8368435 -4.0324745 -0.035996288 4.6097815e-40
5.8138251 -4.0164986 -0.031190552 6.4536941e-40
5.7868123 -4.0163913 -0.035064008 9.219563e-40
5.7663488 -4.036756 -0.021336105 1.1063476e-39
5.7567611 -4.0252805 -0.034627538 9.219563e-40
5.7197938 -4.0513582 -0.025352612 8.2976067e-40
5.7247391 -4.0227003 -0.033226836 8.2976067e-40
5.7081976 -4.0034723 -0.050926175 9.219563e-40
5.6978092 -4.0566063 -0.030087683 8.2976067e-40
5.6988754 -4.0321527 -0.044554897 1.0141519e-39
5.6686726 -4.0567317 -0.032429419 1.2907388e-39
5.6703329 -4.0398102 -0.046133928 8.2976067e-40
5.6430535 -4.0556979 -0.028593699 8.2976067e-40
5.6329284 -4.0443258 -0.042024504 7.3756504e-40
5.6181579 -4.0578213 -0.021336105 9.219563e-40
5.6067071 -4.0467939 -0.035566874 9.219563e-40
5.5751486 -4.0374451 -0.036968872 8.2976067e-40
5.5451365 -4.0196571 -0.04383212 6.4536941e-40
5.524406 -4.010962 -0.034487374 6.4536941e-40
5.5077996 -3.9995842 -0.048443213 8.2976067e-40
5.4832973 -4.0028615 -0.047387913 8.2976067e-40
5.4542379 -3.9905963 -0.04771151 6.4536941e-40
5.4331417 -3.9770091 -0.052335888 7.3756504e-40
5.4205484 -3.9706097 -0.052540921 7.3756504e-40
5.3995342 -3.948827 -0.057402786 5.5317378e-40
5.3908658 -3.9691491 -0.065616511 4.6097815e-40
5.380168 -3.9459674 -0.058515958 5.5317378e-40
5.3642888 -3.9521444 -0.048722744 3.6878252e-40
5.8295898 -3.9927053 -0.0050750026 3.6878252e-40
5.8159547 -4.0037804 -0.0050361939 5.5317378e-40
5.7841616 -4.0005326 -0.0050673187 1.0141519e-39
5.7547741 -4.0156794 -0.005048499 8.2976067e-40
5.726306 -4.0454688 9.9326659e-05 8.2976067e-40
5.7271957 -4.0234842 -0.0038655594 1.1985432e-39
5.6999931 -4.0530071 -0.0009167298 1.4751301e-39
5.6670103 -4.0469685 -0.0012953067 9.219563e-40
5.660706 -4.0315619 0.0031791837 6.4536941e-40
5.6381855 -4.0509934 -0.00092411955 1.1063476e-39
5.6176033 -4.0539198 -0.00092411845 1.0141519e-39
5.598774 -4.0419683 -0.0050396635 9.219563e-40
5.572772 -4.034132 -0.0092045628 8.2976067e-40
5.53901 -4.0087376 -0.01112083 9.219563e-40
5.5239506 -4.0077562 -0.017718202 1.1063476e-39
5.5051565 -3.9937177 -0.01643304 6.4536941e-40
5.481853 -3.9959347 -0.017847842 9.219563e-40
5.4535451 -3.9857221 -0.022211816 8.2976067e-40
5.4323273 -3.9712813 -0.022371855 1.6595213e-39
5.4142652 -3.9649405 -0.02492051 1.2907388e-39
5.3901634 -3.9642067 -0.039760113 2.9502602e-39
5.3791251 -3.9420757 -0.030325329 5.5317378e-40
5.3595695 -3.9415536 -0.035813347 1.0141519e-39
5.8106451 -3.9912019 0.016443875 6.4536941e-40
5.8027601 -3.975409 0.024048742 5.5317378e-40
5.7818975 -3.9947891 0.019002007 8.2976067e-40
5.7900472 -3.9764037 0.028214026 6.4536941e-40
5.7485518 -4.0297322 0.027652698 1.1063476e-39
5.7532825 -4.005827 0.022215448 1.3829344e-39
5.7269516 -4.0627041 0.027298803 2.8580645e-39
5.730535 -4.0359416 0.029085962 8.2976067e-40
5.7350683 -4.0193882 0.01139803 9.219563e-40
5.7102585 -4.0619335 0.043419443 8.2976067e-40
5.7002749 -4.0503969 0.030727528 1.0141519e-39
5.6693029 -4.0464554 0.029202169 1.0141519e-39
5.6385312 -4.0453711 0.027652668 1.1985432e-39
5.6170483 -4.0500174 0.019487897 8.2976067e-40
5.6020856 -4.0355234 0.025594177 7.3756504e-40
5.5725799 -4.029892 0.019708639 1.0141519e-39
5.5370221 -4.0034218 0.017587783 7.3756504e-40
5.5233808 -4.0037498 0.0032432941 7.3756504e-40
5.5061369 -3.9878845 0.012763075 7.3756504e-40
5.4816914 -3.9915652 0.011707803 1.0141519e-39
5.446003 -3.9809928 0.0075379354 1.2907388e-39
5.4157939 -3.9650459 0.0075862329 7.3756504e-40
5.3797736 -3.9391773 -0.00099069241 6.4536941e-40
5.358624 -3.9348991 -0.0010012308 4.6097815e-40
5.3458776 -3.913053 -0.014200123 5.5317378e-40
5.3373842 -3.89852 -0.023162784 4.6097815e-40
5.8076015 -3.9877608 0.036307491 1.1063476e-39
5.7952752 -3.96385 0.049213033 7.3756504e-40
5.7739949 -3.9909239 0.044583958 8.2976067e-40
5.7810435 -3.9733515 0.050428867 1.1985432e-39
5.7506533 -3.9954174 0.051539369 8.2976067e-40
5.7247195 -4.031889 0.056117717 1.1985432e-39
5.733952 -4.0115328 0.052492298 1.0141519e-39
5.6983423 -4.0413551 0.060036618 8.2976067e-40
5.6662312 -4.0395918 0.057241231 7.3756504e-40
5.6374779 -4.0401073 0.055412959 9.219563e-40
5.6013546 -4.0303817 0.052492298 9.219563e-40
5.5706067 -4.0217829 0.048665736 1.0141519e-39
5.5391507 -3.9933324 0.045166288 6.4536941e-40
5.525465 -3.9787574 0.04547685 1.1063476e-39
5.5064263 -3.9822867 0.041255705 6.4536941e-40
5.4802675 -3.9831963 0.038779359 7.3756504e-40
5.4487433 -3.9750085 0.03622498 5.5317378e-40
5.4304662 -3.9581892 0.046117399 7.3756504e-40
5.4164176 -3.9591062 0.037588749 6.4536941e-40
5.3787065 -3.9329109 0.029427532 5.5317378e-40
5.3581505 -3.9315689 0.016420132 8.2976067e-40
5.3446817 -3.90464 0.029812695 4.6097815e-40
5.7921009 -3.9524701 0.070320077 5.5317378e-40
5.7691474 -3.9867704 0.069413498 7.3756504e-40
5.7743816 -3.9607108 0.076944649 1.0141519e-39
5.7867684 -3.9383204 0.062361345 1.1063476e-39
5.7471342 -3.9876397 0.08100047 1.1985432e-39
5.71696 -4.0241385 0.079363152 1.4751301e-39
5.722034 -3.9995716 0.084150761 1.3829344e-39
5.6904812 -4.0274382 0.081744544 1.0141519e-39
5.6935263 -4.009666 0.091531821 9.219563e-40
5.6672301 -4.0365911 0.084578991 1.0141519e-39
5.648427 -4.0344114 0.07664156 6.4536941e-40
5.6325469 -4.0193362 0.08639501 1.1063476e-39
5.6060004 -4.0204697 0.080457017 1.1063476e-39
5.5770144 -4.0127373 0.076310582 7.3756504e-40
5.5658636 -3.9968991 0.086527921 7.3756504e-40
5.5428982 -3.9889431 0.076244347 1.3829344e-39
5.5226488 -3.9742186 0.070803575 5.5317378e-40
5.5056238 -3.9766386 0.070803575 7.3756504e-40
5.4738131 -3.9697249 0.068064429 8.2976067e-40
5.4483399 -3.9696093 0.064203858 1.3829344e-39
5.4358335 -3.9546437 0.060385969 6.4536941e-40
5.4143848 -3.9516201 0.063391328 7.3756504e-40
5.3780437 -3.9240987 0.058159314 5.5317378e-40
5.3264403 -3.8694036 0.039168462 4.6097815e-40
5.7630363 -3.9672465 0.09485843 8.2976067e-40
5.7390389 -3.9845943 0.10251953 7.3756504e-40
5.7460098 -3.9680421 0.103189 8.2976067e-40
5.715569 -3.9920802 0.10234103 7.3756504e-40
5.7121835 -3.971226 0.11151958 7.3756504e-40
5.6904888 -3.9972816 0.11121327 9.219563e-40
5.664227 -4.0273886 0.10113593 9.219563e-40
5.6620369 -4.0048175 0.11121389 9.219563e-40
5.6308556 -4.0075827 0.11038645 8.2976067e-40
5.6279578 -3.9815741 0.11985008 7.3756504e-40
5.6035304 -4.0024738 0.10961372 1.0141519e-39
5.586071 -3.9883406 0.11568483 7.3756504e-40
5.5665131 -3.9840324 0.10257967 7.3756504e-40
5.5420108 -3.983115 0.095473893 1.0141519e-39
5.5326757 -3.9662077 0.10457256 5.5317378e-40
5.5028892 -3.9636254 0.097325742 6.4536941e-40
5.4717674 -3.9601321 0.095724307 7.3756504e-40
5.4633675 -3.9418252 0.10604541 1.1063476e-39
5.4548278 -3.9639907 0.088286929 5.5317378e-40
5.4381309 -3.9437759 0.090325572 1.1985432e-39
5.4185162 -3.9349642 0.089521959 6.4536941e-40
5.4013596 -3.9197907 0.090158194 6.4536941e-40
5.3827295 -3.905679 0.086423784 5.5317378e-40
5.6757731 -3.9887452 0.127349 9.219563e-40
5.683578 -3.9642467 0.12859651 1.2907388e-39
5.6555638 -3.9717181 0.13048472 7.3756504e-40
5.6442461 -3.9437625 0.13834162 1.1985432e-39
5.6215277 -3.9964564 0.127349 7.3756504e-40
5.6275878 -3.9685171 0.13432477 1.1063476e-39
5.5991921 -3.9754245 0.13278875 1.5673257e-39
5.5804019 -3.9528379 0.13834162 2.3048907e-39
5.5707474 -3.972898 0.1269161 7.3756504e-40
5.5613632 -3.9563677 0.13412046 6.4536941e-40
5.5372548 -3.9587686 0.13000423 6.4536941e-40
5.5053282 -3.9501817 0.1222865 7.3756504e-40
5.4885674 -3.9332345 0.13172887 7.3756504e-40
5.479847 -3.955461 0.11378656 1.1063476e-39
5.4669585 -3.9303725 0.12598574 1.1063476e-39
5.4545026 -3.9414158 0.11460657 6.4536941e-40
5.4263759 -3.9072859 0.11811064 8.2976067e-40
5.4209442 -3.931257 0.10675956 6.4536941e-40
5.6407638 -3.934284 0.14728504 7.3756504e-40
5.6395569 -3.9030166 0.15552266 1.1985432e-39
5.629952 -3.8737543 0.15959866 6.4536941e-40
5.6218214 -3.9362993 0.15779269 8.2976067e-40
5.5944185 -3.9458899 0.15726018 7.3756504e-40
5.5617728 -3.9453578 0.15651736 1.1063476e-39
5.5324364 -3.9425507 0.15371437 6.4536941e-40
5.5221667 -3.9217799 0.16597348 7.3756504e-40
5.5011673 -3.9289393 0.14457063 1.3829344e-39
5.4813976 -3.8965642 0.15091859 7.3756504e-40
5.4678059 -3.9178727 0.14123482 5.5317378e-40
5.4602752 -3.8818705 0.1519836 1.1063476e-39
5.4381075 -3.9061031 0.13355845 8.2976067e-40
5.6536012 -3.8138125 0.18070515 6.4536941e-40
5.6355577 -3.8897977 0.1840205 8.2976067e-40
5.6409965 -3.8595929 0.1752504 9.219563e-40
5.6455941 -3.8343987 0.17065378 7.3756504e-40
5.6197329 -3.9223244 0.18776916 9.219563e-40
5.6267824 -3.8929937 0.18106413 5.5317378e-40
5.588377 -3.9254467 0.18858576 1.0141519e-39
5.5611753 -3.9300475 0.18482158 1.1985432e-39
5.5382252 -3.9355593 0.17328589 1.3829344e-39
5.5306525 -3.9105515 0.18923351 8.2976067e-40
5.6612372 -3.8752494 0.218804 9.219563e-40
5.6618276 -3.8451865 0.21111351 7.3756504e-40
5.6627083 -3.8273883 0.19412725 1.1063476e-39
5.6622982 -3.8108475 0.18956892 5.5317378e-40
5.6396885 -3.9111907 0.22428527 1.4751301e-39
5.644691 -3.8915961 0.21335708 1.3829344e-39
5.6492739 -3.8631082 0.20010553 9.219563e-40
5.6509132 -3.8293509 0.19266018 1.2907388e-39
5.6184926 -3.9158614 0.21578546 8.2976067e-40
5.5898476 -3.9306417 0.21930459 6.4536941e-40
5.5581007 -3.9274468 0.21848275 8.2976067e-40
5.5310874 -3.9326725 0.22705375 6.4536941e-40
5.5248728 -3.9104202 0.21019495 9.219563e-40
5.5111275 -3.9294655 0.22428527 5.5317378e-40
5.5016322 -3.9046395 0.21257029 6.4536941e-40
5.5018635 -3.8834984 0.20299892 8.2976067e-40
5.6828985 -3.8348825 0.23065543 6.4536941e-40
5.6851015 -3.8150494 0.24107428 5.5317378e-40
5.6647844 -3.9032028 0.24695165 6.4536941e-40
5.6645193 -3.8728187 0.24294153 8.2976067e-40
5.668098 -3.8446181 0.22995391 7.3756504e-40
5.6717877 -3.816942 0.24107428 1.8439126e-39
5.645504 -3.9112659 0.24779403 9.219563e-40
5.6525154 -3.8887813 0.24017018 1.0141519e-39
5.6135316 -3.9701538 0.26804957 5.5317378e-40
5.6135445 -3.9402435 0.26316586 7.3756504e-40
5.6182652 -3.9163272 0.24370761 9.219563e-40
5.5943251 -3.9825916 0.2651602 8.2976067e-40
5.594418 -3.9568193 0.25145328 1.0141519e-39
