# .PCD v0.7 - Point Cloud Data file format
VERSION 0.7
FIELDS x y z rgb
SIZE 4 4 4 4
TYPE F F F F
COUNT 1 1 1 1
WIDTH 973
HEIGHT 1
VIEWPOINT 0 0 0 1 0 0 0
POINTS 973
DATA ascii
-1.0566758 0.38659132 -1.3378721 5.2454581e-39
-0.96091163 0.37752253 -1.333939 9.6787559e-39
-0.98418033 0.3781966 -1.3328694 9.4889654e-39
-0.95677555 0.35522079 -1.3258003 6.725965e-39
-0.98047912 0.36269355 -1.3299986 8.1035226e-39
-0.94959724 0.32940322 -1.3244438 4.4196267e-39
-0.94403446 0.31045991 -1.3244437 4.6969353e-39
-0.95843303 0.29243904 -1.3347833 3.1285263e-39
-0.98032033 0.27266127 -1.3409648 2.4824353e-39
-0.99379027 0.25592142 -1.3365126 2.1168827e-39
-1.0964769 0.5023573 -1.3182676 6.3506552e-39
-1.114782 0.49156219 -1.3262414 6.2591841e-39
-1.0876671 0.46245992 -1.3084654 5.8943574e-39
-1.1076218 0.47091606 -1.3299463 6.169522e-39
-1.080588 0.44329643 -1.3133664 5.5245043e-39
-1.0978376 0.44033521 -1.3326632 5.8904226e-39
-1.0735089 0.42413297 -1.3182676 5.0599472e-39
-1.0906197 0.410339 -1.3272998 3.312905e-39
-1.0237166 0.38310051 -1.3103504 7.5550054e-39
-1.0802053 0.38128132 -1.3336512 6.3549908e-39
-1.1047369 0.37844801 -1.3321588 4.7858771e-39
-0.97386467 0.37371927 -1.2864631 7.3691806e-39
-0.99127471 0.37853295 -1.3092653 7.2758948e-39
-0.94446051 0.3504439 -1.2858411 5.4337968e-39
-0.96577561 0.35894728 -1.2991234 6.9085598e-39
-0.93391168 0.33291489 -1.2857875 6.7241559e-39
-0.95477831 0.32788199 -1.3054534 6.3542916e-39
-0.93342316 0.3128528 -1.2858411 4.508228e-39
-0.94995224 0.30186355 -1.2959583 3.4987326e-39
-0.96463192 0.28698993 -1.3084677 2.2991202e-39
-0.96308649 0.27448291 -1.3012909 1.9321355e-39
-0.99298251 0.25602478 -1.3137475 1.839591e-39
-1.0354508 0.2338444 -1.3385912 9.2195069e-40
-1.1202224 0.49264097 -1.3089515 6.3477966e-39
-1.1538366 0.48118871 -1.3043139 5.7056557e-39
-1.1930977 0.48489544 -1.3113061 5.247902e-39
-1.0930158 0.46088946 -1.2888609 5.6167027e-39
-1.1163021 0.47131127 -1.3010476 5.9822552e-39
-1.0877124 0.44423914 -1.2902613 4.7873162e-39
-1.1054562 0.42739296 -1.2941316 4.9717131e-39
-1.0983213 0.40807766 -1.2990716 3.03776e-39
-1.0645024 0.37367225 -1.2986631 4.3292191e-39
-1.0880936 0.36825991 -1.2941316 2.7561453e-39
-1.1115814 0.37913656 -1.3097464 1.7473926e-39
-0.97997272 0.3753553 -1.2674727 7.2791318e-39
-0.99913919 0.37795186 -1.2821522 7.4430542e-39
-0.916875 0.35655463 -1.2387308 8.2882614e-39
-0.94601762 0.35814905 -1.263846 7.2766178e-39
-0.97367394 0.36348695 -1.276968 7.4581504e-39
-0.91153228 0.343041 -1.2433708 6.1702689e-39
-0.92788827 0.33015287 -1.263158 5.8940337e-39
-0.93270862 0.31283307 -1.2638578 3.6813512e-39
-0.95674956 0.29386616 -1.265099 3.2221541e-39
-0.97111118 0.28249532 -1.2821522 2.3016341e-39
-0.96961343 0.2725665 -1.2773675 1.7477569e-39
-0.98604262 0.2577948 -1.2877336 3.3993693e-39
-1.168238 0.46758702 -1.2902944 5.7078208e-39
-1.1208767 0.45498076 -1.2694319 4.5071308e-39
-1.1445335 0.46120295 -1.279863 4.9709788e-39
-1.0953957 0.4442592 -1.2643553 4.9724179e-39
-1.1150099 0.43101099 -1.26548 4.6033033e-39
-1.106408 0.40570325 -1.2694319 2.2080106e-39
-1.0738629 0.37092388 -1.2643553 3.1238572e-39
-1.0991734 0.38106447 -1.2694319 2.4838786e-39
-0.9596678 0.37619466 -1.2356653 8.4751624e-39
-0.98830354 0.37976807 -1.243735 6.4436734e-39
-0.92459452 0.36099136 -1.217078 7.9234502e-39
-0.94248927 0.36691403 -1.2356873 8.4762512e-39
-0.91786182 0.34118247 -1.2201712 4.6043753e-39
-0.93140972 0.32288706 -1.2294537 3.4980179e-39
-0.93512309 0.30785739 -1.2312824 3.5884311e-39
-0.96178782 0.28467071 -1.2389873 3.4058545e-39
-0.95895946 0.27264076 -1.2366136 5.3340104e-39
-0.97333801 0.26110429 -1.2534444 9.0203334e-39
-1.1295818 0.45670688 -1.2417682 6.3510252e-39
-1.123176 0.43289536 -1.2397922 4.9702627e-39
-1.1144947 0.40332884 -1.2397922 3.5902178e-39
-1.0492624 0.37584072 -1.2297535 3.67378e-39
-1.084757 0.37834615 -1.2349486 1.1034791e-39
-1.1087071 0.38361782 -1.2397922 2.2087561e-39
-0.96577799 0.37930059 -1.2059376 7.7412043e-39
-0.93225229 0.36209464 -1.1923317 7.6475766e-39
-0.92545736 0.3389523 -1.1923318 3.7728266e-39
-0.93906295 0.32063991 -1.2014023 2.4863939e-39
-0.94377553 0.30436498 -1.2059376 3.3129134e-39
-0.9682647 0.28276896 -1.2152495 3.9575751e-39
-0.9640218 0.26472414 -1.2116889 4.6007627e-39
-1.1172818 0.46438545 -1.210443 6.4417817e-39
-1.1384476 0.45249793 -1.2076826 6.0758746e-39
-1.1312627 0.43052095 -1.2101526 4.6043669e-39
-1.1225814 0.40095443 -1.2101526 3.499457e-39
-1.0679358 0.3710807 -1.2004178 5.8821451e-39
-1.0887688 0.37716818 -1.2202452 2.3920964e-39
-1.1147267 0.37420374 -1.2101526 4.417117e-39
-1.1343821 0.35625213 -1.2101356 6.0676224e-39
-0.94659674 0.38050658 -1.1621723 9.2134687e-39
-0.97354448 0.38208598 -1.1824909 8.1078386e-39
-1.0066282 0.38467586 -1.1867641 3.8574524e-39
-0.9220866 0.36733472 -1.1587032 7.8359111e-39
-0.93785608 0.35542172 -1.1668122 5.2486867e-39
-0.93296015 0.3317219 -1.1598523 2.670418e-39
-0.94690382 0.3284691 -1.1827015 3.2196388e-39
-0.92878997 0.31283635 -1.1552124 4.1394525e-39
-0.95384419 0.29520065 -1.1811639 3.2207416e-39
-0.94345009 0.26748735 -1.1757215 5.8868394e-39
-0.9124819 0.25729477 -1.1552124 1.1327057e-38
-1.1451868 0.45051917 -1.1829829 6.1684486e-39
-1.116496 0.4221321 -1.1712341 5.3426508e-39
-1.1389333 0.43005285 -1.1838062 5.0649989e-39
-1.1108192 0.40609723 -1.1745014 3.5913304e-39
-1.1285475 0.39385003 -1.1829829 3.4083572e-39
-1.121987 0.36901337 -1.1805129 3.4973131e-39
-0.93747008 0.37944865 -1.1187965 9.5840491e-39
-0.95400417 0.38185084 -1.1385088 9.0305124e-39
-0.92934835 0.36387205 -1.1307684 6.1717164e-39
-0.94219363 0.34912062 -1.1459326 2.9480895e-39
-0.92272699 0.33388501 -1.1234012 4.3270765e-39
-0.93675768 0.33060682 -1.1459326 4.1415979e-39
-0.91603029 0.31339973 -1.1257035 4.0508372e-39
-0.92899835 0.29668713 -1.1385087 4.2337949e-39
-0.92560661 0.27857858 -1.1320128 4.0501113e-39
-0.93856037 0.26607752 -1.14904 6.2552534e-39
-0.93775022 0.25010502 -1.1359494 1.0501566e-38
-1.1304575 0.4498958 -1.1516296 6.2613575e-39
-1.1545717 0.44508728 -1.1459333 6.1688199e-39
-1.1237918 0.42884082 -1.1532633 5.3426606e-39
-1.1502641 0.43207854 -1.1475799 5.8014891e-39
-1.1170272 0.40250427 -1.1499959 4.6962052e-39
-1.1360594 0.39699703 -1.1607531 4.7891197e-39
-1.1059557 0.36150074 -1.1467285 4.5021113e-39
-1.1301726 0.37196249 -1.1558131 3.5927513e-39
-0.93656361 0.38263303 -1.100636 9.4003669e-39
-0.96066153 0.38391811 -1.1180931 7.647222e-39
-0.92389166 0.36277735 -1.0993474 5.2519251e-39
-0.92476928 0.33313233 -1.1035768 4.6955031e-39
-0.92091668 0.30448115 -1.100378 4.3263437e-39
-0.91629803 0.28255409 -1.0942385 3.7731727e-39
-0.9295274 0.27038884 -1.1106693 2.6689887e-39
-0.94304001 0.25868332 -1.126599 4.8690904e-39
-0.95037544 0.24240655 -1.11497 8.7430458e-39
-0.97757947 0.22344828 -1.1250457 1.234048e-38
-1.1411551 0.44675481 -1.1124207 6.6279638e-39
-1.158615 0.44390002 -1.1311134 5.6184978e-39
-1.1315905 0.42407265 -1.1222229 5.6196188e-39
-1.1546906 0.42721039 -1.1278201 5.8944092e-39
-1.1241261 0.39864969 -1.1222229 4.7902239e-39
-1.0918063 0.36407191 -1.1129283 5.7885257e-39
-1.1169485 0.37420458 -1.1222229 3.6853197e-39
-0.93885887 0.38324606 -1.0721712 9.4914948e-39
-0.90441334 0.35728025 -1.0657861 5.6192671e-39
-0.92639029 0.36733228 -1.0710545 7.8334027e-39
-0.90111554 0.34055567 -1.0603431 5.2504678e-39
-0.91357934 0.33325398 -1.0805196 4.880972e-39
-0.89493167 0.3158322 -1.0567145 4.4217721e-39
-0.91208017 0.30261004 -1.0698411 4.0508428e-39
-0.92036259 0.27470839 -1.0727503 3.0370468e-39
-0.93269002 0.24884748 -1.0786538 5.0577822e-39
-0.9476732 0.23199409 -1.084522 9.4859736e-39
-0.98137033 0.21719116 -1.1060554 1.1882715e-38
-1.1424452 0.42938235 -1.0908557 6.5404849e-39
-1.1587936 0.41708475 -1.1039437 6.3557265e-39
-1.128039 0.39219028 -1.1026183 5.2497573e-39
-1.1534165 0.39342988 -1.0986509 5.7107242e-39
-1.1250697 0.37713051 -1.0977173 4.698366e-39
-1.1431099 0.35975266 -1.1000623 4.6936983e-39
-0.92482007 0.38405281 -1.0234522 9.9539008e-39
-0.94862497 0.38055062 -1.0456861 9.9521212e-39
-0.97585285 0.37945765 -1.0624142 9.6751826e-39
-0.91230476 0.36459619 -1.0325134 8.0174339e-39
-0.90082681 0.33840811 -1.0360343 5.5274316e-39
-0.90117395 0.31694818 -1.0367571 4.4210658e-39
-0.92567861 0.29778779 -1.0411167 3.4983935e-39
-0.92790043 0.27249509 -1.0451226 3.0384943e-39
-0.93761408 0.23986042 -1.0531343 6.3560488e-39
-1.1489161 0.43031469 -1.0699443 6.1688213e-39
-1.1689349 0.4158912 -1.0685408 5.9858734e-39
-1.1415097 0.39354551 -1.0585084 6.2631736e-39
-1.1576244 0.39066517 -1.0817139 5.2540593e-39
-1.1331638 0.36413294 -1.0575281 5.1564799e-39
-1.1496166 0.36090076 -1.079244 5.0653576e-39
-0.92672646 0.38482249 -1.0004159 9.5833134e-39
-0.9161514 0.36410081 -1.0013607 8.6617271e-39
-0.90083492 0.33801824 -1.0019405 6.3579167e-39
-0.90987313 0.31635976 -1.0068209 4.1434238e-39
-0.92770326 0.29912388 -1.0094937 3.3147267e-39
-0.93585002 0.27301198 -1.0188106 2.209091e-39
-0.95191205 0.25577229 -1.0206549 1.7491862e-39
-0.94489348 0.23772311 -1.0264548 7.6478778e-39
-0.9664129 0.22818041 -1.0175107 1.095896e-38
-1.1576344 0.41713381 -1.0274678 5.612049e-39
-1.1743425 0.41519552 -1.0496043 5.7993073e-39
-1.1481708 0.39026201 -1.0327775 6.2646169e-39
-1.1686047 0.39814627 -1.0520743 6.5397688e-39
-1.1156765 0.35706311 -1.0254388 4.6054739e-39
-1.1399413 0.36347049 -1.0340028 5.0660905e-39
-0.92743742 0.38921952 -0.98500645 8.1974755e-39
-0.95966256 0.37450922 -0.98417622 9.4907661e-39
-0.9961077 0.37351036 -0.98817551 7.3670156e-39
-1.0351802 0.36463869 -0.99378949 7.0857442e-39
-1.1154817 0.3465873 -1.0157177 5.7028321e-39
-0.92894924 0.35696197 -0.97275424 8.385143e-39
-0.95051205 0.36449343 -0.98684847 9.2156183e-39
-0.91131127 0.33502936 -0.97183871 6.1720737e-39
-0.91410387 0.30758202 -0.96648139 3.9604436e-39
-0.93099058 0.29893082 -0.98776233 4.5125552e-39
-0.9130398 0.28594196 -0.96599883 3.9575709e-39
-0.93269384 0.27085817 -0.98554134 2.7601054e-39
-0.95570982 0.25465727 -1.0067352 1.9307034e-39
-0.94009387 0.24895787 -0.98065805 1.6562703e-39
-0.9553839 0.23715663 -0.99049544 3.3093121e-39
-0.9715153 0.22668225 -0.99880981 8.5575784e-39
-1.1619605 0.40878287 -1.004596 6.0765991e-39
-1.1878701 0.4138999 -1.0026748 4.599318e-39
-1.1549305 0.39226013 -1.0119478 6.9103717e-39
-1.1775318 0.38267887 -1.0066267 7.0043539e-39
-1.1476058 0.35989255 -1.0045961 5.6185398e-39
-0.97767198 0.36764461 -0.97144878 1.0780071e-38
-1.0009853 0.36202329 -0.96033597 8.7521164e-39
-1.1207858 0.34502977 -0.99627566 4.9709942e-39
-0.92809832 0.35831785 -0.94347602 9.4907661e-39
-0.95923889 0.36193109 -0.95486325 9.6762265e-39
-0.89563072 0.34344357 -0.94277823 7.1862299e-39
-0.914343 0.3325128 -0.93827564 6.7259832e-39
-0.90992129 0.30604804 -0.94241297 3.8675347e-39
-0.91323221 0.27599382 -0.9455682 3.3143525e-39
-0.93122566 0.27113628 -0.95943254 3.9586584e-39
-0.94056833 0.2462666 -0.95811087 3.1296067e-39
-0.96026146 0.2256695 -0.96265596 2.7579572e-39
-0.97476971 0.20630801 -0.96764171 1.1505309e-38
-1.1727237 0.40916294 -0.96865445 4.6007725e-39
-1.1876718 0.4032529 -0.99279493 6.1634389e-39
-1.1650676 0.38308817 -0.96865445 6.4482963e-39
-1.1841637 0.38465679 -0.98620832 6.7266895e-39
-1.1556288 0.35753679 -0.97518939 5.5259855e-39
-0.95446002 0.37207347 -0.91156942 7.8250706e-39
-1.006049 0.36053652 -0.94177639 7.8286664e-39
-1.1498376 0.3353399 -0.97273874 5.4334115e-39
-0.93316281 0.35789305 -0.91535479 8.8475561e-39
-0.90389621 0.32649058 -0.89809102 6.261038e-39
-0.92141092 0.33305097 -0.91496044 7.3702624e-39
-0.90127861 0.31757522 -0.89809102 5.8922709e-39
-0.91283953 0.30385852 -0.91496038 5.1586267e-39
-0.91261709 0.28088504 -0.91610348 3.221438e-39
-0.93727577 0.25945789 -0.92744732 3.4036629e-39
-0.94579875 0.23723555 -0.92785788 3.4962271e-39
-0.94689286 0.20704758 -0.91619337 1.7313595e-38
-0.96441305 0.20936805 -0.93249655 1.2705964e-38
-1.170977 0.38754863 -0.9531343 5.4348716e-39
-1.1937054 0.37793005 -0.9473474 5.0678786e-39
-1.1636523 0.35518098 -0.94578266 5.4359604e-39
-1.1564747 0.33073586 -0.94578266 4.6958506e-39
-0.93695223 0.35848945 -0.88772178 8.2000203e-39
-0.90802014 0.32850778 -0.88617444 8.0170681e-39
-0.93045676 0.33242762 -0.88381982 8.2932837e-39
-0.90353763 0.30722797 -0.88021606 6.1728024e-39
-0.9208461 0.30272716 -0.88682127 6.8181606e-39
-0.91484654 0.27525109 -0.88756263 3.4058307e-39
-0.91741359 0.25115079 -0.88898337 2.6693433e-39
-0.95127499 0.22569239 -0.89550436 2.2097986e-39
-0.95461547 0.21475857 -0.89777493 3.3993511e-39
-0.96992385 0.19769502 -0.90233707 1.3438863e-38
-1.1993066 0.37307382 -0.92363566 6.1735045e-39
-1.170473 0.35014367 -0.91777629 5.4355961e-39
-1.1963137 0.35789478 -0.91869569 5.4374108e-39
-1.1644977 0.32838011 -0.91637594 5.5267001e-39
-0.92899835 0.35785627 -0.84446639 7.8333859e-39
-0.94373381 0.3545469 -0.86093336 7.2802262e-39
-0.92254341 0.34038347 -0.84893507 6.6330365e-39
-0.93502438 0.3250466 -0.86109418 6.3532252e-39
-0.91117585 0.3036018 -0.85085016 7.6453989e-39
-0.92707837 0.30577564 -0.86881226 8.108905e-39
-0.90683687 0.28689116 -0.84893507 6.8199515e-39
-0.91920006 0.27115291 -0.86109418 4.2349019e-39
-0.91658199 0.25034183 -0.86088622 2.6700565e-39
-0.94545257 0.22735095 -0.86804616 3.0363153e-39
-0.92927325 0.22219956 -0.84806842 2.3970527e-39
-0.95427215 0.20364314 -0.86963964 6.4403257e-39
-1.2265455 0.36516839 -0.90798277 6.2653287e-39
-1.1768271 0.34069151 -0.88696909 5.5285106e-39
-1.2007774 0.35016108 -0.89597195 6.2650064e-39
-1.2271851 0.35058969 -0.89138103 7.1855124e-39
-1.172521 0.32602429 -0.88696921 4.9721222e-39
-0.9338237 0.35367256 -0.82403791 7.0936825e-39
-0.95404828 0.36127508 -0.83279425 8.0170695e-39
-0.9144851 0.34192348 -0.81184131 4.4250455e-39
-0.92597663 0.32727045 -0.82435709 5.1579176e-39
-0.94104207 0.32606727 -0.84179872 4.8849054e-39
-0.91938746 0.3025741 -0.82212275 5.5263288e-39
-0.91186702 0.27573031 -0.82090402 6.5397674e-39
-0.92521799 0.27217358 -0.84179872 6.7292076e-39
-0.90695918 0.25392979 -0.81586659 4.2391941e-39
-0.91863239 0.24065584 -0.83279431 3.3132679e-39
-0.93015969 0.21604168 -0.8250829 3.4958641e-39
-0.94981134 0.19831496 -0.83919454 7.4505302e-39
-1.196138 0.36688459 -0.8477602 6.1752659e-39
-1.1594461 0.35204363 -0.84206295 5.2486923e-39
-1.1864334 0.35114717 -0.86491412 6.2639092e-39
-1.1617984 0.32772124 -0.84073883 3.3140176e-39
-1.1777717 0.31917214 -0.86246365 5.617458e-39
-0.92613971 0.35773176 -0.78817755 9.9531862e-39
-0.94249904 0.35873407 -0.79977918 8.3811941e-39
-0.91863072 0.33680511 -0.78839439 6.1713661e-39
-0.91138732 0.30629539 -0.7869944 4.236306e-39
-0.92787755 0.29766023 -0.78860736 4.4203231e-39
-0.9024328 0.28296369 -0.79409349 5.1571735e-39
-0.92039168 0.27184385 -0.78828812 5.1564589e-39
-0.91284788 0.24760085 -0.78972453 5.1586295e-39
-0.92449558 0.23335904 -0.80578071 2.4910687e-39
-0.90819991 0.22838706 -0.78637302 3.9571856e-39
-0.92760122 0.2063567 -0.79942119 5.9775651e-39
-0.94845927 0.1868602 -0.81778371 1.7861661e-38
-1.1628524 0.37312394 -0.8053872 7.7368435e-39
-1.2001497 0.36570668 -0.83305687 7.8319426e-39
-1.161188 0.35672677 -0.82034969 7.1837005e-39
-1.1283754 0.34000564 -0.80847317 6.1720653e-39
-1.1448733 0.33136553 -0.82468104 4.324948e-39
-0.93542039 0.35500675 -0.75416094 1.0043213e-38
-0.94981444 0.3565861 -0.77296686 8.3840234e-39
-0.97370231 0.35550427 -0.76075822 8.3833367e-39
-1.120159 0.32168084 -0.81804258 6.6308883e-39
-0.91937768 0.33531791 -0.7558822 8.755352e-39
-0.91019475 0.30712557 -0.75423563 3.3129316e-39
-0.9314009 0.28936285 -0.76849812 3.9590059e-39
-0.91323888 0.27498329 -0.74972403 3.8667962e-39
-0.92616522 0.27153212 -0.76849806 4.1441118e-39
-0.90553057 0.25320876 -0.75416094 4.6976499e-39
-0.91750872 0.24114817 -0.76760441 4.8813181e-39
-0.91298687 0.22213954 -0.76402938 3.9568381e-39
-0.92797673 0.19815224 -0.77072942 5.6959644e-39
-1.1502219 0.38543409 -0.77976549 4.5114328e-39
-1.1654843 0.37235117 -0.79574025 6.5393849e-39
-1.1221012 0.36105901 -0.77372521 5.2529985e-39
-1.1419674 0.36504686 -0.78742087 6.3546657e-39
-1.0566865 0.34566838 -0.75617981 5.5256253e-39
-1.0942048 0.34220397 -0.77239549 5.4319808e-39
-1.1146437 0.34524417 -0.78322041 5.9851615e-39
-1.1323878 0.34401178 -0.798904 7.2730179e-39
-0.94147336 0.35322952 -0.73197621 9.9531638e-39
-0.98625672 0.35236305 -0.75001746 8.5615875e-39
-1.0165859 0.34509283 -0.74467462 7.7343464e-39
-0.89765346 0.32625836 -0.72149444 9.6765797e-39
-0.92138731 0.33917016 -0.72732478 9.4925626e-39
-0.89357722 0.30985421 -0.71899533 7.0969181e-39
-0.90551007 0.30077416 -0.73554575 3.406586e-39
-0.8881427 0.28798193 -0.71566325 2.9430771e-39
-0.91086876 0.27237093 -0.73319781 3.1285165e-39
-0.91028392 0.24700552 -0.73197621 3.7764041e-39
-0.92684662 0.24228001 -0.73721713 4.237741e-39
-0.90490782 0.2197386 -0.72310227 3.0381216e-39
-0.91734397 0.21073604 -0.73802954 3.8646382e-39
-1.1382161 0.38719225 -0.74523979 5.6217726e-39
-1.1541382 0.38428414 -0.76541156 4.3302855e-39
-1.0993985 0.36547226 -0.74136204 6.8142272e-39
-1.1307112 0.3688193 -0.75236118 6.8149292e-39
-1.1499659 0.37168449 -0.76700634 5.8025695e-39
-1.0374762 0.35446221 -0.72002906 7.6511359e-39
-1.0635623 0.35035282 -0.73762012 6.2617737e-39
-1.0927142 0.35218024 -0.75074774 5.6171105e-39
-0.94873655 0.35109687 -0.70535451 9.1230654e-39
-0.99784195 0.34914309 -0.71931183 7.8312251e-39
-0.90604961 0.3261624 -0.69306725 7.7411931e-39
-0.9267596 0.33868659 -0.70140553 8.4758841e-39
-0.89411938 0.30818045 -0.69357055 7.6479227e-39
-0.88273346 0.28305292 -0.69246936 5.6203293e-39
-0.88761628 0.25970405 -0.68942273 3.4069195e-39
-0.91033542 0.24372792 -0.70661849 3.0366866e-39
-0.90845025 0.21389085 -0.70535451 3.1285207e-39
-0.90437353 0.19104999 -0.69648057 4.7786814e-39
-0.91836607 0.18182409 -0.70593607 5.6116651e-39
-0.93341935 0.18195552 -0.72474021 1.1862206e-38
-1.126089 0.38898599 -0.71115887 7.5546354e-39
-1.1408068 0.38643157 -0.73574466 6.1720779e-39
-1.0294393 0.38937539 -0.67570859 7.2834604e-39
-1.0549072 0.37774402 -0.69646519 6.4468698e-39
-1.0814837 0.37860727 -0.70514071 8.3822465e-39
-1.1146566 0.37664837 -0.71922994 8.1081764e-39
-1.1380256 0.37695986 -0.73574466 7.1844292e-39
-1.0202612 0.36422056 -0.68175632 3.5873493e-39
-1.0407401 0.36155146 -0.70385098 5.617828e-39
-0.95357883 0.34967506 -0.68760669 9.3992851e-39
-0.9753288 0.34425271 -0.67465502 9.7669662e-39
-0.99584925 0.3509528 -0.68151855 8.0120235e-39
-0.91234004 0.32659876 -0.66404849 7.092951e-39
-0.93855226 0.33891577 -0.67006743 9.215247e-39
-0.90243661 0.30570966 -0.66305721 6.0784292e-39
-0.8836242 0.28264612 -0.65981215 6.1702717e-39
-0.89171159 0.25302607 -0.66300565 3.9629659e-39
-0.90315926 0.23941338 -0.68268353 2.2112406e-39
-0.88947642 0.23072547 -0.6544354 2.759748e-39
-0.90790236 0.2114948 -0.67445678 2.8526527e-39
-0.90912664 0.18484676 -0.67429584 4.8770007e-39
-0.92053568 0.16666114 -0.6835925 5.4341247e-39
-0.94042838 0.16038418 -0.67971766 4.698366e-39
-1.0742594 0.39915568 -0.67675334 8.4765875e-39
-1.0997654 0.40340441 -0.66802144 8.0181485e-39
-1.0007888 0.39488107 -0.63890529 9.397846e-39
-1.0246731 0.39578599 -0.65646291 8.6635151e-39
-1.0590092 0.40195054 -0.65785754 9.675851e-39
-0.97720253 0.37639171 -0.63436329 3.217513e-39
-0.99437916 0.37981611 -0.64560837 5.7161277e-39
-1.0086387 0.37451625 -0.66170865 4.2330844e-39
-0.97070467 0.35426176 -0.63436329 3.6806113e-39
-0.98376286 0.34952348 -0.65141767 5.7085452e-39
-1.003364 0.35655171 -0.66170865 4.137642e-39
-0.91281688 0.33080161 -0.63095582 8.3851094e-39
-0.95178568 0.33998978 -0.6401881 7.9233969e-39
-0.89954627 0.30619693 -0.62942064 6.5404933e-39
-0.87967265 0.28815305 -0.61644775 4.8737819e-39
-0.89087641 0.2791726 -0.63190168 4.6962038e-39
-0.88428652 0.25422579 -0.6294207 3.4998242e-39
-0.89404404 0.22442001 -0.63277662 2.5789497e-39
-0.90592396 0.20614415 -0.64039379 2.2094413e-39
-0.91482699 0.1832189 -0.64248019 3.770663e-39
-1.0742754 0.40795654 -0.63666958 8.847203e-39
-0.98975313 0.39674449 -0.6121785 1.1332875e-38
-1.0069748 0.39790684 -0.62103039 1.0872605e-38
-1.0322248 0.40213895 -0.62685561 9.9492275e-39
-1.0627493 0.40085244 -0.6441496 9.7666201e-39
-0.94741333 0.38730037 -0.60466486 8.9379538e-39
-0.9723984 0.38202471 -0.62325019 4.7974294e-39
-0.91055238 0.3585068 -0.5819546 8.8468092e-39
-0.93391359 0.3625477 -0.60584456 5.988044e-39
-0.90550077 0.34130281 -0.5819546 7.1858515e-39
-0.91696966 0.33408588 -0.60374391 6.0784292e-39
-0.89405358 0.30728954 -0.58688217 7.0929384e-39
-0.90671146 0.30722922 -0.60626525 7.7357911e-39
-0.86937177 0.2769022 -0.577905 6.7234244e-39
-0.88420045 0.28300118 -0.59606546 5.7100152e-39
-0.8791827 0.26182342 -0.59201509 4.3288716e-39
-0.88939393 0.24708092 -0.60510743 3.0406425e-39
-0.89628446 0.21810025 -0.60698879 2.6693433e-39
-0.91464818 0.2074011 -0.61220062 2.7619088e-39
-0.9175061 0.180444 -0.61345571 4.2316509e-39
-0.93760502 0.16164929 -0.62103039 5.9901936e-39
-0.95271218 0.15677744 -0.63469511 5.4366639e-39
-1.1191264 0.41782954 -0.61698234 6.9964534e-39
-1.0572108 0.41070917 -0.603136 9.6722791e-39
-1.0937482 0.41542602 -0.60883057 9.2152554e-39
-0.99138248 0.39763838 -0.5812431 1.0871903e-38
-1.0171336 0.4036395 -0.59243059 1.0596378e-38
-1.033929 0.40611726 -0.60768163 1.0133623e-38
-0.95063841 0.38415706 -0.57374537 9.8602591e-39
-0.97484815 0.39019763 -0.59017467 1.1148491e-38
-0.91868961 0.36359239 -0.55953401 8.2929193e-39
-0.93201697 0.36565948 -0.57876813 8.5698692e-39
-0.89393771 0.33463913 -0.55221516 6.1742219e-39
-0.91022789 0.34108281 -0.56578588 6.3578985e-39
-0.88783944 0.32251179 -0.5607785 5.5270504e-39
-0.89884031 0.30121225 -0.56470799 5.1593525e-39
-0.87404454 0.2755301 -0.56077844 5.1579036e-39
-0.89378893 0.2840082 -0.56470799 5.156826e-39
-0.87153637 0.26698792 -0.56077844 3.8711248e-39
-0.88576233 0.25521964 -0.56327075 4.5146838e-39
-0.89595783 0.24139017 -0.57732093 4.052998e-39
-0.89602101 0.21781135 -0.57431114 2.3027257e-39
-0.90354955 0.19184262 -0.56842494 1.9335887e-39
-0.92785871 0.17460799 -0.5844928 2.577163e-39
-1.0934027 0.43145996 -0.57104051 7.5398615e-39
-1.1269084 0.42559963 -0.59842271 6.4381943e-39
-1.0318073 0.41482544 -0.5539996 9.0315704e-39
-1.0571097 0.4194873 -0.56875795 9.0294236e-39
-1.0965987 0.42157573 -0.58702469 8.9408167e-39
-0.97100151 0.39949661 -0.54655784 9.8584542e-39
-1.0007089 0.40482372 -0.55031055 9.3992781e-39
-1.0255319 0.40698409 -0.56740576 9.1230458e-39
-0.95249617 0.38502675 -0.54347694 9.5825806e-39
-0.92484176 0.36365473 -0.53883815 8.4769421e-39
-0.90147936 0.34015685 -0.53223419 6.634456e-39
-0.91653788 0.34117663 -0.54458702 6.8181396e-39
-0.89176404 0.31458604 -0.5327757 5.6192433e-39
-0.90475118 0.30103397 -0.54458702 5.5266861e-39
-0.88449609 0.28173989 -0.5316633 3.3143455e-39
-0.89840806 0.27798015 -0.54314977 4.3277688e-39
-0.89200747 0.25182867 -0.53883815 3.95828e-39
-0.88930857 0.23393393 -0.53021485 2.3916704e-39
-0.89851367 0.21583515 -0.54337704 3.2221485e-39
-0.90106833 0.19033951 -0.54240191 2.3009209e-39
-0.93091261 0.17381459 -0.55695009 2.6686314e-39
-0.95223558 0.15735346 -0.56740576 3.2257568e-39
-1.1399401 0.4418833 -0.57058322 3.9579115e-39
-1.048195 0.43906567 -0.52271861 2.1183835e-39
-1.0715512 0.43877015 -0.54087007 5.7107018e-39
-1.1094817 0.43767348 -0.55950284 4.5964804e-39
-1.0174638 0.41946149 -0.52472901 3.6881783e-39
-1.0413939 0.42492267 -0.53165603 5.80438e-39
-1.0602664 0.427654 -0.54014784 9.5904909e-39
-0.97637856 0.40586638 -0.51827121 2.7658759e-39
-0.9982146 0.41197586 -0.53290731 8.9361265e-39
-0.93930376 0.37809557 -0.504345 1.7502666e-39
-0.95579922 0.38494223 -0.51762325 3.3158057e-39
-0.91431224 0.35649258 -0.50511712 1.1974796e-39
-0.93433917 0.36553794 -0.50865662 1.7492016e-39
-0.9038955 0.3407501 -0.50395226 9.2196331e-40
-0.88739622 0.31290829 -0.50225812 4.6098516e-40
-0.87967265 0.28291231 -0.50248492 3.6913985e-40
-0.87998807 0.25748241 -0.4995344 5.5245631e-40
-0.89662611 0.24580073 -0.51727992 6.4392747e-40
-0.87958753 0.23678821 -0.50368989 7.3504691e-40
-0.89064443 0.2167232 -0.50865668 5.5173745e-40
-0.90372717 0.21088308 -0.52087951 5.5137451e-40
-0.88744056 0.19710803 -0.50003332 3.6842239e-40
-0.89666784 0.18355393 -0.51762325 4.6026209e-40
-1.0539447 0.44060546 -0.50484371 3.5988946e-39
-1.0733813 0.44656882 -0.51463509 4.4239609e-39
-1.0003403 0.428792 -0.47658321 1.4697897e-39
-1.0226547 0.43145853 -0.49794531 2.2119847e-39
-0.9881891 0.40849417 -0.48925093 1.4744392e-39
-0.96406925 0.38133794 -0.48614627 1.4744448e-39
-0.92248952 0.35409158 -0.47514561 3.4123579e-39
-0.94185078 0.36239803 -0.48019978 2.3042167e-39
-0.96253645 0.36297071 -0.47312137 4.34657e-39
-0.90482819 0.34012771 -0.47256264 4.4279196e-39
-0.89249575 0.31131345 -0.47181609 3.5941946e-39
-0.88377869 0.28162545 -0.47181606 4.4257392e-39
-0.87809074 0.25566214 -0.4721927 4.6090528e-39
-0.87930381 0.23455197 -0.47135499 3.5909534e-39
-0.89795268 0.21115142 -0.47847512 2.1194121e-39
-0.91201913 0.20844841 -0.49048796 7.3648324e-40
-0.89332235 0.19538105 -0.47847512 1.5673425e-39
-0.90397656 0.17855179 -0.4880071 2.0257829e-39
-1.0139922 0.45321593 -0.45471615 1.1980774e-38
-1.0354985 0.44968942 -0.47737086 7.3857734e-39
-1.0073093 0.43486935 -0.45908958 8.0221198e-39
-1.024073 0.4377954 -0.47123474 3.222227e-39
-0.99870884 0.40557742 -0.45908961 7.7433693e-39
-0.97236145 0.37890321 -0.45575482 8.1096379e-39
-0.92657244 0.35266513 -0.4444167 8.5749405e-39
-0.94963205 0.36104769 -0.45260528 7.931013e-39
-0.90933263 0.33861721 -0.4420546 5.3451885e-39
-0.90061581 0.3089292 -0.4420546 3.4090957e-39
-0.89189875 0.2792412 -0.4420546 4.33321e-39
-0.86974156 0.25666934 -0.43230104 3.4055e-39
-0.88237298 0.25624019 -0.45140818 3.0442873e-39
-0.83304155 0.24143273 -0.42038929 3.8693242e-39
-0.85598314 0.23117799 -0.43153331 2.5818336e-39
-0.88029325 0.22361702 -0.45096734 1.1978383e-39
-0.90181625 0.20690244 -0.46122855 1.1034791e-39
-0.85690224 0.20685482 -0.42627013 9.2626529e-40
-0.87509882 0.19500118 -0.43599835 1.2885738e-39
-0.89920413 0.193654 -0.4569169 2.114743e-39
-0.94536746 0.16974247 -0.47123474 6.439527e-40
-1.0520183 0.44770741 -0.43611705 1.013758e-38
-1.0122725 0.42528844 -0.43284908 7.0969433e-39
-1.0336879 0.43497223 -0.43599328 7.9288466e-39
-1.0058681 0.40347528 -0.43284911 8.1121504e-39
-0.97946894 0.37681633 -0.42970493 8.2908006e-39
-0.93017042 0.35820997 -0.41446215 7.9302661e-39
-0.9579531 0.36327624 -0.4267354 9.1244765e-39
-0.91745269 0.33623308 -0.41229317 4.5172271e-39
-0.89101613 0.29747236 -0.4009403 9.1946339e-40
-0.90886438 0.30776364 -0.41306618 6.0852689e-39
-0.83901274 0.28454632 -0.38445675 9.864889e-39
-0.87902105 0.28001338 -0.40740311 5.6235733e-39
-0.90134919 0.28568 -0.41654477 8.1146462e-39
-0.81889069 0.2724098 -0.38183138 4.8849264e-39
-0.8386687 0.26552361 -0.40019923 3.2250492e-39
-0.8752805 0.26092422 -0.41782686 5.9948739e-39
-0.80930889 0.24184847 -0.38388482 2.8526835e-39
-0.8248986 0.24142981 -0.40000197 3.132855e-39
-0.8465308 0.21923232 -0.41503206 4.9771221e-39
-0.80445611 0.22324848 -0.38183138 3.4911894e-39
-0.82150781 0.20891345 -0.38808867 4.1444761e-39
-0.85038579 0.19978577 -0.4078269 3.4090775e-39
-0.87030232 0.18423313 -0.42079639 1.4733392e-39
-0.88203013 0.16427588 -0.40806776 6.4392747e-40
-0.89884651 0.15327007 -0.41811213 1.6562745e-39
-0.91325629 0.1469292 -0.42536327 1.749189e-39
-0.96159065 0.12617421 -0.43913743 1.929623e-39
-0.91062582 0.13358861 -0.42102161 3.4958501e-39
-0.95337522 0.10954535 -0.43393034 3.9543143e-39
-0.9703232 0.1016857 -0.45121908 3.5866192e-39
-0.9835664 0.089178085 -0.46360955 1.8453307e-39
-0.96800482 0.082514226 -0.44004729 4.5064273e-39
-0.98622286 0.066895306 -0.45572245 3.1263655e-39
-0.99566329 0.045436859 -0.44891933 3.4954914e-39
-1.0108114 0.034875274 -0.45680752 1.748473e-39
-1.0548867 0.44879276 -0.41106012 9.7641272e-39
-1.0218185 0.42248559 -0.39786175 1.8413202e-40
-1.041833 0.42922452 -0.41104057 8.4802127e-39
-1.0130275 0.40137315 -0.40660864 8.110347e-39
-0.95571387 0.372172 -0.38094953 6.5506051e-39
-0.96988952 0.369115 -0.39224222 8.6598956e-39
-0.99295652 0.37433755 -0.40367472 9.76699e-39
-0.91452658 0.35765857 -0.38123935 1.2918557e-39
-0.93782341 0.36131048 -0.38912037 7.9273906e-39
-0.90886915 0.34407216 -0.38686821 3.1368304e-39
-0.92396915 0.33124846 -0.38536611 6.6348427e-39
-0.86197126 0.30941403 -0.36087385 9.1269694e-39
-0.89511907 0.3070991 -0.37908408 7.1005251e-39
-0.91822875 0.31527466 -0.38890907 6.5462681e-39
-0.80503142 0.29821277 -0.34447697 1.8370939e-39
-0.82667625 0.29797226 -0.35738406 5.1579344e-39
-0.85624206 0.29166001 -0.3723667 4.2410242e-39
-0.88056147 0.28811961 -0.3879512 7.2809128e-39
-0.79176962 0.28010291 -0.35178521 4.5161551e-39
-0.80679524 0.2758466 -0.3712092 4.7898483e-39
-0.78808081 0.25267482 -0.34924459 4.2384878e-39
-0.80458009 0.24330151 -0.36700517 4.6072578e-39
-0.78484595 0.22946543 -0.34447697 4.8820594e-39
-0.80103886 0.21384847 -0.35912058 1.7506408e-39
-0.81704605 0.20138478 -0.37618646 2.7637221e-39
-0.8244139 0.18779057 -0.3671048 2.3052691e-39
-0.85015237 0.16608953 -0.37940899 7.3613151e-40
-0.86846006 0.14791989 -0.3910349 1.5626412e-39
-0.90034592 0.12791353 -0.3879306 2.6668209e-39
-0.92001617 0.11630535 -0.40511587 4.1372665e-39
-0.95004356 0.093938112 -0.41325748 4.6900857e-39
-0.95706856 0.07942611 -0.40807876 4.6929458e-39
-0.97100246 0.067915082 -0.41546929 4.6907906e-39
-0.9942807 0.051338792 -0.42469835 4.7822701e-39
-0.9974612 0.035079539 -0.43259048 3.9525249e-39
-1.01446 0.028853059 -0.43853027 4.1390839e-39
-1.0342771 0.44725987 -0.38036811 1.6503657e-38
-1.054073 0.44807941 -0.38019428 7.0958783e-39
-1.0300053 0.42869768 -0.3763923 7.8384516e-39
-1.0491358 0.42089012 -0.36991554 6.2661121e-39
-1.0208851 0.3981182 -0.37686941 8.9415482e-39
-0.95570576 0.37741268 -0.35509294 6.9161282e-39
-0.977121 0.37633538 -0.37499568 1.0206042e-38
-1.0017956 0.37999636 -0.37397012 9.958577e-39
-0.92521894 0.36176175 -0.34922531 4.6108577e-39
-0.9364816 0.35598308 -0.36765096 5.6268159e-39
-0.91809046 0.33343589 -0.34521478 3.8751185e-39
-0.93106544 0.3335523 -0.36370304 8.1113965e-39
-0.79216111 0.33179152 -0.307834 8.0202855e-39
-0.81302798 0.33333522 -0.31719363 5.7132788e-39
-0.84685409 0.3220489 -0.33665532 6.1767513e-39
-0.86833107 0.32094753 -0.34109178 4.147751e-39
-0.90332353 0.31872654 -0.35122004 7.7433791e-39
-0.78435433 0.31025034 -0.31283307 2.7626543e-39
-0.79814637 0.30935854 -0.32860973 5.4399009e-39
-0.82765305 0.31393528 -0.33856568 5.4385024e-39
-0.77814472 0.28607374 -0.30983362 3.2246792e-39
-0.78757966 0.28016102 -0.32698101 4.6097885e-39
-0.76805961 0.25509053 -0.31316632 5.2547641e-39
-0.78013098 0.25377697 -0.32597455 2.7647969e-39
-0.78328097 0.22626466 -0.32151404 2.9459442e-39
-0.80188167 0.20390749 -0.33218315 1.5651579e-39
-0.82995355 0.17942786 -0.34012747 2.4849702e-39
-0.85644758 0.15694678 -0.3491092 1.2885738e-39
-0.86262786 0.14113396 -0.34183744 3.1353759e-39
-0.87524974 0.13671267 -0.35702184 2.6668251e-39
-0.90387523 0.12687731 -0.37499568 1.9314251e-39
-0.92705405 0.10953462 -0.37466082 3.7735202e-39
-0.94996297 0.092022598 -0.37872589 4.1416119e-39
-0.96247184 0.075435936 -0.38589403 4.6018431e-39
-0.97500694 0.063511372 -0.39759442 5.7978514e-39
-0.99021399 0.048199534 -0.40057799 5.7150318e-39
-1.0029062 0.033480823 -0.41263303 3.3071877e-39
-1.0725466 0.44443861 -0.35185868 7.8370083e-39
-1.0380806 0.42600352 -0.34647411 7.0047169e-39
-1.0614196 0.43160281 -0.33907926 5.9995949e-39
-1.0249659 0.40028423 -0.34550288 8.2036132e-39
-0.94240701 0.383017 -0.31228602 9.2235203e-39
-0.96120417 0.38215107 -0.33087471 8.3865625e-39
-0.99393594 0.39008534 -0.33187926 7.9270557e-39
-0.93286383 0.36112255 -0.31829768 7.0968985e-39
-0.94945467 0.36369085 -0.33151203 7.277694e-39
-0.83595264 0.3462376 -0.28772143 3.9806545e-39
-0.84834683 0.34322941 -0.29776123 1.1024912e-39
-0.8864485 0.34043425 -0.30901498 8.6692605e-39
-0.91337264 0.33874017 -0.32460454 7.4664041e-39
-0.79175723 0.33856493 -0.28519568 6.9143219e-39
-0.81470311 0.34307963 -0.29779449 7.0951343e-39
-0.78327715 0.31253922 -0.28674477 4.6998275e-39
-0.78130424 0.28295708 -0.28755367 4.1470027e-39
-0.77575171 0.25572097 -0.2878378 3.8711248e-39
-0.78860128 0.24605554 -0.28974301 3.4079887e-39
-0.7716862 0.23380357 -0.27983916 3.1231355e-39
-0.79012167 0.22274315 -0.29661551 4.0548183e-39
-0.81222117 0.20037413 -0.30554557 1.3800786e-39
-0.84672296 0.17877042 -0.31214112 2.2048282e-39
-0.86321414 0.15844423 -0.32044744 5.4356073e-39
-0.86608326 0.14011937 -0.32917255 7.7476867e-39
-0.90840781 0.11620283 -0.3491258 3.5905863e-39
-0.96796381 0.076227069 -0.36814621 2.8566324e-39
-1.0535151 0.44950914 -0.31768247 6.7274532e-39
-1.0689846 0.4484742 -0.33026889 1.5579905e-38
-1.0458363 0.42372623 -0.31804693 5.8090772e-39
-1.0638236 0.43089697 -0.33026889 1.3365426e-38
-1.0058726 0.39592409 -0.29738608 1.0412322e-38
-1.0315589 0.40008551 -0.31647635 8.6656816e-39
-0.94961607 0.38455969 -0.28948921 7.0962189e-39
-0.96745169 0.39065403 -0.29749888 1.0413454e-38
-0.99981773 0.38835829 -0.31032103 9.4932646e-39
-0.90938175 0.35435265 -0.27467057 7.660184e-39
-0.93498981 0.3631649 -0.29105493 5.157224e-39
-0.82975137 0.34755349 -0.26607558 8.3012192e-39
-0.86718857 0.34699863 -0.27447817 6.2563422e-39
-0.89098322 0.34830385 -0.28395981 5.5274456e-39
-0.77994287 0.34299976 -0.24844833 5.1651399e-39
-0.79177082 0.34009075 -0.26618659 1.0687818e-38
-0.77336586 0.31503344 -0.24862118 3.5945688e-39
-0.78362215 0.31233758 -0.26618657 8.850049e-39
-0.76708996 0.29206455 -0.24704209 4.422142e-39
-0.77857649 0.27998948 -0.25847384 4.2381249e-39
-0.78008831 0.25424886 -0.25712022 3.4090803e-39
-0.77605093 0.23252207 -0.26384217 6.0629378e-39
-0.79254305 0.22083062 -0.26607558 1.0414851e-38
-0.84186685 0.19409692 -0.28521305 1.5404948e-38
-0.85248578 0.18158948 -0.29548752 9.1339114e-39
-0.8662833 0.16799575 -0.29761696 1.0690767e-38
-1.0606157 0.44426507 -0.28852642 9.7698571e-39
-1.0542113 0.42245194 -0.28852642 8.3901596e-39
-0.98046768 0.40065271 -0.26348582 6.0943045e-39
-1.0094017 0.39488792 -0.28445116 9.3031518e-39
-1.0383228 0.40322506 -0.28548166 8.8504301e-39
-0.94667971 0.38925594 -0.26150504 8.2021895e-39
-0.91019928 0.3573789 -0.25151092 6.083855e-39
-0.93556845 0.36756617 -0.2615537 6.905334e-39
-0.81882966 0.34996092 -0.23584738 7.4581574e-39
-0.84587133 0.34738123 -0.22613579 8.1190056e-39
-0.87737095 0.34994215 -0.24303599 5.4377219e-39
-0.89578855 0.34852606 -0.25626701 5.3394096e-39
-0.78638184 0.33545291 -0.22493286 9.9481275e-39
-0.80552781 0.33735836 -0.224371 2.8602632e-39
-0.77260625 0.31327772 -0.22019434 5.3459158e-39
-0.79904282 0.32072937 -0.22246657 1.4701288e-39
-0.76901186 0.28710085 -0.22167753 4.7019813e-39
-0.78398526 0.25063998 -0.2294268 3.3186867e-39
-0.78020036 0.23141074 -0.22314568 5.5104899e-39
-1.0562705 0.44876516 -0.25646254 8.1085687e-39
-1.0566 0.42119977 -0.25728804 7.3731393e-39
-0.97171056 0.40185857 -0.23207499 9.2145632e-39
-0.99918568 0.40225273 -0.24334721 9.4014319e-39
-1.0226012 0.40502769 -0.24995802 7.0043637e-39
-1.0383831 0.40656108 -0.26038069 4.5223349e-39
-0.93398774 0.38772839 -0.22470987 1.0325898e-38
-0.95589769 0.3919934 -0.2366595 7.1005265e-39
-0.89722764 0.36510783 -0.20934094 3.9611919e-39
-0.91682494 0.36953878 -0.22365147 6.7328103e-39
-0.94371188 0.37244499 -0.23890942 9.2265695e-41
-0.80224383 0.35361081 -0.18940021 6.9183436e-39
-0.81986582 0.35213506 -0.20038047 1.0783992e-38
-0.84993255 0.35042834 -0.20570134 6.826099e-39
-0.88632119 0.35284835 -0.21832748 5.8947708e-39
-0.78761995 0.34173054 -0.1875999 6.9128842e-39
-0.80811656 0.33959788 -0.21054292 1.3179991e-38
-0.76117814 0.32222432 -0.19084167 5.4327094e-39
-0.77579653 0.31374186 -0.18795322 4.7931008e-39
-0.77368176 0.28662115 -0.18869382 5.2558768e-39
-0.78941071 0.27187896 -0.20656836 1.6534537e-39
-0.790007 0.25013441 -0.19900984 3.4108726e-39
-0.79350913 0.22739595 -0.19985405 6.2458927e-39
-0.80569065 0.21486574 -0.20117696 1.4750562e-38
-1.0728706 0.46298361 -0.22184557 1.4289618e-38
-1.0635816 0.4465324 -0.22592269 9.0297935e-39
-1.0370349 0.41791964 -0.21402766 1.0316191e-38
-1.0545856 0.42291063 -0.22921841 7.2766458e-39
-0.97862136 0.39982945 -0.20674519 8.2032699e-39
-1.0071267 0.40683264 -0.21517093 8.8486449e-39
-0.91228878 0.38738549 -0.18059255 6.6381008e-39
-0.93566048 0.39129555 -0.19919899 6.9125184e-39
-0.95794618 0.39552766 -0.21374908 4.8677353e-39
-0.90027416 0.37281692 -0.1884184 6.1752981e-39
-0.81101954 0.35958982 -0.16571175 8.5691671e-39
-0.8351258 0.3621614 -0.16735376 9.8660717e-39
-0.86268675 0.36126441 -0.17340137 9.4006948e-39
-0.89195716 0.35388571 -0.19406918 6.9128674e-39
-0.79248774 0.34313303 -0.16075118 4.980743e-39
-0.7832948 0.31182361 -0.16075118 5.1600742e-39
-0.77870023 0.28258628 -0.16264406 5.6224831e-39
-0.77835929 0.25401044 -0.1634376 3.4119684e-39
-0.79151571 0.24829262 -0.17609683 4.1430342e-39
-0.79298079 0.22395921 -0.16898128 8.9278659e-39
-0.80898559 0.21389824 -0.18909977 1.5034329e-38
-1.0705127 0.44323522 -0.19652796 8.0174633e-39
-1.0416828 0.41344035 -0.19390662 8.6624403e-39
-1.0625097 0.42299861 -0.19525601 9.0351998e-39
-0.9866842 0.39746207 -0.17719376 9.5905217e-39
-1.0106117 0.40670758 -0.18552838 7.2816807e-39
-0.91789138 0.38574046 -0.16005796 8.204709e-39
-0.94254458 0.39292943 -0.16756172 7.6479465e-39
-0.88445032 0.37065256 -0.14826493 7.6518828e-39
-0.89917457 0.37630796 -0.15902622 4.9742536e-39
-0.81790245 0.35115206 -0.13412713 6.7299377e-39
-0.84392107 0.35682392 -0.14091845 6.9193372e-39
-0.86477578 0.36327338 -0.14884245 5.5324454e-39
-0.79893839 0.33829606 -0.13419297 7.1876704e-39
-0.78145778 0.32049233 -0.1206976 3.6774836e-40
-0.79000103 0.30863994 -0.13496907 5.5285064e-39
-0.78274405 0.28222775 -0.13328768 4.7026974e-39
-0.78110349 0.25318164 -0.13393274 3.8711417e-39
-0.80302966 0.24204087 -0.1310519 2.5793631e-39
-0.80819952 0.22091591 -0.14386447 9.0124847e-39
-0.8243705 0.20635056 -0.14920931 1.5030381e-38
-0.8477906 0.19306898 -0.15086532 1.586019e-38
-1.0749229 0.43723014 -0.16746947 9.1270114e-39
-1.0306498 0.41459927 -0.1494111 8.2994298e-39
-1.0508169 0.41698748 -0.1665996 6.8235976e-39
-1.0708886 0.42524266 -0.16920611 8.8536812e-39
-0.96621144 0.40082282 -0.12895186 7.6432451e-39
-0.98977816 0.39969891 -0.14556989 8.0196171e-39
-1.0140055 0.40616131 -0.15577775 9.8599003e-39
-0.892156 0.3928771 -0.11503285 8.758596e-39
-0.92217982 0.39292228 -0.12919801 7.5590117e-39
-0.9466027 0.3943997 -0.14487888 9.1266667e-39
-0.87984431 0.37646526 -0.12081762 5.5306784e-39
-0.82486451 0.34696895 -0.10649067 7.1887746e-39
-0.84756219 0.35353827 -0.11318933 5.8965518e-39
-0.8724643 0.36101586 -0.12066236 4.2431822e-39
-0.79126108 0.33028108 -0.097316287 4.5956144e-40
-0.80750716 0.33524501 -0.10225742 7.4685719e-39
-0.78625762 0.31673712 -0.10078017 5.4373856e-39
-0.79706442 0.29988569 -0.10246123 4.1488216e-39
-0.79130733 0.27971333 -0.10190075 4.5165069e-39
-0.7888428 0.25488764 -0.10609559 4.3296017e-39
-0.80942976 0.23441964 -0.10190525 3.218557e-39
-0.83333981 0.21246147 -0.12499849 1.3617935e-38
-1.0520545 0.4366703 -0.11976948 4.7827171e-39
-1.0674704 0.443243 -0.13641804 1.1982925e-38
-1.0834211 0.44038007 -0.1419158 5.7097111e-39
-1.0377113 0.4205929 -0.12461618 7.185546e-39
-1.0620269 0.42615417 -0.13785525 1.1249307e-38
-1.0756267 0.42385149 -0.15183948 2.664733e-39
-0.97075498 0.39948863 -0.11229828 9.9567889e-39
-0.9989413 0.40635538 -0.11957373 8.2022105e-39
-0.90566695 0.38726449 -0.093130954 7.4682118e-39
-0.93076169 0.39476639 -0.098150186 8.4787876e-39
-0.87184608 0.36906087 -0.075877093 2.3881993e-39
-0.8858825 0.3753171 -0.089554496 6.8203452e-39
-0.83240473 0.34475499 -0.078854084 7.4642223e-39
-0.85803139 0.3562699 -0.086553164 4.7930966e-39
-0.8148886 0.33230478 -0.074437134 5.988058e-39
-0.78858745 0.30150932 -0.077831767 4.241041e-39
-0.80751836 0.30641156 -0.073652431 7.0983418e-39
-0.80034101 0.27706689 -0.074483737 3.8718801e-39
-0.80638635 0.25614256 -0.078854084 4.3335561e-39
-0.82636344 0.23401266 -0.082752399 3.8653669e-39
-0.85342205 0.20933014 -0.093130954 1.3535044e-38
-0.86370409 0.20608163 -0.11006092 1.325417e-38
-1.1004566 0.43400711 -0.11102231 8.2922439e-39
-1.1290792 0.43082926 -0.11000975 1.3650008e-38
-1.0430297 0.41534355 -0.098016731 7.834109e-39
-1.071438 0.4233909 -0.10336211 1.2911696e-38
-0.97529876 0.39815462 -0.09564475 9.2320345e-41
-1.0071644 0.39864409 -0.089758649 1.1155675e-38
-1.0318485 0.40399337 -0.093420304 3.3162233e-39
-0.91043174 0.38740218 -0.065490685 6.9100508e-39
-0.93988907 0.39308536 -0.071168832 9.6830887e-39
-0.96125853 0.39203084 -0.078455426 1.6123395e-38
-0.87693822 0.36756575 -0.05721391 1.0694692e-38
-0.8946439 0.37444413 -0.05912625 8.6642564e-39
-0.84102213 0.34222478 -0.047269505 3.6748702e-39
-0.86559403 0.35323316 -0.055699985 7.2834604e-39
-0.82471955 0.32950741 -0.047022842 6.5462485e-39
-0.81433761 0.30270886 -0.046973627 5.2533586e-39
-0.80861104 0.27464157 -0.047018714 4.7920162e-39
-0.83585536 0.23576218 -0.055016879 3.4079803e-39
-0.86116445 0.20705676 -0.064753175 1.1405234e-38
-0.87595022 0.20248592 -0.065176032 1.0851362e-38
-1.0821983 0.42957509 -0.073180616 9.8652995e-39
-1.1087128 0.43222883 -0.0879829 7.8409726e-39
-1.1547805 0.43482563 -0.093055256 7.7520448e-39
-1.1694363 0.43251887 -0.10712767 1.4098409e-38
-1.0011238 0.4356834 -0.045684054 1.0048989e-38
-1.0230228 0.42294067 -0.063105054 6.1724633e-39
-1.0471121 0.42380515 -0.073976696 1.1345469e-38
-1.074967 0.42235467 -0.090427183 9.2300727e-41
-0.97959912 0.40767846 -0.049619172 7.0983558e-39
-1.0096458 0.40089053 -0.068010546 3.22295e-39
-1.0353285 0.40297163 -0.080665462 1.3173172e-38
-0.91714895 0.38581401 -0.038324989 7.2849093e-39
-0.94784129 0.39173645 -0.041434698 8.4765903e-39
-0.88493979 0.36521631 -0.027886029 8.5705936e-39
-0.90252411 0.37399983 -0.032096285 7.6504744e-39
-0.84971845 0.3439492 -0.019632909 8.7622072e-39
-0.87405789 0.35290349 -0.02681241 7.740847e-39
-0.83300221 0.32631063 -0.016683431 4.6094242e-39
-0.82290113 0.3001945 -0.015586672 4.9785654e-39
-0.81843698 0.27177137 -0.019550992 3.3176049e-39
-0.83833611 0.23694164 -0.02655334 5.5234505e-39
-0.85198343 0.20999724 -0.040147744 1.8243152e-38
-1.0033957 0.4350163 -0.037357233 7.1963304e-39
-1.0273446 0.4288227 -0.029279809 7.5550348e-39
-0.99164832 0.40824395 -0.025401743 8.4794938e-39
-1.0188195 0.41097435 -0.023648469 7.470025e-39
-0.93000066 0.38011968 -0.0039436854 6.2661093e-39
-0.95810187 0.39072442 -0.015603047 8.4780561e-39
-0.89374912 0.36696303 0.00010876959 7.465695e-39
-0.91139138 0.37575811 -0.0039161909 7.2795115e-39
-0.85402739 0.34268403 -0.003840683 2.2048633e-39
-0.87955296 0.34747028 0.004091762 8.3898191e-39
-0.84713662 0.32316917 0.0093056802 7.2809394e-39
-0.83508003 0.29669881 0.011910033 3.4126886e-39
-0.82945049 0.26858962 0.0079683736 5.0668038e-39
-0.82478654 0.24945664 0.010332594 8.565556e-39
-0.8482126 0.2308473 -0.0058902805 1.1331384e-38
-1.0438005 0.41728574 -0.0041067107 9.4007327e-39
-1.0660003 0.42160648 0.0043672528 1.1522981e-38
-0.99276054 0.40185553 0.011608594 7.4642531e-39
-1.0226048 0.40834826 -0.0082726972 6.365495e-39
-0.93663704 0.37817109 0.020380156 5.7168844e-39
-0.96875679 0.38606238 0.011259098 4.1448643e-39
-0.91708791 0.36536151 0.025605815 7.2830988e-39
-0.89212334 0.33855164 0.022771191 7.3698882e-39
-0.91181695 0.33928317 0.033657271 5.3484452e-39
-0.8810581 0.31538773 0.030321481 7.9252326e-39
-0.84529912 0.28107882 0.027743893 6.4472145e-39
-0.87366617 0.28791291 0.032599848 6.6305478e-39
-0.83131731 0.26801926 0.027628189 1.2815527e-38
-0.87194288 0.25636613 0.036102053 1.7228279e-38
-0.88700187 0.25205922 0.03634109 1.8606825e-38
-1.048941 0.41348922 0.017001387 8.6570636e-39
-1.0658296 0.41244295 0.012870599 9.8645386e-39
-1.0379256 0.39339221 0.033171561 2.5796686e-39
-0.96410453 0.37610501 0.032847539 4.5208565e-39
-0.99916613 0.37253588 0.039523937 7.6562086e-39
-1.0265926 0.37537169 0.037854619 4.967114e-39
-0.93235528 0.36155188 0.041897438 4.981092e-39
-0.96040094 0.35484707 0.05055137 9.313202e-39
-0.92278683 0.33397883 0.049929965 7.099781e-39
-0.91354382 0.30731142 0.047760203 5.7161529e-39
-0.93691909 0.29069513 0.053156793 4.2284265e-39
-0.89981043 0.28755647 0.044392545 8.1128217e-39
-0.93587053 0.26813853 0.050030347 4.6973024e-39
-0.93542445 0.23819333 0.045287788 8.2781455e-39
-0.9510349 0.2023223 0.04575488 6.8880434e-39
-0.95294821 0.17915875 0.045910634 1.9502958e-38
-1.0477303 0.37953776 0.046552863 7.0039069e-39
-1.0675529 0.37968963 0.051135309 3.2196416e-39
-1.0088753 0.36122882 0.054237396 1.3636641e-38
-1.0394932 0.36503607 0.056526322 8.5648497e-39
-0.97118151 0.34339356 0.061715484 9.688132e-39
-0.99623978 0.3474924 0.066994995 1.0047168e-38
-0.96056473 0.32354361 0.070485614 8.4791225e-39
-0.9522208 0.29531896 0.069740728 5.7118131e-39
-0.97264016 0.27219415 0.078680404 7.0028784e-39
-0.95188057 0.2748946 0.064453423 5.8954925e-39
-0.96475041 0.25459701 0.069491141 5.431608e-39
-0.97036684 0.23355508 0.062490549 3.221794e-39
-0.98739898 0.21649194 0.063014992 3.4069251e-39
-0.95758665 0.19860327 0.065696903 5.4308835e-39
-0.98187196 0.19766819 0.063014992 5.8922134e-39
-0.94798267 0.17257047 0.067590475 8.187026e-39
-1.0672971 0.36594439 0.063890211 2.5905272e-39
-0.97413123 0.32027763 0.094570763 8.3902171e-39
-0.98923147 0.31033605 0.096875131 1.0039241e-38
-0.96346986 0.29225826 0.086357005 5.8043982e-39
-0.98236525 0.28242868 0.096037075 1.1327808e-38
-0.97410715 0.25386828 0.09528707 9.3002119e-39
-0.97178161 0.22850525 0.092478521 7.7343239e-39
-0.99136126 0.21305662 0.079788573 5.5234575e-39
-0.9390825 0.1926195 0.10278458 8.7437801e-39
-0.96428049 0.20068872 0.092067204 8.0080382e-39
-0.93612969 0.1792466 0.1060701 7.7311136e-39
-0.94935977 0.16888332 0.094124474 5.8890002e-39
-0.95169508 0.13966686 0.093344815 8.2813881e-39
-0.96925318 0.13776177 0.079788573 1.5679246e-38
-0.96646035 0.11131984 0.096562147 6.4432656e-39
-0.98085439 0.31830359 0.11921228 2.2039058e-38
-0.99248374 0.3022123 0.11589681 1.4359494e-38
-0.99174774 0.28013641 0.12431721 1.2798597e-38
-0.96729314 0.2555359 0.13563992 1.2796817e-38
-0.97907817 0.25238156 0.12003186 1.1694783e-38
-0.95542634 0.23052317 0.13134752 1.0772842e-38
-0.97072399 0.23019135 0.11382919 9.577889e-39
-0.94482052 0.20331067 0.12842898 9.2058695e-39
-0.96228731 0.20354486 0.11176163 8.7456074e-39
-0.93146026 0.17279416 0.13098322 7.2697613e-39
-0.93100059 0.14393258 0.13746153 4.7837331e-39
-0.9518317 0.13647938 0.11952716 7.3590828e-39
-0.97441542 0.10652864 0.11352649 7.2733626e-39
-1.0365199 0.29067075 0.15526974 7.806481e-39
-0.99749696 0.27839094 0.14910164 5.4269123e-39
-0.96833122 0.25078112 0.14385374 1.2887928e-38
-0.98814523 0.25195962 0.15104559 1.2245789e-38
-0.956972 0.23404855 0.14952399 1.1600795e-38
-0.95352328 0.20366108 0.14840737 9.4806501e-39
-0.93136919 0.17294997 0.1510874 7.5445615e-39
-0.92766201 0.14110297 0.14819394 4.3220249e-39
-0.93328226 0.12312299 0.15206762 5.0595787e-39
-0.95522249 0.10839832 0.14709036 7.2694025e-39
