# .PCD v0.7 - Point Cloud Data file format
VERSION 0.7
FIELDS x y z rgb
SIZE 4 4 4 4
TYPE F F F F
COUNT 1 1 1 1
WIDTH 850
HEIGHT 1
VIEWPOINT 0 0 0 1 0 0 0
POINTS 850
DATA ascii
4.239109 -0.47589436 -1.5899098 6.910331e-39
4.2439022 -0.44584844 -1.5925701 8.2932683e-39
4.2484312 -0.42137772 -1.5925701 9.0315788e-39
4.2531986 -0.39976329 -1.5899098 9.2120086e-39
4.299068 -0.50794637 -1.5813591 9.8606262e-39
4.2445402 -0.47971153 -1.568628 6.6326721e-39
4.3043823 -0.49183342 -1.5732725 6.7266726e-39
4.2528038 -0.44749585 -1.5606471 6.63124e-39
4.3074417 -0.47530311 -1.5732725 6.2721769e-39
4.2573328 -0.42302513 -1.5606471 7.4613846e-39
4.2606168 -0.40113616 -1.5633074 7.2798744e-39
4.3227382 -0.39265159 -1.5732725 6.4511493e-39
4.4589152 -0.69289422 -1.6048369 6.7209399e-39
4.4668803 -0.64985442 -1.6048369 5.0667982e-39
4.5462422 -0.59522128 -1.6102933 8.7390942e-39
4.2489128 -0.50582957 -1.536705 1.1059577e-38
4.3103428 -0.51003295 -1.540926 1.08777e-38
4.2549515 -0.47320205 -1.536705 7.3705945e-39
4.3111472 -0.49308541 -1.5490127 6.5440975e-39
4.25948 -0.44873133 -1.536705 6.8196053e-39
4.3164616 -0.4769724 -1.540926 5.6203405e-39
4.264009 -0.42426062 -1.536705 5.159396e-39
4.2670283 -0.40794688 -1.536705 4.8813826e-39
4.331758 -0.39432088 -1.540926 9.2923352e-39
4.3863554 -0.39540118 -1.5781733 3.4973215e-39
4.461936 -0.72906446 -1.5711489 1.1341523e-38
4.5219269 -0.75322175 -1.5932127 1.6953528e-38
4.4643674 -0.702806 -1.5795709 5.9898335e-39
4.4691467 -0.67698216 -1.5795709 5.7132648e-39
4.4739256 -0.65115833 -1.5795709 5.8972861e-39
4.4787049 -0.62533438 -1.5795709 6.0770377e-39
4.5477743 -0.61356038 -1.5932127 5.7150599e-39
4.5510049 -0.59610271 -1.5932127 8.730486e-39
4.3148527 -0.51086766 -1.5247527 1.511575e-38
4.5542359 -0.57864499 -1.5932127 1.4834842e-38
4.2638531 -0.47484946 -1.5047822 6.3615223e-39
4.3179121 -0.49433741 -1.5247527 9.3996158e-39
4.2661562 -0.44996694 -1.5127629 7.8337447e-39
4.2706852 -0.42549622 -1.5127629 8.6635081e-39
4.2737045 -0.40918249 -1.5127629 7.5607899e-39
4.3362679 -0.39515558 -1.5247527 1.0843493e-38
4.4067249 -0.74126112 -1.5165143 1.6861705e-38
4.4671369 -0.73596215 -1.5486901 1.3919728e-38
4.4737611 -0.70454454 -1.5458827 6.5401444e-39
4.4785404 -0.67872071 -1.5458827 5.9898447e-39
4.4833193 -0.65289688 -1.5458827 4.790947e-39
4.5533032 -0.62361145 -1.5675918 4.7884456e-39
4.3193622 -0.51170224 -1.5085795 1.4748753e-38
4.2702641 -0.48166028 -1.4781798 7.4649748e-39
4.3224216 -0.49517199 -1.5085795 9.6668631e-39
4.2750578 -0.45161435 -1.48084 7.7394008e-39
4.2795868 -0.42714363 -1.48084 8.3872856e-39
4.2843537 -0.4055292 -1.4781798 8.7524682e-39
4.3407774 -0.39599016 -1.5085795 1.0302506e-38
4.4767823 -0.74071491 -1.5121946 1.2626485e-38
4.4831548 -0.70628303 -1.5121946 5.0686143e-39
4.4879341 -0.6804592 -1.5121946 4.7923819e-39
4.492713 -0.65463531 -1.5121946 4.6087095e-39
4.4993377 -0.6232177 -1.5093873 5.0689702e-39
4.5620632 -0.61620474 -1.5419708 4.9782305e-39
4.5062132 -0.5948143 -1.5037726 8.1784347e-39
4.5652938 -0.59874707 -1.5419708 1.0319047e-38
4.3328924 -0.51420623 -1.4600596 1.3462686e-38
4.2766762 -0.48847109 -1.4515774 7.7376016e-39
4.2839594 -0.45326176 -1.4489172 7.8330202e-39
4.3390112 -0.48114568 -1.4600596 6.6380966e-39
4.2884884 -0.42879105 -1.4489172 8.5698888e-39
4.2389188 -0.39431408 -1.430329 8.6559271e-39
4.2915077 -0.41247731 -1.4489172 8.3854947e-39
4.2975459 -0.37984973 -1.4489172 1.2900166e-38
4.4790483 -0.76784253 -1.4869286 1.6858807e-38
4.4838276 -0.7420187 -1.4869286 1.0498099e-38
4.4902 -0.70758688 -1.4869286 4.8849545e-39
4.4363375 -0.65892667 -1.4666705 5.3433949e-39
4.4949794 -0.68176305 -1.4869286 5.1611602e-39
4.4410515 -0.63345468 -1.4666705 5.3451843e-39
4.5077238 -0.61289942 -1.4869286 4.3342932e-39
4.5125031 -0.58707553 -1.4869286 1.0957575e-38
4.2800684 -0.51159561 -1.424975 1.3830756e-38
4.2845974 -0.48712498 -1.424975 7.643269e-39
4.3449712 -0.49934527 -1.4277132 9.4003487e-39
4.292861 -0.45490918 -1.4169943 7.8319622e-39
4.3480306 -0.48281497 -1.4277132 6.449039e-39
4.2454329 -0.42050374 -1.3909372 8.3869297e-39
4.2951646 -0.43002665 -1.424975 8.5706203e-39
4.1937194 -0.37780184 -1.3887283 1.1701239e-38
4.2494326 -0.39070779 -1.3961895 9.029397e-39
4.2981839 -0.41371292 -1.424975 8.4784008e-39
4.4267468 -0.76252961 -1.4334414 1.7412344e-38
4.4837451 -0.76871192 -1.4700844 1.7321928e-38
4.4908733 -0.74332273 -1.4616624 8.204688e-39
4.4972458 -0.70889086 -1.4616624 5.4388093e-39
4.4432869 -0.66021276 -1.4417486 5.1597197e-39
4.5020251 -0.68306702 -1.4616624 5.0696764e-39
4.4480009 -0.63474071 -1.4417486 5.7114333e-39
4.5147696 -0.61420339 -1.4616624 4.8870929e-39
4.4566841 -0.57487726 -1.450056 1.4749088e-38
4.5179558 -0.59698749 -1.4616624 8.6418749e-39
4.28897 -0.51324302 -1.3930521 1.5208657e-38
4.293499 -0.48877239 -1.3930521 7.8366187e-39
4.353991 -0.50101459 -1.3953667 1.0233365e-38
4.2995372 -0.45614478 -1.3930521 7.5564389e-39
4.3040662 -0.43167406 -1.3930521 8.295111e-39
4.3085952 -0.40720344 -1.3930521 8.0177814e-39
4.3131237 -0.38273275 -1.3930521 1.1047986e-38
4.4352674 -0.75532508 -1.4085195 1.3917933e-38
4.5018597 -0.73645318 -1.4279743 5.1586267e-39
4.4446959 -0.70438099 -1.4085195 5.9909013e-39
4.4509811 -0.67041826 -1.4085195 5.3448298e-39
4.4570179 -0.6334824 -1.4112886 5.7132438e-39
4.4642968 -0.61141217 -1.4002122 4.885997e-39
4.5218148 -0.6155073 -1.4363964 4.8860293e-39
4.4674397 -0.5944308 -1.4002122 9.2922778e-39
4.525001 -0.5982914 -1.4363964 8.8334548e-39
4.2934208 -0.5140667 -1.3770907 1.5759311e-38
4.3554416 -0.51837939 -1.3791933 1.6219193e-38
4.3014202 -0.48742631 -1.3664497 7.1894669e-39
4.3062134 -0.45738038 -1.36911 7.5571634e-39
4.3107424 -0.43290967 -1.36911 8.388373e-39
4.3152714 -0.40843904 -1.36911 8.018866e-39
4.3175745 -0.38355643 -1.3770907 1.0955786e-38
4.3799157 -0.38613707 -1.3791933 1.1047618e-38
4.4422164 -0.75661111 -1.3835976 1.3824314e-38
4.4469304 -0.73113912 -1.3835976 5.7168213e-39
4.4516449 -0.70566702 -1.3835976 6.4497284e-39
4.4579301 -0.67170435 -1.3835976 5.9894789e-39
4.4018774 -0.63508809 -1.3705393 6.0809403e-39
4.4689298 -0.61226964 -1.3835976 4.702682e-39
4.4720726 -0.59528828 -1.3835976 9.0164181e-39
4.2554798 -0.48898748 -1.3121539 8.3901737e-39
4.3068514 -0.49124348 -1.3451678 7.8355622e-39
4.315115 -0.4590278 -1.3371871 7.8333803e-39
4.319644 -0.43455708 -1.3371871 8.4773274e-39
4.324173 -0.41008645 -1.3371871 8.2018181e-39
4.3264761 -0.38520384 -1.3451678 1.1049416e-38
4.3889351 -0.38780636 -1.3468468 1.1601861e-38
4.3913546 -0.75154769 -1.332291 1.4561503e-38
4.4468493 -0.75746858 -1.3669831 1.3916154e-38
4.4538803 -0.73242533 -1.3586757 5.9894621e-39
4.4585948 -0.70695329 -1.3586757 6.6351945e-39
4.406858 -0.66777754 -1.332291 6.0816844e-39
4.462563 -0.67256176 -1.3669831 6.0831081e-39
4.4107738 -0.63384664 -1.340487 6.1749296e-39
4.4758797 -0.61355579 -1.3586757 4.8867537e-39
4.4790225 -0.59657443 -1.3586757 9.2926267e-39
4.2583823 -0.49785274 -1.2963972 1.2080877e-38
4.3192234 -0.49072114 -1.302604 9.3989124e-39
4.3240166 -0.46067521 -1.3052642 7.466774e-39
4.3285456 -0.43620449 -1.3052642 8.4791351e-39
4.3330746 -0.41173387 -1.3052642 8.0185031e-39
4.3413382 -0.37951806 -1.2972835 1.2991626e-38
4.3934455 -0.38864106 -1.3306736 1.1513253e-38
4.398211 -0.75281668 -1.3077027 1.4192003e-38
4.4631462 -0.73414016 -1.3254466 7.095472e-39
4.4090633 -0.69417751 -1.3077027 6.5418932e-39
4.466289 -0.71715879 -1.3254466 7.0940412e-39
4.4137144 -0.66904652 -1.3077027 6.6334176e-39
4.4186373 -0.63818991 -1.3104347 6.818148e-39
4.4843192 -0.63268065 -1.3171393 7.094386e-39
4.4851456 -0.61527061 -1.3254466 5.623237e-39
4.4882884 -0.59828925 -1.3254466 9.2815242e-39
4.3825006 -0.52338725 -1.2821537 1.6677335e-38
4.3246546 -0.49453831 -1.2813221 9.7680354e-39
4.38556 -0.50685704 -1.2821537 1.05117e-38
4.3326802 -0.4594664 -1.2760016 7.6497219e-39
4.3901491 -0.48206156 -1.2821537 6.2664218e-39
4.3374472 -0.43785191 -1.2733414 8.202537e-39
4.3419762 -0.41338128 -1.2733414 8.4776791e-39
4.3487301 -0.38932246 -1.2653606 8.8478854e-39
4.4024653 -0.39031035 -1.2983271 1.178913e-38
4.4653816 -0.76089823 -1.3005247 1.3823219e-38
4.4700956 -0.73542625 -1.3005247 7.6507995e-39
4.4159198 -0.69544643 -1.2831144 6.8199206e-39
4.4732385 -0.71844482 -1.3005247 6.9143247e-39
4.4205709 -0.67031538 -1.2831144 7.0954776e-39
4.3655958 -0.63993406 -1.2659805 7.2812954e-39
4.4283223 -0.62843037 -1.2831144 7.0025575e-39
4.492095 -0.61655676 -1.3005247 5.6217992e-39
4.496809 -0.59108472 -1.3005247 1.2706788e-38
4.3290272 -0.52065641 -1.2493992 1.6135667e-38
4.3320465 -0.50434268 -1.2493992 9.3056896e-39
4.341104 -0.45540127 -1.2493992 8.200379e-39
4.394659 -0.48289627 -1.2659805 6.3597034e-39
4.3441234 -0.43908745 -1.2493992 8.2932977e-39
4.3486524 -0.41461682 -1.2493992 8.2010881e-39
4.4114847 -0.39197963 -1.2659805 1.0132156e-38
4.4720831 -0.7592113 -1.2783719 1.3825017e-38
4.4194036 -0.71919513 -1.2557942 8.0181499e-39
4.4747286 -0.73628366 -1.2839102 8.5738194e-39
4.3659739 -0.67989576 -1.2390251 7.0036127e-39
4.4204907 -0.6962924 -1.2667223 6.6333798e-39
4.3167949 -0.63650048 -1.2174764 7.2791332e-39
4.3693008 -0.65771627 -1.2417206 7.2798674e-39
4.3736482 -0.6300267 -1.2444161 7.1862341e-39
4.3807335 -0.60854268 -1.233634 5.9001826e-39
4.4395852 -0.60163498 -1.2612582 8.7452655e-39
4.281765 -0.5188362 -1.2018573 1.5210099e-38
4.3402324 -0.49742132 -1.2254571 6.9093067e-39
4.3462706 -0.46479371 -1.2254571 7.6486429e-39
4.3507996 -0.440323 -1.2254571 8.1089134e-39
4.3553286 -0.41585237 -1.2254571 8.3818948e-39
4.308589 -0.37389576 -1.2018573 1.9903057e-38
4.3598571 -0.39138168 -1.2254571 1.364057e-38
4.4208207 -0.75411308 -1.2284739 1.5116825e-38
4.3698683 -0.717659 -1.2012874 7.4649748e-39
4.4249811 -0.72311532 -1.233938 7.4603224e-39
4.3171673 -0.67593879 -1.190874 6.6366252e-39
4.3699474 -0.69202888 -1.2174608 6.8199361e-39
4.3219609 -0.64589286 -1.1935341 7.2798506e-39
4.3844395 -0.62632495 -1.2093741 7.4638845e-39
4.3874984 -0.60979462 -1.2093741 7.7318394e-39
4.4505224 -0.59788322 -1.225742 1.253103e-38
4.2861581 -0.51964927 -1.1861006 1.4381776e-38
4.3468308 -0.52395129 -1.1855534 1.1623804e-38
4.349134 -0.49906874 -1.1935341 6.8106146e-39
4.3551722 -0.46644112 -1.1935341 7.6493632e-39
4.3597012 -0.44197041 -1.1935341 8.4766226e-39
4.3100019 -0.39081326 -1.1861006 1.7049673e-38
4.3642302 -0.41749978 -1.1935341 9.578273e-39
4.3709846 -0.39344102 -1.1855534 1.5754612e-38
4.3142571 -0.73726624 -1.1616113 1.4380342e-38
4.3200307 -0.71021378 -1.158951 7.0944e-39
4.3728485 -0.72675878 -1.1851141 8.5559122e-39
4.3248243 -0.68016791 -1.1616113 6.8185095e-39
4.3308625 -0.64754033 -1.1616113 7.279136e-39
4.3391271 -0.61532462 -1.1536306 5.6221664e-39
4.3912044 -0.62757695 -1.1851141 7.6472038e-39
4.3980479 -0.60319889 -1.1770276 8.5580044e-39
4.4573789 -0.59915209 -1.2011536 1.2527404e-38
4.2993398 -0.52208877 -1.1388307 9.2119736e-39
4.3512812 -0.52477497 -1.169592 1.0598888e-38
4.3053007 -0.48987982 -1.1388307 6.4519032e-39
4.3567905 -0.50329792 -1.1642716 5.7132494e-39
4.3640738 -0.4680886 -1.1616113 7.6493618e-39
4.3686028 -0.44361788 -1.1616113 9.0305068e-39
4.3731318 -0.41914725 -1.1616113 9.3045672e-39
4.3794084 -0.38937593 -1.158951 1.5385136e-38
4.3231587 -0.73891366 -1.1296885 1.5671068e-38
4.3276873 -0.71444291 -1.1296885 8.2000315e-39
4.3337259 -0.68181533 -1.1296885 6.8167285e-39
4.3397641 -0.64918774 -1.1296885 7.0936643e-39
4.3458028 -0.61656022 -1.1296885 6.542294e-39
4.3503313 -0.59208947 -1.1296885 6.4435921e-39
4.3561049 -0.56503707 -1.1270282 1.427841e-38
4.4094019 -0.57965529 -1.1527677 1.3541934e-38
4.3608985 -0.53499115 -1.1296885 9.5843658e-39
4.3118911 -0.49109957 -1.1151956 6.911438e-39
4.3654275 -0.51052052 -1.1296885 6.2664204e-39
4.3163619 -0.46694285 -1.1151956 8.2017873e-39
4.3223228 -0.43473381 -1.1151956 9.3978488e-39
4.3304806 -0.4029313 -1.1073173 9.8533913e-39
4.3813171 -0.4122259 -1.1376692 8.4784036e-39
4.3349509 -0.37877458 -1.1073173 1.8062746e-38
4.3858461 -0.38775519 -1.1376692 1.5570595e-38
4.3298349 -0.74014926 -1.1057463 1.5393775e-38
4.2841287 -0.70249081 -1.075804 7.2773423e-39
4.3353438 -0.71867204 -1.1004258 8.9332987e-39
4.2885995 -0.67833412 -1.075804 7.1862215e-39
4.3404021 -0.68305093 -1.1057463 7.0932986e-39
4.2945604 -0.64612508 -1.075804 7.2777066e-39
4.3464403 -0.65042335 -1.1057463 6.5440877e-39
4.3005214 -0.61391604 -1.075804 7.4628055e-39
4.352479 -0.61779583 -1.1057463 7.0018176e-39
4.3592329 -0.59373689 -1.0977656 6.7270454e-39
4.3637619 -0.5692662 -1.0977656 9.2083764e-39
4.3698001 -0.53663862 -1.0977656 6.8199234e-39
4.3758388 -0.50401103 -1.0977656 6.6330435e-39
4.3251491 -0.46856904 -1.0836823 8.0163353e-39
4.33111 -0.43636 -1.0836823 8.9390244e-39
4.3370709 -0.40415099 -1.0836823 8.7456242e-39
4.3415413 -0.37999427 -1.0836823 1.6219913e-38
4.3923383 -0.74746227 -1.1042478 1.5115756e-38
4.2885222 -0.70330405 -1.0600473 7.3706043e-39
4.3417559 -0.72548282 -1.0738235 1.0502034e-38
4.2464051 -0.65064645 -1.0309534 6.725972e-39
4.2929931 -0.67914724 -1.0600473 7.1872963e-39
4.2493477 -0.63474762 -1.0309534 6.7241293e-39
4.298954 -0.64693832 -1.0600473 6.2667819e-39
4.2522898 -0.6188488 -1.0309534 7.5553515e-39
4.304915 -0.61472929 -1.0600473 8.1985587e-39
4.3108759 -0.58252025 -1.0600473 7.5557313e-39
4.3719478 -0.56234491 -1.0738235 6.6352183e-39
4.3764763 -0.53787422 -1.0738235 4.698387e-39
4.382515 -0.50524664 -1.0738235 6.8185081e-39
4.3317394 -0.46978879 -1.0600473 8.2018083e-39
4.3377004 -0.43757975 -1.0600473 9.0290733e-39
4.3436613 -0.40537074 -1.0600473 8.4647424e-39
4.3496222 -0.37316173 -1.0600473 1.7324118e-38
4.2943296 -0.72103488 -1.0285339 9.950654e-39
4.3476381 -0.74344409 -1.0419005 1.4471457e-38
4.2951131 -0.70452368 -1.0364124 7.3709644e-39
4.3462071 -0.72630656 -1.057862 1.0227237e-38
4.2492723 -0.65939867 -1.0153979 7.2794989e-39
4.2983551 -0.68291569 -1.0390384 7.4638761e-39
4.253686 -0.6355505 -1.0153979 7.8319202e-39
4.2580996 -0.6117022 -1.0153979 8.1088966e-39
4.3107991 -0.60749018 -1.0442907 7.8304965e-39
4.3174667 -0.58373994 -1.0364122 8.2010923e-39
4.3234277 -0.55153096 -1.0364122 7.0036351e-39
4.3278985 -0.52737415 -1.0364124 4.6983716e-39
4.3323693 -0.50321746 -1.0364124 6.0813018e-39
4.3383303 -0.47100848 -1.0364122 7.9248571e-39
4.3442912 -0.43879938 -1.0364124 9.1223353e-39
4.3487616 -0.41464266 -1.0364124 8.2046922e-39
4.3564487 -0.37720108 -1.0337862 1.5940465e-38
4.4088159 -0.40044254 -1.0498812 8.1813353e-39
4.351295 -0.76099348 -1.0179584 1.593903e-38
4.2994304 -0.7303068 -1.0048989 1.2349182e-38
4.3039007 -0.70615005 -1.0048989 7.0028896e-39
4.2557783 -0.66060281 -0.99206483 7.0039714e-39
4.3068814 -0.69004554 -1.0048989 8.0159429e-39
4.2601919 -0.63675451 -0.99206483 7.2805387e-39
4.2646055 -0.61290634 -0.99206483 7.7411847e-39
4.2726593 -0.58151007 -0.98428714 8.0152422e-39
4.3240571 -0.58495963 -1.0127773 8.2007041e-39
4.2763748 -0.54931104 -0.99206483 7.9248655e-39
4.283473 -0.51499736 -0.98947227 5.8061737e-39
4.3344889 -0.52859384 -1.0127773 6.2689315e-39
4.3426471 -0.49679151 -1.0048989 5.2533727e-39
4.3471179 -0.47263479 -1.0048989 7.4635258e-39
4.3530788 -0.44042575 -1.0048989 8.5691601e-39
4.3575492 -0.41626897 -1.0048989 8.8464841e-39
4.3628035 -0.37560111 -1.0127773 1.6309243e-38
4.419466 -0.39678937 -1.0152981 9.9470373e-39
4.4259815 -0.36987412 -1.0099777 1.9168034e-38
4.2526836 -0.72580361 -0.96095395 1.3272924e-38
4.2607374 -0.69440734 -0.95317626 6.9081646e-39
4.3104911 -0.7073698 -0.98126394 6.9088877e-39
4.2644534 -0.66220832 -0.96095395 6.4490011e-39
4.3134718 -0.69126529 -0.98126394 7.2780359e-39
4.268867 -0.63836002 -0.96095395 7.0014406e-39
4.223505 -0.59460378 -0.94106138 8.2014496e-39
4.2720671 -0.61702776 -0.96354657 7.557148e-39
4.2293148 -0.56321025 -0.94106138 8.3847745e-39
4.2769966 -0.58231282 -0.9687317 8.200379e-39
4.2848177 -0.5481329 -0.96354657 8.0174241e-39
4.290935 -0.51911891 -0.96095395 7.6486415e-39
4.3004599 -0.47977328 -0.95317626 6.5412262e-39
4.3514342 -0.49841776 -0.97338563 6.6337651e-39
4.355669 -0.47144142 -0.97601175 6.9078535e-39
4.361866 -0.44205201 -0.97338563 8.1088714e-39
4.3663363 -0.41789523 -0.97338563 9.0294082e-39
4.4281287 -0.3955805 -0.98603553 1.1144873e-38
4.4304328 -0.37069786 -0.99401623 1.9074043e-38
4.1546512 -0.72368234 -0.89904511 1.6675845e-38
4.1596346 -0.70857179 -0.89146161 1.4016227e-38
4.2059999 -0.71312201 -0.9257037 1.1986529e-38
4.257719 -0.73495722 -0.93762082 1.6674769e-38
4.163938 -0.68531883 -0.89146161 9.482455e-39
4.2089047 -0.69742525 -0.9257037 7.1797545e-39
4.2665462 -0.68726069 -0.93762082 7.3634002e-39
4.1717906 -0.6547066 -0.88387805 6.6298135e-39
4.2185383 -0.66132784 -0.91546518 6.9067423e-39
4.2724309 -0.6554631 -0.93762082 6.814883e-39
4.1775289 -0.62370276 -0.88387805 5.3397991e-39
4.2241187 -0.62718618 -0.91802484 7.0014406e-39
4.1811519 -0.59230757 -0.89146161 6.6319533e-39
4.2277875 -0.5953964 -0.9257037 8.0184848e-39
4.1868896 -0.56130373 -0.89146161 6.8156425e-39
4.2335973 -0.56400287 -0.9257037 8.109254e-39
4.1938109 -0.52784681 -0.88893378 7.2755066e-39
4.2400961 -0.5408541 -0.91802484 8.1999894e-39
4.1983657 -0.49929619 -0.89146161 8.0148877e-39
4.2423124 -0.5169127 -0.9257037 8.3847661e-39
4.2047834 -0.47643483 -0.88387805 7.6389081e-39
4.2538571 -0.47846329 -0.91034597 7.7379449e-39
4.3033261 -0.48852539 -0.93762082 7.7408274e-39
4.2567625 -0.46276653 -0.91034597 7.1869291e-39
4.3113794 -0.45712912 -0.92984313 7.0003771e-39
4.315793 -0.43328086 -0.92984313 7.3698574e-39
4.3669658 -0.45132399 -0.94975066 7.2769373e-39
4.3209047 -0.4177835 -0.92206538 7.2787492e-39
4.3763785 -0.40864974 -0.94449842 8.3779081e-39
4.3832817 -0.38771915 -0.933994 1.4369893e-38
4.4363151 -0.38865915 -0.96209341 1.5017773e-38
4.1173706 -0.6941492 -0.85300028 1.2153593e-38
4.1234851 -0.66888905 -0.84800696 1.1137295e-38
4.1296005 -0.64362907 -0.84301364 1.2338007e-38
4.1760201 -0.65548921 -0.86871099 8.1967693e-39
4.1817584 -0.62448549 -0.86871099 5.3372866e-39
4.1874962 -0.59348166 -0.86871099 4.1408832e-39
4.193234 -0.56247789 -0.86871099 4.1405469e-39
4.1989717 -0.53147411 -0.86871099 3.7731783e-39
4.20471 -0.50047034 -0.86871099 3.7735398e-39
4.2104478 -0.46946657 -0.86871099 4.0487044e-39
4.2147512 -0.44621372 -0.86871099 4.509328e-39
4.2624974 -0.45571077 -0.89498824 6.7266642e-39
4.2706785 -0.42746177 -0.88474983 4.4171044e-39
4.2769475 -0.40156472 -0.87963057 4.8770133e-39
4.3267131 -0.41063684 -0.90651 6.8191864e-39
4.2856622 -0.35447437 -0.87963057 1.8789465e-38
4.336936 -0.37964195 -0.89095455 1.0030915e-38
4.3891659 -0.38048005 -0.91823733 1.4737927e-38
4.3442917 -0.33989483 -0.89095455 1.9901298e-38
4.1271172 -0.69595301 -0.81804699 1.4924861e-38
4.170208 -0.71052861 -0.85354394 1.2336932e-38
4.1316161 -0.66775465 -0.82054371 1.2058173e-38
4.1358662 -0.64478862 -0.82054371 1.2978713e-38
4.1881022 -0.62565958 -0.84596038 6.2613659e-39
4.19384 -0.59465575 -0.84596038 3.6809953e-39
4.1526194 -0.55815721 -0.81804699 3.4069293e-39
4.1983943 -0.56610507 -0.84848821 3.6835162e-39
4.1557012 -0.53761411 -0.82054371 3.4076482e-39
4.2050886 -0.52993405 -0.84848821 3.9582814e-39
4.2110538 -0.50164443 -0.84596038 3.6824064e-39
4.2167916 -0.47064066 -0.84596038 3.6831491e-39
4.2227559 -0.44235092 -0.84343249 4.0522959e-39
4.2289476 -0.41677541 -0.83837682 4.234134e-39
4.2768722 -0.42590243 -0.86427277 4.1430328e-39
4.2850533 -0.39765343 -0.85403436 4.5103972e-39
4.3432097 -0.37806249 -0.87021399 3.680275e-39
4.3493266 -0.34904832 -0.86762136 1.4088618e-38
4.1357198 -0.6922667 -0.79058379 1.8068509e-38
4.1399703 -0.66930079 -0.79058379 1.2523112e-38
4.145637 -0.6386795 -0.79058379 1.2339037e-38
4.1519761 -0.61610001 -0.78309387 6.3600187e-39
4.1963339 -0.62451088 -0.81815404 7.2747793e-39
4.1562266 -0.59313405 -0.78309387 2.8494367e-39
4.2022986 -0.59622115 -0.8156262 3.0363461e-39
4.1583881 -0.56978154 -0.79058379 3.680261e-39
4.211585 -0.55785775 -0.80804271 4.0501281e-39
4.2149572 -0.53176033 -0.81309837 3.6827777e-39
4.2195125 -0.50320983 -0.8156262 3.5902192e-39
4.1803117 -0.46299356 -0.78309387 3.5909548e-39
4.2252502 -0.47220606 -0.8156262 3.4065594e-39
4.230988 -0.44120228 -0.8156262 3.58988e-39
4.2352915 -0.41794944 -0.8156262 3.866806e-39
4.2381601 -0.40244752 -0.8156262 4.1437405e-39
4.2948408 -0.38864189 -0.8258785 4.5146964e-39
4.2956047 -0.37254882 -0.83355737 4.4232434e-39
4.3557572 -0.3749035 -0.82873285 4.4225148e-39
4.3565307 -0.35860327 -0.8365106 7.6262992e-39
4.4141917 -0.34347129 -0.85521066 1.6855926e-38
4.1462359 -0.67046034 -0.76811391 1.1693743e-38
4.1056437 -0.63594103 -0.7440815 1.0309316e-38
4.1519027 -0.63983905 -0.76811391 1.0953247e-38
4.1561532 -0.61687309 -0.76811391 8.1996377e-39
4.1604037 -0.59390712 -0.76811391 2.2101616e-39
4.1646538 -0.57094109 -0.76811391 3.1267327e-39
4.2179289 -0.55903184 -0.78529209 3.5895283e-39
4.2222323 -0.53577906 -0.78529209 3.5894975e-39
4.2279706 -0.50477529 -0.78529215 3.7738859e-39
4.2339349 -0.47648561 -0.78276426 3.7742699e-39
4.2394462 -0.44276774 -0.78529209 3.6820715e-39
4.2437496 -0.41951489 -0.78529209 3.8675305e-39
4.2480531 -0.39626202 -0.78529209 4.1419636e-39
4.3063107 -0.3745302 -0.79516309 4.6954793e-39
4.3630376 -0.35980746 -0.81317741 5.330772e-39
4.4207826 -0.34469104 -0.83157569 1.4091494e-38
4.4839978 -0.32999364 -0.83440191 1.9630088e-38
4.1518297 -0.66357803 -0.75313395 1.0580227e-38
4.1602569 -0.64138508 -0.73815399 8.9260106e-39
4.2084198 -0.6695019 -0.74737442 1.0699759e-38
4.1172123 -0.60418516 -0.72434825 1.0218208e-38
4.1603303 -0.61764616 -0.75313395 1.0772469e-38
4.1250958 -0.57696223 -0.71448165 6.537978e-39
4.1664453 -0.59238607 -0.74814063 4.4239357e-39
4.1723361 -0.56444538 -0.74564397 2.8519717e-39
4.1765866 -0.54147947 -0.74564397 3.5887856e-39
4.2321258 -0.52959347 -0.75495797 3.3154217e-39
4.2364292 -0.50634068 -0.75495797 3.6809841e-39
4.242167 -0.47533691 -0.75495797 4.0497652e-39
4.2479048 -0.44433314 -0.75495797 3.8661026e-39
4.2522082 -0.42108029 -0.75495797 3.9579325e-39
4.3105183 -0.39966047 -0.76444763 4.3267038e-39
4.3170171 -0.37651157 -0.75676876 4.512174e-39
4.3687701 -0.37731177 -0.78206658 5.0628283e-39
4.369544 -0.36101159 -0.78984427 4.4142289e-39
4.4310598 -0.33826503 -0.80006236 1.4923768e-38
4.1235514 -0.63143289 -0.68488187 4.9609441e-39
4.1679397 -0.63488948 -0.71568406 8.6551956e-39
4.216198 -0.662925 -0.7246238 1.0867228e-38
4.0794234 -0.5970149 -0.67671299 1.1046859e-38
4.1256866 -0.60836107 -0.69228184 1.0496562e-38
4.170773 -0.61957884 -0.71568406 1.0493692e-38
4.0835729 -0.57459557 -0.67671299 1.1137997e-38
4.1292229 -0.57772601 -0.69968176 1.0128522e-38
4.1375489 -0.55579978 -0.68488187 6.3639844e-39
4.1821074 -0.55833626 -0.71568406 2.8530409e-39
4.1863575 -0.53537023 -0.71568406 3.2200003e-39
4.1926966 -0.5127908 -0.70819408 2.8562442e-39
4.2446609 -0.50519198 -0.72715169 3.4980403e-39
4.2506256 -0.47690237 -0.7246238 3.5898618e-39
4.2563634 -0.44589853 -0.7246238 3.6816959e-39
4.2606668 -0.42264575 -0.7246238 4.1430244e-39
4.3176308 -0.40909398 -0.73373222 4.325615e-39
4.3251228 -0.37260023 -0.73117256 3.7749804e-39
4.3745027 -0.39481616 -0.7509557 4.6029263e-39
4.3321557 -0.33061016 -0.73373222 1.7509189e-38
4.3799229 -0.35745132 -0.75614083 4.5982754e-39
4.3819346 -0.33041808 -0.76651114 1.8341856e-38
4.4361601 -0.34753698 -0.77642733 8.5546931e-39
4.1276784 -0.63219666 -0.67008197 4.7758382e-39
4.0852976 -0.60325468 -0.65234071 8.7427221e-39
4.1304779 -0.61707002 -0.67008197 8.6558907e-39
4.0419617 -0.56956053 -0.64462346 1.1323108e-38
4.086267 -0.58282334 -0.66208965 1.1048308e-38
4.0469489 -0.55011654 -0.63980663 1.1414993e-38
4.0950022 -0.54321826 -0.65721518 8.6570159e-39
4.151402 -0.52707416 -0.65528208 3.9557857e-39
4.194488 -0.53423572 -0.6882208 2.5768001e-39
4.2024674 -0.50668156 -0.67823416 3.0381272e-39
4.2512321 -0.50908029 -0.70187318 3.037044e-39
4.2590847 -0.47846782 -0.69428968 3.2214591e-39
4.2648225 -0.44746405 -0.69428968 3.312926e-39
4.2691259 -0.4242112 -0.69428968 3.7721175e-39
4.3240542 -0.41028279 -0.71069562 3.7738901e-39
4.3313165 -0.37104082 -0.71069562 3.2221667e-39
4.3810091 -0.39602029 -0.72762257 3.8675193e-39
4.284225 -0.33080846 -0.70187318 1.6128765e-38
4.3356743 -0.34749573 -0.71069562 6.3370094e-39
4.3876672 -0.34792238 -0.73540026 6.7961868e-39
4.042778 -0.59517044 -0.62535626 9.7608173e-39
4.0923119 -0.60712922 -0.62553126 6.7129946e-39
4.1428585 -0.61936134 -0.62568229 4.0443506e-39
4.048893 -0.57338929 -0.61813104 1.1598616e-38
4.0543594 -0.54385054 -0.6181311 1.1599705e-38
4.1095648 -0.52530253 -0.61821955 9.3048698e-39
4.1589913 -0.52065647 -0.63308227 5.8922456e-39
4.2089577 -0.51052177 -0.65326756 2.7622577e-39
4.2611251 -0.50289476 -0.67153907 3.3143511e-39
4.2675433 -0.48003328 -0.66395557 3.3125631e-39
4.2732811 -0.44902951 -0.66395557 3.3125561e-39
4.3297138 -0.42756462 -0.67998022 3.6799107e-39
4.3304777 -0.41147161 -0.68765908 3.6813316e-39
4.3355994 -0.37183344 -0.69533789 3.0406411e-39
4.3913879 -0.39246005 -0.69391918 3.5909282e-39
4.3399572 -0.34828836 -0.69533789 5.9696674e-39
4.399209 -0.35828006 -0.68873399 3.8603362e-39
4.401454 -0.33403048 -0.69651175 1.5293247e-38
4.0998116 -0.60078812 -0.60359615 7.7257368e-39
4.1504488 -0.61294371 -0.60348248 4.870891e-39
4.0567355 -0.57229483 -0.59163868 1.1506774e-38
4.1066551 -0.58659661 -0.58897281 1.0858875e-38
4.0624185 -0.54534197 -0.5892303 1.1784105e-38
4.0681019 -0.51838905 -0.58682191 9.9444995e-39
4.1164083 -0.5111109 -0.60359615 6.2642848e-39
4.1232519 -0.49691942 -0.58897281 4.3181208e-39
4.1693816 -0.49911219 -0.6108824 2.851938e-39
4.2164154 -0.50134546 -0.63329428 2.7615333e-39
4.2760015 -0.48159868 -0.63362145 3.4051272e-39
4.2817392 -0.4505949 -0.63362145 3.5880569e-39
4.3361373 -0.42875344 -0.65694362 3.3129092e-39
4.3390427 -0.41305673 -0.65694362 3.4058209e-39
4.3998308 -0.3912819 -0.66540086 3.5909352e-39
4.4045024 -0.36200029 -0.66799349 3.5873423e-39
4.4101291 -0.33563599 -0.66540086 1.3908533e-38
4.1992683 -0.64068741 -0.60333443 9.9632643e-39
4.2041898 -0.6257633 -0.59584445 3.3118288e-39
4.2564507 -0.64632529 -0.59570378 1.1342921e-38
4.1155381 -0.57278234 -0.56703776 1.1598616e-38
4.1629019 -0.59178132 -0.5738827 7.8157422e-39
4.2091117 -0.61083913 -0.58835447 4.0415297e-39
4.070477 -0.5468334 -0.56032962 1.2150351e-38
4.0759439 -0.51729465 -0.56032962 1.104651e-38
4.1813197 -0.49610665 -0.57141602 5.4323423e-39
4.2296915 -0.48796749 -0.59584445 3.2192758e-39
4.2858944 -0.47541314 -0.60328734 3.2214492e-39
4.2901978 -0.45216036 -0.60328728 3.2211017e-39
4.2945013 -0.42890751 -0.60328734 2.9455658e-39
4.3425617 -0.42994237 -0.63390702 3.771358e-39
4.3492899 -0.40954176 -0.62366855 3.4047615e-39
4.4082732 -0.39010382 -0.6368826 3.4061964e-39
4.4107509 -0.36863783 -0.64206773 2.7619256e-39
4.4166355 -0.33684018 -0.64206773 1.3720531e-38
4.4691129 -0.35363561 -0.65825242 4.5921349e-39
4.2097111 -0.64262009 -0.56588453 9.5015309e-39
4.2125444 -0.62730944 -0.56588453 4.1466061e-39
4.1236935 -0.57429171 -0.53779101 7.6317489e-39
4.1690922 -0.59292698 -0.55168283 4.7768947e-39
4.2153778 -0.6119988 -0.56588453 3.1264174e-39
4.078536 -0.54832494 -0.53142887 1.1690055e-38
4.0826364 -0.52617085 -0.53142887 1.1965564e-38
4.134758 -0.51450694 -0.53779101 1.1781193e-38
4.1395626 -0.49993804 -0.53047931 1.012997e-38
4.1872888 -0.49460399 -0.55168283 7.1804369e-39
4.24088 -0.47420299 -0.56588453 3.4061866e-39
4.2458014 -0.45927882 -0.55839455 3.0367259e-39
4.2965417 -0.45333439 -0.58053672 3.2200311e-39
4.3008451 -0.43008155 -0.58053672 3.037051e-39
4.3037138 -0.41457963 -0.58053672 3.1274586e-39
4.3573956 -0.40563035 -0.59807241 3.3129218e-39
4.3641238 -0.38522971 -0.58783388 3.2221653e-39
4.4164834 -0.38614213 -0.61095691 3.3129316e-39
4.4749193 -0.37136638 -0.62673908 3.0381328e-39
4.4282532 -0.32254684 -0.61095691 2.0924404e-38
4.4793901 -0.3472096 -0.62673908 8.4661282e-39
4.4816647 -0.32264629 -0.63461739 2.0740392e-38
4.1228232 -0.6359632 -0.50123256 9.5033007e-39
4.1689472 -0.63983428 -0.52208298 9.3124789e-39
4.2159767 -0.64377964 -0.54341459 9.775964e-39
4.1269727 -0.61354387 -0.50123256 3.8628628e-39
4.1731462 -0.61714441 -0.52208298 3.405123e-39
4.2188101 -0.62846899 -0.54341459 4.4199448e-39
4.0824952 -0.57197046 -0.50252801 4.5935951e-39
4.1290827 -0.59074724 -0.50854421 1.9332216e-39
4.1732187 -0.59369069 -0.53688294 1.9328642e-39
4.2216434 -0.61315835 -0.54341459 3.769612e-39
4.0865951 -0.54981637 -0.50252801 1.0862092e-38
4.092062 -0.52027762 -0.50252801 1.1691156e-38
4.098177 -0.49849641 -0.49530289 7.0914601e-39
4.1470623 -0.493597 -0.50854421 7.5499117e-39
4.1948791 -0.4881863 -0.52948302 5.6173936e-39
4.2492337 -0.47574908 -0.53592455 2.7601292e-39
4.2534838 -0.45278311 -0.53592461 3.0377698e-39
4.3022056 -0.44636613 -0.56536961 2.9448553e-39
4.2598233 -0.43020368 -0.52843457 3.1277977e-39
4.307189 -0.43125564 -0.55778605 3.0363209e-39
4.3103094 -0.410456 -0.56031394 3.0374111e-39
4.3697839 -0.40251166 -0.55711848 3.3147001e-39
4.3684063 -0.38602221 -0.57247621 2.8551638e-39
4.4295721 -0.36389941 -0.57984602 2.8504975e-39
4.4815102 -0.37258607 -0.60310405 2.9452029e-39
4.4339857 -0.3400512 -0.57984602 1.2618152e-38
4.485981 -0.34842929 -0.60310405 8.4654178e-39
4.4926481 -0.32467911 -0.59522575 2.1105937e-38
4.1289396 -0.63709509 -0.47929746 9.7856371e-39
4.1330891 -0.61467582 -0.47929746 4.0468799e-39
4.0891871 -0.58084655 -0.47362733 3.3114855e-39
4.0946536 -0.5513078 -0.47362733 3.863576e-39
4.1001205 -0.52176899 -0.47362727 3.0367063e-39
4.1042204 -0.49961495 -0.47362733 3.0374307e-39
4.156601 -0.4876332 -0.47929746 3.4072502e-39
4.2059326 -0.47458726 -0.49988315 3.5887954e-39
4.2618384 -0.45432925 -0.50596464 3.2210877e-39
4.2675056 -0.42370796 -0.50596464 3.0359678e-39
4.3199511 -0.40956816 -0.52745187 2.9466574e-39
4.3740664 -0.40330416 -0.54176074 3.2207206e-39
4.3812537 -0.38839996 -0.52640301 3.1299557e-39
4.4316649 -0.38895172 -0.55651289 3.2221611e-39
4.4346075 -0.37305292 -0.55651289 2.3931207e-39
4.4383235 -0.34085396 -0.56429064 1.2795392e-38
4.4972005 -0.35328183 -0.56108624 6.6247632e-39
4.137095 -0.6386044 -0.45005074 1.0431766e-38
4.0911312 -0.60411924 -0.45195171 4.1401685e-39
4.1414633 -0.61880201 -0.44761348 4.507851e-39
4.0567622 -0.55730677 -0.42523021 3.5877024e-39
4.0972462 -0.58233798 -0.44472656 3.6816819e-39
4.0608139 -0.53541255 -0.42523021 3.4969501e-39
4.100698 -0.55242646 -0.45195171 3.5902276e-39
4.1079636 -0.52067465 -0.44713494 3.7710315e-39
4.1136465 -0.49372169 -0.44472656 3.7738845e-39
4.2141862 -0.47611475 -0.47028336 3.588787e-39
4.2701921 -0.45587534 -0.47600475 3.4044126e-39
4.2758594 -0.42525405 -0.47600475 3.679189e-39
4.3298445 -0.40338278 -0.4971177 2.9470218e-39
4.3898187 -0.38998508 -0.49568757 3.1299543e-39
4.4425092 -0.39095867 -0.51762432 3.2199947e-39
4.4432826 -0.37465844 -0.52540201 2.3941843e-39
4.4469986 -0.34245947 -0.53317976 1.4277705e-38
4.5020657 -0.35973418 -0.54007733 4.5921349e-39
4.1432114 -0.63973641 -0.4281157 1.1718159e-38
4.1493998 -0.6176945 -0.42080402 4.6014998e-39
4.1053052 -0.58382952 -0.41582584 3.5898632e-39
4.0701289 -0.52958846 -0.3966684 3.5902051e-39
4.1127868 -0.55466366 -0.40860063 3.5902149e-39
4.0728302 -0.51499224 -0.3966684 3.3157847e-39
4.1155906 -0.51699448 -0.423051 3.6831322e-39
4.0802236 -0.48616832 -0.38952795 3.4973061e-39
4.1217055 -0.49521318 -0.41582578 3.5909254e-39
4.1258054 -0.47305912 -0.41582578 3.4065594e-39
4.1804829 -0.46113682 -0.41349232 3.404407e-39
4.2238398 -0.47007906 -0.44068357 3.4972976e-39
4.1832485 -0.4461906 -0.41349232 3.5894961e-39
4.2783232 -0.45474082 -0.44854146 3.2210905e-39
4.2830458 -0.42922306 -0.44854146 3.2225086e-39
4.3383031 -0.40494817 -0.46678358 3.4040384e-39
4.3941011 -0.39077759 -0.48032984 3.4991123e-39
4.4519577 -0.37626395 -0.49429119 2.3941997e-39
4.5089169 -0.35545018 -0.51906848 8.2821027e-39
4.5730138 -0.34646788 -0.5151732 1.520824e-38
4.1998992 -0.64556265 -0.41108379 1.1992601e-38
4.1568995 -0.6113534 -0.39886892 3.8679103e-39
4.204762 -0.63081789 -0.40368384 6.1619746e-39
4.1131477 -0.58273506 -0.3893334 3.9572206e-39
4.1637425 -0.59716177 -0.3842456 3.8646424e-39
4.0761027 -0.53069389 -0.37524706 3.4987368e-39
4.1188307 -0.5557822 -0.38692501 3.497676e-39
4.0821452 -0.50916809 -0.3681066 3.4965928e-39
4.0842066 -0.4869054 -0.37524706 3.4058293e-39
4.1263828 -0.50371659 -0.39415026 3.4072502e-39
4.1338644 -0.4745506 -0.38692501 3.6813624e-39
4.1865993 -0.46226877 -0.39155725 3.1299907e-39
4.1873264 -0.44694525 -0.39886892 3.4061824e-39
4.2411551 -0.43417192 -0.40368384 3.5912813e-39
4.2925682 -0.42834634 -0.416085 3.406551e-39
4.3453269 -0.41426453 -0.4364495 3.4976648e-39
4.4005246 -0.3919664 -0.4572933 3.5898632e-39
4.4606328 -0.37786943 -0.46318033 2.0250697e-39
4.5177045 -0.3570765 -0.48755515 9.2026157e-39
4.2081528 -0.64709008 -0.381484 1.3094983e-38
4.1691322 -0.6136173 -0.35499883 2.1205247e-39
4.2123518 -0.6244002 -0.381484 4.9674251e-39
4.1227894 -0.57942772 -0.3580243 3.7728364e-39
4.1698594 -0.59829384 -0.3623105 3.6831421e-39
4.0840669 -0.53216791 -0.34668523 3.7727957e-39
4.1268892 -0.55727363 -0.3580243 3.5891612e-39
4.0901093 -0.51064205 -0.33954477 3.4061838e-39
4.1289749 -0.53474665 -0.36524948 3.4054565e-39
4.0941615 -0.48874784 -0.33954477 3.4043832e-39
4.1371751 -0.49043855 -0.36524948 3.3114813e-39
4.141923 -0.47604203 -0.3580243 3.5884437e-39
4.1947546 -0.46377814 -0.3623105 3.4044378e-39
4.1954813 -0.44845456 -0.3696222 3.4047433e-39
4.2424827 -0.4500623 -0.38888395 3.1288893e-39
4.2997541 -0.43231529 -0.38862172 3.7738943e-39
4.3552198 -0.40807903 -0.40611532 3.1296123e-39
4.4107718 -0.38845143 -0.4240182 3.4043818e-39
4.4705472 -0.36874199 -0.43466198 6.6233367e-39
4.5277209 -0.35615417 -0.45341575 1.2430176e-38
4.0852079 -0.59276354 -0.30384248 3.1249769e-39
4.1273966 -0.61083084 -0.32189837 7.0994475e-39
4.1718273 -0.62184513 -0.34037548 6.1764304e-39
4.2171431 -0.63310915 -0.35928416 7.4560359e-39
4.1294818 -0.58830392 -0.32912356 3.5880612e-39
4.0960135 -0.53437889 -0.30384248 3.6824036e-39
4.1349483 -0.55876517 -0.32912356 3.4958964e-39
4.0978603 -0.50956059 -0.31336319 3.2217884e-39
4.1390486 -0.53661108 -0.32912362 3.6799079e-39
4.1001348 -0.48985332 -0.31812343 4.0465044e-39
4.149982 -0.47753352 -0.32912362 3.7706616e-39
4.2029099 -0.46528745 -0.33306378 3.4051258e-39
4.2528 -0.45197174 -0.35188422 3.4069027e-39
4.3057714 -0.43870729 -0.36365518 3.6816945e-39
4.3622441 -0.41739538 -0.37578121 3.7746188e-39
4.3686624 -0.39453381 -0.36819771 3.8664389e-39
4.419107 -0.38728827 -0.39586246 3.7695741e-39
4.3744001 -0.36352998 -0.36819771 1.1599373e-38
4.4256058 -0.36413944 -0.38818359 1.0678853e-38
4.4787564 -0.36478031 -0.40873632 9.855915e-39
4.5379982 -0.3497282 -0.42190242 1.9258422e-38
4.08919 -0.59350049 -0.28956157 6.6327688e-39
4.0958734 -0.57964134 -0.27528062 4.2263274e-39
4.1389074 -0.58241069 -0.30022284 2.4860744e-39
4.1026268 -0.5431509 -0.27528062 3.5891373e-39
4.1430073 -0.5602566 -0.30022284 3.4047643e-39
4.1496015 -0.52838057 -0.29781446 3.3129162e-39
4.1550684 -0.49884182 -0.29781446 3.1288781e-39
4.158041 -0.47902501 -0.30022284 3.3129176e-39
4.2110658 -0.46679682 -0.303817 3.4044028e-39
4.2610536 -0.45349923 -0.32228443 3.589164e-39
4.3136778 -0.43489218 -0.33868858 4.1426727e-39
4.3197927 -0.40963215 -0.33369526 3.9597135e-39
4.368588 -0.41856942 -0.35303062 3.4104984e-39
4.3764405 -0.38795695 -0.34544706 4.4127926e-39
4.4269829 -0.38062871 -0.37282586 4.5924951e-39
4.380744 -0.36470407 -0.34544706 1.4469633e-38
4.4860368 -0.34968427 -0.39318091 1.9074402e-38
4.1512828 -0.56433392 -0.26891363 2.2091176e-39
4.1576605 -0.52987206 -0.26891363 3.2210807e-39
4.1608725 -0.50500786 -0.27373049 3.3132665e-39
4.2157273 -0.49857572 -0.26725858 3.4029622e-39
4.2166967 -0.47814447 -0.27700743 3.4976676e-39
4.2693076 -0.45502684 -0.29268458 3.4051118e-39
4.3218079 -0.43375772 -0.31122535 3.6820827e-39
4.3239698 -0.41040528 -0.31871533 3.0381342e-39
4.3827105 -0.41316676 -0.30752945 3.4990913e-39
4.3848991 -0.38952246 -0.31511301 6.2559905e-39
4.2073569 -0.56658828 -0.25263521 3.7746791e-39
4.2128892 -0.5366959 -0.25263521 3.4987676e-39
4.2170386 -0.51427662 -0.25263521 3.6817001e-39
4.2712269 -0.502316 -0.25568488 3.6827791e-39
4.2733622 -0.47924423 -0.26308483 3.407637e-39
4.3280005 -0.45865631 -0.2737754 3.3175671e-39
4.3287454 -0.44295919 -0.28126538 3.9579423e-39
4.3855052 -0.42170033 -0.29236233 3.776788e-39
4.2641559 -0.56358624 -0.24088497 5.433766e-39
4.2683549 -0.5408963 -0.24088497 3.5913388e-39
4.2725544 -0.51820642 -0.24088497 3.8646649e-39
4.3292713 -0.49847913 -0.24381551 3.6827651e-39
4.3316813 -0.46989417 -0.25380209 3.4065496e-39
4.3896604 -0.44651866 -0.26202813 3.8646663e-39
4.3918495 -0.42287442 -0.26961169 4.1409028e-39
4.3185349 -0.59150255 -0.22134559 1.3910384e-38
4.3239784 -0.5582006 -0.2238422 7.7328848e-39
4.3298693 -0.53025997 -0.22134559 3.5924094e-39
4.3355365 -0.49963868 -0.22134559 3.587715e-39
4.3928838 -0.46849227 -0.23674969 3.5902276e-39
4.3938899 -0.44730133 -0.24686107 4.3267206e-39
4.273592 -0.62791157 -0.16688551 1.3187907e-38
4.2763915 -0.61278492 -0.16688551 1.048617e-38
4.3223906 -0.62124699 -0.18888894 1.3170666e-38
4.3268895 -0.59304869 -0.19138569 6.9042158e-39
4.2883253 -0.53676999 -0.17428546 8.2828034e-39
4.333725 -0.56000435 -0.18888894 7.360138e-39
4.3815112 -0.57327324 -0.20894344 6.6215416e-39
4.2911248 -0.52164334 -0.17428546 9.0196537e-39
4.3361349 -0.53141952 -0.19887565 9.0214698e-39
4.3438911 -0.50118482 -0.19138569 7.5477691e-39
4.398725 -0.48026192 -0.20894344 4.5075343e-39
4.234375 -0.62569189 -0.12102481 1.1705956e-38
4.2797823 -0.62905717 -0.14468567 1.189611e-38
4.2364855 -0.6028952 -0.12833644 8.3685614e-39
4.281918 -0.6059854 -0.15208562 8.9174024e-39
4.2454395 -0.56590712 -0.12102481 1.0306479e-38
4.2916441 -0.57649601 -0.13728572 8.5583687e-39
4.3350196 -0.59191406 -0.1639224 8.5594071e-39
4.2963343 -0.54346704 -0.14221899 9.4799158e-39
4.3409104 -0.56397343 -0.16142577 8.4682918e-39
4.2993789 -0.52317089 -0.14468567 9.0196622e-39
4.3049779 -0.49291766 -0.14468567 6.9060248e-39
4.3510761 -0.50515378 -0.1639224 8.9274707e-39
4.1435204 -0.6337477 -0.075347893 1.4550032e-38
4.1878381 -0.62201679 -0.10514273 1.2250513e-38
4.2446413 -0.60440457 -0.099089786 9.6635924e-39
4.2501731 -0.57451224 -0.099089786 1.021246e-38
4.2943716 -0.58482307 -0.12248572 1.0213912e-38
4.256361 -0.55247021 -0.091778032 1.0311459e-38
4.3034334 -0.54738832 -0.11508588 9.8479823e-39
4.307878 -0.51952887 -0.11755246 9.5706709e-39
4.3146315 -0.48688191 -0.11508577 7.7364889e-39
4.3570933 -0.51154578 -0.13895585 9.2962603e-39
4.1475024 -0.63448465 -0.061066959 1.484457e-38
4.1979117 -0.6238811 -0.069016799 1.0766074e-38
4.2942266 -0.63173044 -0.092885934 1.2437781e-38
4.2020121 -0.60172707 -0.069016799 8.5568931e-39
4.2094932 -0.57256114 -0.061791521 6.0726922e-39
4.2562895 -0.5756442 -0.077154756 8.0969982e-39
4.2135935 -0.55040705 -0.061791521 7.6389067e-39
4.2636418 -0.54351234 -0.072280332 8.4657835e-39
4.3110237 -0.54097068 -0.092885934 9.9394534e-39
4.2700491 -0.52408719 -0.062531367 6.2620553e-39
4.3161321 -0.52105653 -0.087952673 5.890068e-39
4.3226638 -0.48576111 -0.087952673 7.6389039e-39
4.3668652 -0.50543666 -0.10899594 9.5713814e-39
4.3781261 -0.46793312 -0.094015993 6.7043668e-39
4.2547631 -0.6294651 -0.047908094 1.1891436e-38
4.2589126 -0.60704583 -0.047908094 9.2037241e-39
4.2148895 -0.5659222 -0.047341194 9.4788551e-39
4.2630615 -0.58462656 -0.047908094 9.3917307e-39
4.2699766 -0.54726106 -0.047908094 8.834566e-39
4.2741261 -0.52484179 -0.047908094 5.9815434e-39
4.3773079 -0.50736928 -0.07154607 4.1369301e-39
4.3829746 -0.47674799 -0.07154607 3.3079066e-39
4.258841 -0.63021982 -0.03328459 1.5486643e-38
4.2650294 -0.6081779 -0.025972951 1.0400441e-38
4.2694211 -0.58065069 -0.028410165 1.0216059e-38
4.3260589 -0.57504272 -0.018886583 9.6664805e-39
4.2304301 -0.53824782 -0.011215261 6.8087831e-39
4.2749534 -0.55075836 -0.028410165 9.1136753e-39
4.1917253 -0.50680399 0.010337597 3.7713692e-39
4.2331634 -0.52347839 -0.011215261 5.2443427e-39
4.3821564 -0.51618409 -0.049076144 3.5891542e-39
4.3245869 -0.60605973 -0.0040865755 5.3333321e-39
4.2350368 -0.56965083 0.02491067 2.6704489e-39
4.3308496 -0.58375168 0.0033132562 5.1503576e-39
4.1930065 -0.52213717 0.024618531 2.6686356e-39
4.2382493 -0.54478669 0.020093819 3.3114883e-39
4.282866 -0.55737555 0.0032737125 6.1698695e-39
4.2392068 -0.52459693 0.010460229 3.5873381e-39
