# .PCD v0.7 - Point Cloud Data file format
VERSION 0.7
FIELDS x y z rgb
SIZE 4 4 4 4
TYPE F F F F
COUNT 1 1 1 1
WIDTH 1012
HEIGHT 1
VIEWPOINT 0 0 0 1 0 0 0
POINTS 1012
DATA ascii
2.8327587 -0.8556332 -1.2905834 5.8926128e-39
2.6614985 -0.78295982 -1.2341888 9.2069611e-39
2.6118097 -0.76475459 -1.2338526 1.2710005e-38
2.6370821 -0.76242894 -1.2324131 1.1421813e-38
2.6172862 -0.73342788 -1.2137115 7.5582578e-39
2.6357961 -0.73285037 -1.2370073 8.2007433e-39
2.6365707 -0.71329677 -1.2341057 7.8330454e-39
2.6586132 -0.69803065 -1.2444292 7.8326881e-39
2.658592 -0.67679763 -1.2444293 7.3706211e-39
2.6834631 -0.66635257 -1.2444276 7.5539306e-39
2.6820354 -0.65029716 -1.2495903 7.8301742e-39
2.7129154 -0.64914143 -1.2551335 7.8305175e-39
2.7306569 -0.93642658 -1.230799 9.4918353e-39
2.7383277 -0.91185933 -1.2342508 8.2021867e-39
2.7397366 -0.88463771 -1.2289996 7.2795073e-39
2.765913 -0.87865824 -1.2318236 6.9096388e-39
2.7651749 -0.8649298 -1.2344722 6.6312428e-39
2.7899187 -0.85582417 -1.2425243 6.7202042e-39
2.8170846 -0.85788697 -1.24555 5.5292267e-39
2.8390839 -0.85985577 -1.2674685 5.7103571e-39
2.664299 -0.78295702 -1.2239484 1.2159339e-38
2.6228154 -0.75430322 -1.1935703 1.2538209e-38
2.6431034 -0.76593244 -1.2104095 1.2811918e-38
2.6216896 -0.73029143 -1.1975986 8.2936732e-39
2.6421354 -0.72381967 -1.2137946 8.1092652e-39
2.6445427 -0.70144421 -1.2049085 7.9245236e-39
2.6448705 -0.68170315 -1.2036391 7.5575333e-39
2.6669908 -0.67413497 -1.2137078 7.3724064e-39
2.6909914 -0.66456097 -1.2168931 7.7379393e-39
2.7277677 -0.65126836 -1.231294 7.7383246e-39
2.7415483 -0.9411639 -1.1988859 9.4921926e-39
2.7379031 -0.91033077 -1.2002558 8.0177912e-39
2.744015 -0.88699359 -1.1975683 7.3713386e-39
2.772429 -0.87590587 -1.207986 6.9092913e-39
2.7728972 -0.86126089 -1.2062203 6.4472187e-39
2.7967808 -0.8502779 -1.217411 5.8032898e-39
2.7497292 -0.82474321 -1.1922411 8.0869453e-39
2.6141629 -0.76058829 -1.1671048 1.2899085e-38
2.6282969 -0.72819686 -1.173429 8.6628089e-39
2.6282763 -0.7073161 -1.1734291 8.0185199e-39
2.6532178 -0.69748735 -1.1731724 7.6504478e-39
2.6532023 -0.68169481 -1.1731725 7.6490087e-39
2.6753948 -0.67678082 -1.1829863 7.6479213e-39
2.6975815 -0.66633844 -1.1928003 7.4631629e-39
2.7221174 -0.65585333 -1.197816 7.7383148e-39
2.7570508 -0.966281 -1.165985 1.0230101e-38
2.7425549 -0.9459725 -1.1715308 9.4914751e-39
2.7503459 -0.91353577 -1.1713539 7.8337601e-39
2.7555277 -0.87917781 -1.1712362 7.2780752e-39
2.756942 -0.8574003 -1.165985 6.6334106e-39
2.7789288 -0.85667837 -1.1841484 6.3568237e-39
2.8037946 -0.85027093 -1.1917634 6.1720723e-39
2.776731 -0.83196765 -1.1920943 1.0026264e-38
2.6366112 -0.78039032 -1.1432173 1.3907125e-38
2.6268096 -0.76369435 -1.1402467 1.3912506e-38
2.61761 -0.72985023 -1.1350111 9.0319543e-39
2.6303468 -0.70711279 -1.1367934 8.4791379e-39
2.6587725 -0.69748181 -1.1528614 8.0174409e-39
2.639266 -0.68120414 -1.1331468 7.9252424e-39
2.6596756 -0.67466944 -1.1494762 7.7419022e-39
2.6837854 -0.66615587 -1.1522648 7.6486556e-39
2.7060475 -0.66097772 -1.161824 7.4631685e-39
2.7046249 -0.65027457 -1.1669867 7.8297972e-39
2.7320852 -0.65584338 -1.1613673 7.6475794e-39
2.7458537 -0.96444756 -1.1437405 9.1230556e-39
2.7176096 -0.928581 -1.1205221 8.2958228e-39
2.7374985 -0.94302052 -1.1426222 8.7546346e-39
2.7161872 -0.91787785 -1.1256849 8.1103498e-39
2.7413602 -0.91140699 -1.1419239 7.9256012e-39
2.7529342 -0.87908024 -1.1401016 7.2802262e-39
2.787626 -0.8621614 -1.152365 7.2798422e-39
2.8154955 -0.86133808 -1.1490175 7.6486429e-39
2.6322472 -0.76043141 -1.1092793 1.3545886e-38
2.6257756 -0.73210156 -1.1063709 9.3081881e-39
2.6376703 -0.70536542 -1.1100062 8.2954641e-39
2.6698761 -0.6922065 -1.1122391 8.0192275e-39
2.6950085 -0.68737769 -1.1113029 7.9266746e-39
2.6434023 -0.68642014 -1.1180409 7.9270417e-39
2.6665287 -0.67747015 -1.1244258 7.6493646e-39
2.6927512 -0.67039353 -1.1194953 7.4642587e-39
2.7145185 -0.66096926 -1.1308476 7.5539264e-39
2.7163868 -0.6466946 -1.123964 8.1034946e-39
2.7349329 -0.65584052 -1.1509533 7.6432746e-39
2.7714331 -0.98804277 -1.1134727 1.0593148e-38
2.7565355 -0.96571928 -1.1110032 1.0046471e-38
2.7232571 -0.92857528 -1.0998713 8.4791295e-39
2.754391 -0.95001322 -1.1124692 8.9401217e-39
2.723242 -0.91358894 -1.0998713 8.1092848e-39
2.7465837 -0.91494089 -1.1092975 8.4751932e-39
2.7239282 -0.89378476 -1.0972899 7.8319594e-39
2.7526531 -0.87767708 -1.1128151 7.1883809e-39
2.7717776 -0.85375613 -1.1117224 7.0943776e-39
2.7941365 -0.85391718 -1.1285275 7.553932e-39
2.7007051 -0.7829206 -1.0908219 8.8449973e-39
2.6525574 -0.75322938 -1.084808 1.0781477e-38
2.676898 -0.77116281 -1.0868503 1.0499119e-38
2.645385 -0.72725862 -1.0782421 9.2159841e-39
2.6496041 -0.70347983 -1.0829704 8.3872968e-39
2.6754308 -0.6922009 -1.0919281 8.1107127e-39
2.6557848 -0.67596745 -1.0727233 7.9241691e-39
2.6763389 -0.67465276 -1.0885429 7.7426463e-39
2.699188 -0.6661405 -1.0959421 7.6482856e-39
2.7215779 -0.66096222 -1.105034 7.6464878e-39
2.72241 -0.64597493 -1.1019363 8.2875229e-39
2.7005458 -0.62367308 -1.0908219 1.5104518e-38
2.7523551 -0.99050951 -1.0884697 9.4918325e-39
2.7317712 -0.97138512 -1.0688949 9.4900108e-39
2.7547715 -0.96582979 -1.0795434 9.6755119e-39
2.7303164 -0.9285683 -1.0740576 8.2954445e-39
2.7551599 -0.94732141 -1.0780557 8.7567968e-39
2.7303004 -0.91251147 -1.0740576 7.5596941e-39
2.730279 -0.89110225 -1.0740576 7.647194e-39
2.7680976 -0.87583202 -1.0831352 7.2798562e-39
2.7765644 -0.85375136 -1.0942183 7.5528418e-39
2.8042824 -0.85939884 -1.0914468 7.8294357e-39
2.7063057 -0.78291506 -1.0703409 1.0136824e-38
2.661366 -0.74904442 -1.052582 9.8591731e-39
2.6843913 -0.76589113 -1.0594304 9.7669578e-39
2.6613448 -0.72816378 -1.052582 9.583682e-39
2.661319 -0.70206285 -1.052582 8.8471973e-39
2.6837626 -0.69219255 -1.0614616 8.3862402e-39
2.683192 -0.67745346 -1.0634925 8.0177898e-39
2.7068918 -0.66878694 -1.0677807 7.741898e-39
2.7061784 -0.65551704 -1.0703409 8.1085421e-39
2.7300382 -0.65024918 -1.0740576 8.291853e-39
2.7622957 -0.96350873 -1.0520209 8.9390384e-39
2.7373755 -0.92856115 -1.048244 8.0203037e-39
2.7622795 -0.94731426 -1.0520209 8.2969004e-39
2.7373595 -0.91250432 -1.048244 7.7426533e-39
2.7373381 -0.8910951 -1.048244 7.3734994e-39
2.7795899 -0.875449 -1.0561558 7.0951076e-39
2.7870991 -0.85737014 -1.0557094 7.5507006e-39
2.6690812 -0.75321293 -1.0243844 7.4639224e-39
2.6696067 -0.72815555 -1.0223702 9.307458e-39
2.6695757 -0.69683444 -1.0223703 9.1234227e-39
2.6921041 -0.70271271 -1.0309948 8.7553689e-39
2.6913862 -0.67902452 -1.0335337 8.2932879e-39
2.7151549 -0.67037112 -1.0375713 7.8319356e-39
2.7399318 -0.66094387 -1.0379186 7.9219592e-39
2.7131796 -0.65551001 -1.0447396 8.4769421e-39
2.7376578 -0.64595973 -1.0461789 8.9350419e-39
2.8477864 -1.0053315 -1.0314659 4.6857711e-39
2.777267 -0.96624613 -1.0288774 9.2170477e-39
2.7458467 -0.92855269 -1.0172676 8.8453953e-39
2.7693994 -0.94730717 -1.0259861 9.0315942e-39
2.7458308 -0.91249591 -1.0172677 7.9259655e-39
2.7458093 -0.89108664 -1.0172676 7.3720603e-39
2.7771804 -0.87960035 -1.0288774 7.2798394e-39
2.8187852 -0.8758595 -1.0384744 7.0018386e-39
2.7868993 -0.85135567 -1.0248262 8.9318148e-39
2.6507797 -0.75333405 -1.0041159 1.1706339e-38
2.7004938 -0.76061076 -1.0005281 1.1708518e-38
2.6769493 -0.72640812 -0.99551535 8.8475617e-39
2.702323 -0.73779732 -0.9937579 9.4007341e-39
2.6771572 -0.70465708 -0.99467617 8.1110658e-39
2.7009852 -0.69638681 -0.99849707 7.8334056e-39
2.7244132 -0.68734831 -1.0037776 7.464979e-39
2.6976376 -0.6816504 -1.0106838 8.6635123e-39
2.7230024 -0.67673326 -1.0088979 7.2813066e-39
2.7448812 -0.66896737 -1.0198489 7.2780485e-39
2.7705426 -0.66660124 -1.020779 7.4638972e-39
2.776953 -0.65223527 -1.0288774 6.719477e-39
2.8044622 -0.98800975 -0.99269468 5.3293328e-39
2.8261492 -0.9966706 -1.0119883 5.2364239e-39
2.8536422 -1.0164046 -1.0100929 2.2116077e-39
2.7937021 -0.96896672 -1.0003794 9.1241388e-39
2.7543178 -0.92854422 -0.98629129 8.6635025e-39
2.7858145 -0.94998181 -0.99756187 8.8468386e-39
2.7543018 -0.91248739 -0.98629129 7.8344832e-39
2.7547493 -0.88929361 -0.98457038 7.4653307e-39
2.7854233 -0.87536287 -0.99871892 6.9096374e-39
2.7975225 -0.85072303 -1.0017736 8.0988059e-39
2.8563983 -0.85021836 -0.99940628 1.0871485e-38
2.8043096 -0.83557677 -0.99269468 1.1706976e-38
2.6847956 -0.76990169 -0.96698207 1.5579664e-38
2.707437 -0.76060385 -0.97513938 1.1892206e-38
2.6852098 -0.72465986 -0.9653036 8.9401104e-39
2.7069516 -0.73779273 -0.97683197 9.2166903e-39
2.7087677 -0.70269597 -0.97006154 8.4798456e-39
2.7314143 -0.68734127 -0.97817636 7.7411945e-39
2.7313986 -0.67141652 -0.97817636 7.7419134e-39
2.7540503 -0.66092974 -0.98629129 8.016694e-39
2.7568576 -0.64487004 -0.9759658 7.6493352e-39
2.7821188 -0.65177131 -1.0020865 8.6591683e-39
2.7904465 -0.96485674 -0.96488154 9.4943716e-39
2.7627888 -0.92853576 -0.95531493 8.2039733e-39
2.7864866 -0.94729006 -0.96350241 9.0315956e-39
2.7627728 -0.91247898 -0.95531493 7.5568004e-39
2.7627461 -0.88571739 -0.95531493 7.3724134e-39
2.7953889 -0.86997831 -0.97805429 6.634491e-39
2.7641366 -0.86430687 -0.95015222 6.8206872e-39
2.7916958 -0.85588592 -0.96307468 6.4490067e-39
2.8346982 -0.85387665 -0.98020482 5.3401439e-39
2.6889424 -0.78555816 -0.95187616 1.5858046e-38
2.6902962 -0.76206595 -0.94684088 1.2723386e-38
2.7154942 -0.76375437 -0.94568825 1.060073e-38
2.688885 -0.72813618 -0.95187616 8.7560807e-39
2.7160201 -0.73427415 -0.94365716 8.5706035e-39
2.7370684 -0.74041826 -0.95769536 9.3999914e-39
2.7157106 -0.70268917 -0.94467264 8.4784204e-39
2.7370152 -0.68733573 -0.95769536 8.3858422e-39
2.7170782 -0.68163097 -0.93959492 6.5419647e-39
2.7398 -0.67140812 -0.94745493 7.1876662e-39
2.7625213 -0.66092128 -0.95531493 7.4620797e-39
2.7615657 -0.64664948 -0.95875674 7.9230536e-39
2.7914932 -0.643911 -0.96303934 8.9354119e-39
2.7456927 -0.96335655 -0.92697388 1.1063141e-38
2.7698803 -0.96064246 -0.9295013 9.6780678e-39
2.7936172 -0.95807928 -0.93746746 9.3981851e-39
2.7256839 -0.95536184 -0.90912831 1.1061355e-38
2.7698481 -0.92852873 -0.9295013 8.2936606e-39
2.7950304 -0.94728154 -0.93226057 8.9390356e-39
2.7698321 -0.91247189 -0.9295013 7.5575319e-39
2.7698054 -0.88571036 -0.9295013 6.9110849e-39
2.769784 -0.8643012 -0.9295013 6.9103632e-39
2.8055253 -0.8562817 -0.93416798 6.0784404e-39
2.8424206 -0.85020775 -0.95195293 9.300942e-39
2.8215423 -0.83555955 -0.92968005 1.4287048e-38
2.722738 -0.78690976 -0.91928387 1.6038833e-38
2.7476208 -0.79083616 -0.91929352 1.4201046e-38
2.722317 -0.76284504 -0.92073458 1.0137939e-38
2.7026656 -0.73856276 -0.90152323 7.8348517e-39
2.7223368 -0.73295188 -0.92055321 7.9245124e-39
2.7226536 -0.7026822 -0.91928381 8.1096211e-39
2.7026029 -0.67592061 -0.90152323 8.0177534e-39
2.7231798 -0.67320204 -0.91725278 8.0185003e-39
2.7453954 -0.6660943 -0.92697388 8.0166912e-39
2.7681687 -0.66091561 -0.93466401 7.5517348e-39
2.7481854 -0.65547502 -0.91673344 7.4645642e-39
2.7700369 -0.64664096 -0.92778039 7.8301419e-39
2.8058832 -0.64228153 -0.93884718 9.2098366e-39
2.7769446 -0.96598762 -0.90368766 1.0139049e-38
2.6837573 -0.95006442 -0.88424581 1.1708161e-38
2.7769198 -0.94101042 -0.90368766 8.5702391e-39
2.8007262 -0.94727582 -0.91143262 8.5723901e-39
2.7568469 -0.91557103 -0.8860119 7.648273e-39
2.7763255 -0.91139495 -0.90575278 7.8330258e-39
2.756815 -0.88372153 -0.8860119 7.2798632e-39
2.7760563 -0.88417488 -0.90663779 7.27915e-39
2.7768431 -0.86429417 -0.90368766 6.4497424e-39
2.8060203 -0.85129619 -0.90751636 5.9822707e-39
2.779624 -0.82147306 -0.89336222 1.290122e-38
2.8006074 -0.82851624 -0.91143262 1.3367594e-38
2.7539296 -0.79879224 -0.89625239 1.4478713e-38
2.7081873 -0.75247777 -0.88138205 8.4773176e-39
2.7304995 -0.77216208 -0.89084834 8.1982448e-39
2.7040555 -0.72900212 -0.87896609 7.9255956e-39
2.7309964 -0.71320236 -0.88881731 7.6486163e-39
2.7542319 -0.70096827 -0.89478952 7.6497276e-39
2.7295651 -0.67109001 -0.89389497 8.1085295e-39
2.7566028 -0.67139131 -0.8860119 7.0061322e-39
2.7537863 -0.65546942 -0.89625239 8.0174129e-39
2.776629 -0.65020257 -0.90368766 8.1070679e-39
2.8137627 -0.64771771 -0.91005397 8.1078106e-39
2.765296 -0.96333694 -0.85529041 1.0049004e-38
2.7848501 -0.96490926 -0.87477642 9.5862281e-39
2.8078566 -0.95806503 -0.88539773 8.3851248e-39
2.7853892 -0.93921787 -0.8727113 7.6479213e-39
2.7627912 -0.90892977 -0.86425084 7.2802192e-39
2.7628138 -0.88144058 -0.86406797 7.0032721e-39
2.7839131 -0.87499166 -0.87787402 6.6348526e-39
2.785305 -0.85511041 -0.8727113 5.43738e-39
2.8171325 -0.85250825 -0.88268399 5.5216554e-39
2.762347 -0.81470865 -0.86553091 1.2720407e-38
2.7852821 -0.83217198 -0.8727113 6.0643769e-39
2.7421787 -0.78689027 -0.84819508 7.3594346e-39
2.7617719 -0.79984593 -0.86757904 1.2725536e-38
2.7171476 -0.76203912 -0.8486526 8.5706035e-39
2.7380023 -0.77636594 -0.86342835 7.1894879e-39
2.6969376 -0.73108697 -0.84397024 8.0177828e-39
2.7017696 -0.70684016 -0.84655571 7.5560942e-39
2.7393186 -0.70416957 -0.85835052 7.464609e-39
2.7603562 -0.69085127 -0.8723579 8.0181233e-39
2.7413685 -0.67107821 -0.85073394 8.108891e-39
2.760335 -0.66961819 -0.8723579 7.7408372e-39
2.7628853 -0.65280616 -0.86297083 7.6482814e-39
2.7850966 -0.64662594 -0.8727113 8.3822353e-39
2.8194706 -0.64771199 -0.88918179 8.7510234e-39
2.7249167 -0.95778835 -0.8209585 1.1250765e-38
2.7709005 -0.96687013 -0.83480942 9.4969052e-39
2.7945902 -0.96329391 -0.83915359 8.2936732e-39
2.7938654 -0.94456166 -0.84173495 8.2014496e-39
2.7708437 -0.91024876 -0.83480942 7.3724176e-39
2.7708151 -0.88143259 -0.83480942 6.8185151e-39
2.7937961 -0.87498182 -0.84173495 6.1745961e-39
2.7735806 -0.84654689 -0.82456893 4.6987429e-39
2.7929692 -0.85510266 -0.84468508 4.883846e-39
2.7491479 -0.81320435 -0.82280618 5.4344821e-39
2.7707589 -0.82531673 -0.83480942 6.3611075e-39
2.7909296 -0.83216631 -0.85206044 6.5264201e-39
2.7254355 -0.78813177 -0.81844085 7.2794821e-39
2.7477436 -0.79741311 -0.82788396 7.1876564e-39
2.7679372 -0.80408645 -0.84504992 9.1273169e-39
2.7062252 -0.76156789 -0.81385428 8.7549919e-39
2.7100019 -0.72933316 -0.81653392 8.2010993e-39
2.7246609 -0.70199949 -0.8209585 7.5567976e-39
2.7448614 -0.69213152 -0.83803952 7.3727819e-39
2.7191255 -0.6810075 -0.81205964 7.8319426e-39
2.747066 -0.67528385 -0.82991511 7.8330034e-39
2.7705996 -0.66606909 -0.83480942 7.833023e-39
2.7696469 -0.64660645 -0.83822292 8.0149031e-39
2.7954502 -0.64661556 -0.83485132 7.8319468e-39
2.8023849 -0.9927237 -0.81075859 1.2720854e-38
2.78212 -0.98455316 -0.79384744 1.2445352e-38
2.8023634 -0.97131449 -0.81075859 9.3103293e-39
2.7820671 -0.93147063 -0.79384744 7.927399e-39
2.8017731 -0.94562417 -0.81282371 7.9270249e-39
2.7792451 -0.91024035 -0.80408794 7.6489933e-39
2.7797799 -0.8847602 -0.80203986 6.6341183e-39
2.8015637 -0.87765014 -0.81333995 5.8050751e-39
2.7561176 -0.83951849 -0.79741734 4.241708e-39
2.7791886 -0.85361904 -0.80408794 4.5150523e-39
2.7994328 -0.86427158 -0.82108408 5.0693219e-39
2.7282002 -0.82039326 -0.78665125 4.3306681e-39
2.7533298 -0.82899284 -0.8075729 4.6043935e-39
2.7112596 -0.79340279 -0.78310543 6.631247e-39
2.7108884 -0.76362973 -0.78435409 8.6635039e-39
2.7105172 -0.73385674 -0.78560275 8.3865667e-39
2.6914542 -0.71631706 -0.76805359 7.3720715e-39
2.7206495 -0.70400697 -0.78719527 7.3716833e-39
2.7322161 -0.68372124 -0.79326439 7.2805499e-39
2.7565088 -0.67527443 -0.79538625 7.5564263e-39
2.779001 -0.66606069 -0.80408794 7.9248571e-39
2.7789905 -0.6554442 -0.80408794 7.6497163e-39
2.8027456 -0.64750034 -0.80817723 8.1085379e-39
2.8366427 -0.64769483 -0.82638842 9.3920993e-39
2.9093289 -1.1769931 -0.80704921 1.1797088e-38
2.9093068 -1.1548352 -0.80704921 1.1889622e-38
2.8094442 -0.99271667 -0.78494495 1.2078716e-38
2.8349657 -1.0120196 -0.78646529 1.2720112e-38
2.8094227 -0.97130752 -0.78494495 9.1234101e-39
2.786273 -0.93677467 -0.77848673 8.8471805e-39
2.8093958 -0.9445461 -0.78494495 8.6638613e-39
2.7635939 -0.90970069 -0.77033597 7.926662e-39
2.7848408 -0.90492654 -0.78360695 7.4631713e-39
2.7645018 -0.89215243 -0.76695073 7.0068595e-39
2.7862146 -0.87838382 -0.77848673 5.529577e-39
2.7413259 -0.84292787 -0.76053494 4.8852866e-39
2.7616825 -0.85004139 -0.77710623 3.9633107e-39
2.7177744 -0.82058072 -0.75938112 5.7125417e-39
2.6962676 -0.78821319 -0.75071502 7.278078e-39
2.716383 -0.79469222 -0.76437569 6.8188893e-39
2.696018 -0.76424658 -0.75154066 7.0911307e-39
2.7172551 -0.75671947 -0.76104593 8.2028747e-39
2.6959836 -0.73000801 -0.75154066 8.6635109e-39
2.716331 -0.74291247 -0.76437569 9.2141848e-39
2.6955185 -0.716313 -0.75319195 8.2025412e-39
2.7287328 -0.70431781 -0.76248246 7.0936559e-39
2.7390959 -0.67849422 -0.76808792 7.5560479e-39
2.7642858 -0.67631954 -0.76695073 7.3727595e-39
2.7860022 -0.66605365 -0.77848673 7.3723924e-39
2.7864549 -0.65189791 -0.77677995 7.7411693e-39
2.8086238 -0.64303422 -0.78666592 9.3048923e-39
2.8915243 -1.1833246 -0.77361262 1.1702727e-38
2.915174 -1.1769871 -0.78567618 1.132962e-38
2.9151464 -1.1492898 -0.78567618 1.1324942e-38
2.8165085 -0.99806195 -0.75913137 1.1893239e-38
2.8378081 -1.0066186 -0.77605134 1.2078352e-38
2.7729073 -0.96584314 -0.73648411 7.8290896e-39
2.7933087 -0.97127128 -0.75288546 8.754259e-39
2.813669 -0.98200786 -0.7694568 9.0286851e-39
2.7721891 -0.94215471 -0.73902297 6.5419212e-39
2.791599 -0.9420777 -0.75902975 7.6482786e-39
2.7394841 -0.90312415 -0.73842573 7.0014729e-39
2.7728651 -0.92372942 -0.73648411 5.9884182e-39
2.7373517 -0.88457751 -0.73785174 6.2678651e-39
2.7672632 -0.87635696 -0.75679517 4.6069018e-39
2.7440612 -0.85740411 -0.73605281 4.9735362e-39
2.7672474 -0.86056423 -0.75679517 4.2392067e-39
2.7023895 -0.81388611 -0.72842252 8.2000105e-39
2.7259853 -0.83610648 -0.72941357 6.8228017e-39
2.7023637 -0.78820717 -0.72842252 8.2932865e-39
2.7023382 -0.7625283 -0.72842252 7.740833e-39
2.7218049 -0.753263 -0.74439734 6.1742107e-39
2.7030852 -0.73538125 -0.72559178 7.5560676e-39
2.7245121 -0.72909623 -0.73440808 6.9121569e-39
2.6995773 -0.71117318 -0.7383303 8.1135615e-39
2.7248251 -0.70018554 -0.7331596 7.1876676e-39
2.7466731 -0.68214077 -0.74039382 7.1851186e-39
2.7692797 -0.67105031 -0.74867076 7.3716637e-39
2.7944036 -0.66604531 -0.74776518 7.4620741e-39
2.8189952 -0.66086477 -0.74880588 8.0120417e-39
2.7913039 -0.64693862 -0.75902975 8.4755015e-39
2.8189845 -0.65016019 -0.74880588 8.6598984e-39
2.8678961 -1.1857148 -0.73437726 1.141929e-38
2.8980377 -1.1778263 -0.74977505 1.1045109e-38
2.922965 -1.1751329 -0.75717884 1.0487599e-38
2.8987346 -1.150367 -0.74712646 1.0773208e-38
2.9247496 -1.1508631 -0.75056332 1.0495538e-38
2.8958154 -1.1284029 -0.75772095 1.1426793e-38
2.7572842 -0.9655863 -0.70262909 8.9404594e-39
2.7756846 -0.96584034 -0.72632855 7.925241e-39
2.800323 -0.98453498 -0.72728419 9.1234171e-39
2.7551949 -0.94209754 -0.71018201 7.0011113e-39
2.7477415 -0.91355622 -0.70826817 6.1727898e-39
2.713284 -0.87036878 -0.68879151 3.9586541e-39
2.7323158 -0.88373762 -0.70643848 5.2522642e-39
2.7132685 -0.85496145 -0.68879151 3.5016221e-39
2.7314696 -0.85681295 -0.70943528 4.9756661e-39
2.6919191 -0.83295512 -0.68337762 5.2547431e-39
2.7108605 -0.81772941 -0.69746077 7.0947195e-39
2.7300828 -0.83610243 -0.7144298 7.6504002e-39
2.6891799 -0.78200388 -0.6932075 7.834109e-39
2.7100441 -0.79162329 -0.70035058 7.8323139e-39
2.6905138 -0.7718116 -0.68829256 7.8337643e-39
2.7104666 -0.76252013 -0.69869924 7.2798576e-39
2.7104409 -0.73684126 -0.69869924 7.3716763e-39
2.7313349 -0.72218549 -0.70943522 7.4656908e-39
2.71313 -0.71629542 -0.68879151 7.5564375e-39
2.7351584 -0.70209807 -0.7050696 7.7401057e-39
2.7454767 -0.67991376 -0.70988333 7.4642475e-39
2.7781706 -0.67455095 -0.71617305 7.1868983e-39
2.8021073 -0.66869169 -0.71960384 7.3709392e-39
2.8232307 -0.66086054 -0.73331773 7.6461178e-39
2.8041947 -0.65541899 -0.71192348 7.5539152e-39
2.8793545 -1.2056965 -0.71963131 1.2161162e-38
2.8613124 -1.1846466 -0.70259881 1.2156509e-38
2.904551 -1.172328 -0.72593749 9.0175098e-39
2.8681872 -1.1627431 -0.70344323 8.0930563e-39
2.9074373 -1.1613417 -0.71534306 9.2044248e-39
2.9326918 -1.1603513 -0.72155714 9.572871e-39
2.9589179 -1.1595508 -0.72801036 9.9376864e-39
2.763504 -0.98907083 -0.67997026 9.4932646e-39
2.7896125 -1.0079402 -0.67555082 7.2849598e-39
2.7567043 -0.96893728 -0.67984992 6.6344784e-39
2.7442446 -0.93931365 -0.67392188 5.0671583e-39
2.7214534 -0.91144675 -0.65906823 3.5923982e-39
2.7394452 -0.91065603 -0.68046659 5.4377401e-39
2.6776638 -0.87658048 -0.64847225 4.3270569e-39
2.6982422 -0.88390309 -0.66044116 3.8704144e-39
2.7159986 -0.87550187 -0.67888373 3.5927471e-39
2.6776435 -0.85636771 -0.64847225 4.3281485e-39
2.6962385 -0.8512944 -0.66764981 4.6061731e-39
2.676728 -0.82941806 -0.65172178 5.5277553e-39
2.6967456 -0.82072139 -0.66568387 5.2511754e-39
2.7168417 -0.81558347 -0.67558116 6.0802102e-39
2.677593 -0.80583555 -0.64847225 4.6987093e-39
2.6990499 -0.7955817 -0.65716457 5.9876545e-39
2.7177157 -0.78647983 -0.67227858 7.2805681e-39
2.6988349 -0.75957429 -0.65781993 7.0936615e-39
2.7158856 -0.76251477 -0.67888373 7.4631615e-39
2.6998868 -0.73613435 -0.65388799 6.3582474e-39
2.7177937 -0.73536652 -0.67180675 6.9092534e-39
2.7190866 -0.71218085 -0.66699445 7.2787394e-39
2.7404821 -0.69850558 -0.67590022 7.0943649e-39
2.7520227 -0.67830604 -0.6772216 7.5538998e-39
2.7878871 -0.67103171 -0.6806286 7.2783849e-39
2.8091085 -0.66868472 -0.69400263 7.3712811e-39
2.8097956 -0.65541339 -0.69144249 8.0159583e-39
2.8449223 -1.1746591 -0.65587682 1.5010243e-38
2.8655121 -1.1811316 -0.67538315 1.3906416e-38
2.9161401 -1.1723164 -0.68355966 9.8440278e-39
2.8761859 -1.1627351 -0.67419583 1.0768525e-38
2.9151597 -1.1576729 -0.68709111 1.012242e-38
2.9399924 -1.1548045 -0.69484091 1.0493024e-38
2.9648149 -1.1595448 -0.70644617 1.0400106e-38
2.7654757 -0.99487352 -0.65098327 6.825013e-39
2.7524791 -0.97040486 -0.64392376 4.146281e-39
2.7274389 -0.93609256 -0.63727117 3.7785747e-39
2.746587 -0.9500016 -0.65449476 3.9619066e-39
2.7059729 -0.90835327 -0.63226223 3.5952624e-39
2.7241731 -0.92171568 -0.64916044 4.2374088e-39
2.6727676 -0.87828636 -0.62657732 3.7789362e-39
2.6716011 -0.85271758 -0.62632734 3.8700472e-39
2.6806688 -0.82533461 -0.62845063 3.7774873e-39
2.68345 -0.79774457 -0.6270256 3.9618687e-39
2.704248 -0.79625583 -0.63816017 3.8700318e-39
2.6836448 -0.76396006 -0.62619007 3.9618841e-39
2.7026005 -0.76160872 -0.64405811 6.0798417e-39
2.6841972 -0.74519038 -0.6241011 4.7880575e-39
2.7055955 -0.73230708 -0.63299954 5.527398e-39
2.723978 -0.72655618 -0.64916044 6.264572e-39
2.7065818 -0.7106505 -0.62931329 5.1579092e-39
2.726665 -0.70429838 -0.63925272 5.4348422e-39
2.7483797 -0.69368953 -0.64700288 5.8028975e-39
2.7622435 -0.67645651 -0.64606857 6.3553454e-39
2.7934363 -0.66576189 -0.66031748 7.0943537e-39
2.7741859 -0.65496832 -0.6396879 7.36877e-39
2.7934206 -0.64996922 -0.66031748 9.024704e-39
2.7516572 -0.55646962 -0.63451642 1.354517e-38
2.8735795 -1.1793242 -0.64587706 1.390641e-38
2.8533826 -1.1639462 -0.62490052 1.1969576e-38
2.8898373 -1.1588309 -0.64953595 1.1044366e-38
2.9190264 -1.1613301 -0.67296517 1.0213542e-38
2.9443815 -1.1603396 -0.67881113 1.0582701e-38
2.6821635 -0.97390258 -0.59256911 1.2441747e-38
2.7162552 -0.97560251 -0.59490865 8.4902936e-39
2.7337179 -0.98333555 -0.6144833 8.3973749e-39
2.7575362 -0.97199708 -0.61453813 4.3310254e-39
2.7355735 -0.94224739 -0.60754788 4.1459139e-39
2.6883578 -0.90688908 -0.60947835 3.9611541e-39
2.7139542 -0.91445982 -0.6031003 3.7789264e-39
2.679848 -0.87996376 -0.60069287 3.9618841e-39
2.7161736 -0.89407599 -0.59490865 3.9604394e-39
2.6727247 -0.85054141 -0.5956732 3.9611737e-39
2.6861432 -0.82570398 -0.59737736 3.5019836e-39
2.710726 -0.82274556 -0.61456847 3.501957e-39
2.6840725 -0.79370183 -0.59819728 3.5927471e-39
2.6875749 -0.76743966 -0.60045862 3.4094362e-39
2.7142456 -0.75820017 -0.60146189 3.5938359e-39
2.6912944 -0.73339248 -0.59810513 4.0533679e-39
2.7119887 -0.74121767 -0.60965353 3.9611919e-39
2.6911561 -0.70602101 -0.59851134 4.2373864e-39
2.713285 -0.69365925 -0.60473853 4.2377564e-39
2.7320757 -0.69573337 -0.61943716 3.2286533e-39
2.7353125 -0.68134993 -0.60754788 3.9615184e-39
2.7675622 -0.67135841 -0.62037206 4.6040067e-39
2.8059392 -0.67101365 -0.61461759 5.3437466e-39
2.8280091 -0.66601169 -0.62487924 6.5314844e-39
2.7769399 -0.65496558 -0.62961733 6.9992588e-39
2.8293989 -0.65539378 -0.61975902 9.7633158e-39
2.7823641 -0.57143712 -0.60947615 1.2994534e-38
2.768358 -0.55351168 -0.61703223 1.1971387e-38
2.83552 -1.1755971 -0.59927803 1.1054471e-38
2.8571618 -1.1782151 -0.61113322 1.1326e-38
2.8778567 -1.1847181 -0.63025612 1.2061063e-38
2.8578918 -1.1553779 -0.60837978 1.0404041e-38
2.8785362 -1.1523284 -0.62765265 9.8501347e-39
2.858053 -1.1282597 -0.60769141 1.1143415e-38
2.7671218 -0.99658287 -0.57957596 1.0423151e-38
2.6964262 -0.97762597 -0.58023298 1.2717599e-38
2.7189434 -0.97559977 -0.58507878 8.4946068e-39
2.7418411 -0.97819155 -0.58476001 6.2732727e-39
2.7662804 -0.97483623 -0.5825727 4.2395598e-39
2.7242789 -0.93483114 -0.56541902 4.9749641e-39
2.7423873 -0.94370794 -0.58263689 4.2399102e-39
2.7016873 -0.90687579 -0.560736 4.7923258e-39
2.722106 -0.91241348 -0.57328296 4.1491523e-39
2.7404196 -0.9114278 -0.58971387 2.5872216e-39
2.6784031 -0.86987519 -0.56613445 3.6881769e-39
2.7215497 -0.89407057 -0.57524884 3.6874609e-39
2.6875377 -0.85273582 -0.56805128 3.9629701e-39
2.6829278 -0.82112813 -0.56710106 3.8721996e-39
2.6943352 -0.79435956 -0.56951785 3.8689724e-39
2.7214379 -0.78197157 -0.5752489 4.0526659e-39
2.699415 -0.76740932 -0.56853479 3.8704242e-39
2.7200737 -0.7615912 -0.58016384 3.9608009e-39
2.6991816 -0.73380572 -0.56926596 4.0540882e-39
2.6942399 -0.70355594 -0.56953436 4.1462838e-39
2.7213461 -0.69025415 -0.57524884 3.6874581e-39
2.7422233 -0.68288374 -0.58228308 4.0537154e-39
2.7729449 -0.67909682 -0.58618587 4.9738683e-39
2.8128927 -0.68153512 -0.58922869 5.0671415e-39
2.8336208 -0.67662257 -0.60439825 5.2511922e-39
2.8566515 -0.6679635 -0.61113322 5.1593483e-39
2.8830345 -0.66648877 -0.60942823 3.8715088e-39
2.811399 -0.57625204 -0.59430647 1.281121e-38
2.8349254 -0.58107257 -0.59927803 1.3729568e-38
2.8584626 -0.59659767 -0.6042496 1.3360781e-38
2.7874546 -0.54756832 -0.59077352 1.2059263e-38
2.812777 -0.56572223 -0.58922869 1.1143051e-38
2.7878306 -0.52967018 -0.58933496 1.1321338e-38
2.8383205 -1.1755943 -0.58903754 1.0504542e-38
2.8675225 -1.1853412 -0.57327324 1.0966223e-38
2.8419013 -1.1558741 -0.57587117 1.0127477e-38
2.8632522 -1.1505556 -0.58876139 9.6668406e-39
2.8401377 -1.1260487 -0.58221054 9.8494228e-39
2.86464 -1.126469 -0.58359867 1.123312e-38
2.79796 -1.0203576 -0.55408788 1.0511389e-38
2.7739515 -0.99657607 -0.5546031 7.3716763e-39
2.7540185 -0.96277213 -0.54017508 3.9611443e-39
2.773385 -0.97690028 -0.55660087 4.1473362e-39
2.7269671 -0.93482846 -0.55558914 4.9760389e-39
2.752064 -0.94369823 -0.54725206 4.5136258e-39
2.7276163 -0.91189837 -0.55313164 4.6987219e-39
2.7530708 -0.9182629 -0.54347765 4.3320848e-39
2.7001126 -0.87432319 -0.53983861 4.4232448e-39
2.7296143 -0.89406252 -0.5457592 4.5147048e-39
2.690913 -0.85125113 -0.53801262 4.4239567e-39
2.688586 -0.82042885 -0.53756231 4.1480747e-39
2.6954389 -0.79232043 -0.53893799 3.7782188e-39
2.7045834 -0.7647236 -0.54078048 4.0533833e-39
2.7294717 -0.75139099 -0.5457592 3.8700669e-39
2.7068412 -0.72899747 -0.54123908 3.7782286e-39
2.7294617 -0.74120021 -0.54575926 3.8697137e-39
2.7013257 -0.7046622 -0.54141659 4.2384836e-39
2.7294159 -0.69534153 -0.54575926 4.2381193e-39
2.7523966 -0.69571304 -0.54512894 4.3306919e-39
2.7750113 -0.69107389 -0.54960841 4.7923735e-39
2.748322 -0.68544555 -0.55999064 4.791656e-39
2.7811809 -0.68256867 -0.55608267 5.1597113e-39
2.8184471 -0.68152958 -0.56891763 5.7107144e-39
2.8648989 -0.67955184 -0.58101732 4.9756759e-39
2.8873115 -0.67188263 -0.59380734 4.9713389e-39
2.8641207 -0.60729665 -0.58359867 1.289729e-38
2.7536385 -0.58272457 -0.54017508 1.3543356e-38
2.7810585 -0.57524759 -0.55613691 1.225804e-38
2.8169639 -0.58677495 -0.57399541 1.3271109e-38
2.8377366 -0.59168631 -0.58903754 1.3454423e-38
2.7802851 -0.55258816 -0.55597538 1.1135169e-38
2.8509226 -1.1755817 -0.54295528 1.0595669e-38
2.8703463 -1.1853384 -0.56294781 1.0688578e-38
2.8244648 -1.1447752 -0.54860651 1.049909e-38
2.8488061 -1.159659 -0.55063564 1.0312918e-38
2.80496 -1.1351947 -0.52891141 1.1142329e-38
2.8272316 -1.1342438 -0.53845096 1.0866801e-38
2.8494799 -1.1331171 -0.54807556 9.6704055e-39
2.8731163 -1.1318128 -0.55262232 9.5663619e-39
2.9005859 -1.1307136 -0.54694456 1.0963308e-38
2.8034682 -1.020352 -0.53394669 4.8791741e-39
2.7861357 -0.99716568 -0.52748853 3.9622541e-39
2.7594373 -0.96276671 -0.52035958 4.514332e-39
2.7821207 -0.97067803 -0.52463555 4.4217875e-39
2.7567074 -0.94222629 -0.5302673 4.8824209e-39
2.7828701 -0.93960941 -0.5217815 4.3328275e-39
2.758481 -0.90969789 -0.52366215 4.700161e-39
2.7847898 -0.90853947 -0.51464629 3.5066653e-39
2.7032986 -0.87320256 -0.51491588 4.6990764e-39
2.7403572 -0.88386095 -0.50643969 3.3229845e-39
2.714081 -0.85970014 -0.51524311 4.5161481e-39
2.7394338 -0.85668635 -0.50971627 4.3324701e-39
2.705734 -0.82323736 -0.51025027 4.4235826e-39
2.7010994 -0.79162127 -0.50939089 3.8704144e-39
2.7144945 -0.76537293 -0.51338631 3.8697011e-39
2.7389009 -0.77176321 -0.51135463 3.7785677e-39
2.7102385 -0.73379928 -0.51114261 4.1480719e-39
2.7388501 -0.72080916 -0.51135463 3.780025e-39
2.7121537 -0.70978993 -0.52174211 4.2395781e-39
2.7374921 -0.70722276 -0.51626951 4.2388368e-39
2.759177 -0.70255393 -0.52035958 4.6987387e-39
2.7875164 -0.69765317 -0.52570456 5.2497321e-39
2.8518398 -0.69252914 -0.537835 5.7103543e-39
2.8017571 -0.68626183 -0.53898197 5.3426816e-39
2.8240016 -0.68152404 -0.54860651 5.5259714e-39
2.8490233 -0.67660713 -0.5480755 3.8722094e-39
2.871722 -0.67865306 -0.55606419 3.3190231e-39
2.7817476 -0.5978635 -0.52463549 1.2805807e-38
2.7599638 -0.58614212 -0.517057 1.1611225e-38
2.7817295 -0.57974052 -0.52463549 1.058308e-38
2.7874041 -0.55919147 -0.52872294 1.353188e-38
2.8579342 -1.1861912 -0.51735401 1.1610891e-38
2.8104784 -1.1456295 -0.50877023 1.1232745e-38
2.8342021 -1.1616108 -0.51306212 1.1235266e-38
2.8104653 -1.1325791 -0.50877023 1.132601e-38
2.8348637 -1.1289721 -0.51052326 1.0866831e-38
2.857173 -1.125147 -0.51991415 9.2101771e-39
2.8829832 -1.1157461 -0.51648325 1.0590589e-38
2.9034338 -1.1307108 -0.53653061 1.0128881e-38
2.8340957 -1.0552738 -0.51306212 1.2258064e-38
2.8053617 -1.0287015 -0.50525481 6.5451624e-39
2.7703061 -0.99357045 -0.48072854 3.5005711e-39
2.7953417 -1.0024849 -0.49820378 3.8693396e-39
2.7903159 -0.97066981 -0.49466801 3.8707871e-39
2.7902849 -0.93960196 -0.49466801 4.4228693e-39
2.7669661 -0.90523845 -0.49261782 4.4246517e-39
2.7929957 -0.9188872 -0.4846788 4.240636e-39
2.7256501 -0.8765325 -0.47299978 4.6086829e-39
2.7443895 -0.88385689 -0.4916949 4.1487963e-39
2.7183459 -0.8548885 -0.48193851 4.4235756e-39
2.7090843 -0.82180405 -0.48030245 4.2391927e-39
2.7090566 -0.79161334 -0.4802942 3.871129e-39
2.7228732 -0.76536459 -0.48274824 3.8704074e-39
2.7066884 -0.73066884 -0.47988519 4.1462922e-39
2.7455702 -0.72080243 -0.48677987 4.2363284e-39
2.7455602 -0.71061152 -0.48677993 4.8812901e-39
2.7664125 -0.71281826 -0.49393889 4.7894728e-39
2.7986138 -0.70235038 -0.50071174 5.1589826e-39
2.8351212 -0.69204122 -0.50798434 4.1480677e-39
2.8565052 -0.69075513 -0.52076751 3.8696745e-39
2.8811483 -0.69291639 -0.52164596 3.5941526e-39
2.878314 -0.68221462 -0.5319714 3.5866108e-39
2.7699158 -0.60325146 -0.48072854 1.2715423e-38
2.7467821 -0.58832043 -0.48186499 1.2072567e-38
2.7666438 -0.58271158 -0.49261782 1.233945e-38
2.789922 -0.57714331 -0.49466795 1.3808821e-38
2.7698748 -0.56216514 -0.48072854 1.5564114e-38
2.7928505 -0.56274587 -0.50570583 1.5654892e-38
2.8439372 -1.1763409 -0.47751775 1.1701284e-38
2.8635352 -1.1861856 -0.49687305 1.1516535e-38
2.8192954 -1.1497968 -0.47654435 1.197102e-38
2.8397608 -1.1658167 -0.49275103 1.1601541e-38
2.8191144 -1.1262316 -0.47711974 1.1786983e-38
2.8419361 -1.1194894 -0.48462662 1.0590236e-38
2.8662615 -1.1118673 -0.48663256 9.018216e-39
2.8662508 -1.1012508 -0.48663256 1.0594158e-38
2.8186467 -1.0516579 -0.47855848 1.1799243e-38
2.8054972 -1.0320241 -0.47425562 5.5349762e-39
2.7971761 -1.0017308 -0.46969512 3.4105278e-39
2.7971451 -0.97066301 -0.46969512 3.7782131e-39
2.7783883 -0.94734037 -0.45100522 3.7774915e-39
2.7971141 -0.93959516 -0.46969512 4.2381165e-39
2.7970879 -0.91370517 -0.46969506 3.9651113e-39
2.7537978 -0.88384742 -0.4572902 3.9643897e-39
2.7170694 -0.85197842 -0.45121396 4.0551728e-39
2.7147267 -0.82107913 -0.45082146 3.7807201e-39
2.7123821 -0.7902742 -0.45043728 3.5945492e-39
2.7146664 -0.76081747 -0.45082146 4.0526476e-39
2.7146387 -0.73066092 -0.45081317 4.2391899e-39
2.752291 -0.72079575 -0.46220523 4.4203498e-39
2.7781675 -0.726502 -0.45100522 5.0642618e-39
2.8210666 -0.71756369 -0.46848789 4.8830851e-39
2.868669 -0.71905357 -0.47639206 4.4231986e-39
2.7740929 -0.71623445 -0.46586686 5.0664156e-39
2.8055339 -0.70944709 -0.48165929 5.0664226e-39
2.8406913 -0.70782834 -0.48767325 4.6068878e-39
2.8667824 -0.69959188 -0.48321903 3.5934576e-39
2.8882077 -0.69290936 -0.49583235 4.4142135e-39
2.7562313 -0.62907428 -0.44746038 1.1986504e-38
2.7762754 -0.64090747 -0.45761043 1.1887478e-38
2.7540584 -0.60665661 -0.45532432 1.1333192e-38
2.7753448 -0.61351758 -0.460913 1.1701253e-38
2.7561803 -0.57812011 -0.44746038 1.3256712e-38
2.7744143 -0.58612764 -0.46421558 1.2154686e-38
2.8275573 -1.1497885 -0.44633257 1.2339066e-38
2.8480926 -1.1658083 -0.46228442 1.20643e-38
2.8244414 -1.1237125 -0.44794396 1.2061403e-38
2.8508172 -1.1131634 -0.45212895 1.0590963e-38
2.8508067 -1.102635 -0.45212895 8.7441543e-39
2.8774526 -1.1012396 -0.44567055 9.9408912e-39
2.8044238 -1.0298326 -0.44329512 4.7934539e-39
2.7865732 -1.0038259 -0.42128196 3.7789418e-39
2.8040054 -1.0017241 -0.44472212 3.5934716e-39
2.8039796 -0.97583413 -0.44472212 3.5019906e-39
2.7820024 -0.94904864 -0.43779489 3.9618855e-39
2.8043306 -0.93662912 -0.44329512 3.9611751e-39
2.7864704 -0.90111029 -0.42128196 4.2384668e-39
2.8039174 -0.91369832 -0.44472212 4.2381081e-39
2.761188 -0.88129246 -0.43025807 3.9640351e-39
2.7210078 -0.84934866 -0.42021745 4.2384794e-39
2.7180364 -0.81968868 -0.42102236 4.0540686e-39
2.72033 -0.79028338 -0.42137355 3.686735e-39
2.7179763 -0.75951266 -0.42102239 4.0530148e-39
2.7179513 -0.73443925 -0.42102236 3.8711361e-39
2.7617095 -0.73097712 -0.42780057 4.5118251e-39
2.7808769 -0.72649926 -0.44109747 4.8813251e-39
2.81391 -0.72163999 -0.44484842 4.6061731e-39
2.87427 -0.71904796 -0.45591104 4.2399046e-39
2.8504169 -0.71308285 -0.45212889 4.4235643e-39
2.8736949 -0.70418543 -0.45795912 3.4965718e-39
2.7643263 -0.6596387 -0.41797072 1.3550214e-38
2.7835245 -0.66486716 -0.43118972 1.3183228e-38
2.806416 -0.68068653 -0.43473291 7.0843148e-39
2.7414081 -0.63901573 -0.41450894 1.0136804e-38
2.7609432 -0.63671267 -0.4302581 1.1061294e-38
2.7807999 -0.64946258 -0.44109747 1.2163677e-38
2.7413929 -0.62385613 -0.41450894 1.0858946e-38
2.7608211 -0.6101439 -0.43060923 1.1140178e-38
2.7861776 -0.60837096 -0.42128196 1.2887563e-38
2.7602229 -0.58830696 -0.43271556 1.2615289e-38
2.7861624 -0.59296364 -0.42128196 1.2796433e-38
2.8352697 -1.1508249 -0.41813493 1.2430902e-38
2.8348529 -1.1277074 -0.41957352 1.1968134e-38
2.8290622 -1.101269 -0.4157421 1.0588431e-38
2.8591278 -1.0920982 -0.42166227 9.5692486e-39
2.8149943 -1.0638489 -0.4047654 1.0869389e-38
2.792028 -1.0397708 -0.40146643 7.749109e-39
2.8118386 -1.0298252 -0.41618162 3.4119502e-39
2.7892826 -1.0038232 -0.41137418 3.5948869e-39
2.8122005 -1.0017158 -0.41475457 2.9506091e-39
2.7919714 -0.98327726 -0.40146643 3.5012731e-39
2.8121698 -0.97064799 -0.41475463 3.5938317e-39
2.8121388 -0.93958014 -0.41475463 3.685656e-39
2.7918892 -0.90110487 -0.40146643 3.9629814e-39
2.8121176 -0.91886812 -0.41475451 4.053721e-39
2.7469773 -0.87651116 -0.39501205 4.5139705e-39
2.7260034 -0.84976894 -0.39199996 4.0540812e-39
2.7376142 -0.82316262 -0.39367333 3.686728e-39
2.737586 -0.79297191 -0.39366508 3.5949079e-39
2.725913 -0.7595048 -0.39199996 3.9629673e-39
2.7328792 -0.73631239 -0.39297915 3.9615282e-39
2.7679784 -0.72757387 -0.40486416 4.6050998e-39
2.7930744 -0.73162282 -0.39651257 3.9629673e-39
2.8199925 -0.72235513 -0.42011866 4.1452034e-39
2.7916942 -0.70594525 -0.40146643 3.3147113e-39
2.8280947 -0.70517498 -0.41367844 4.6014802e-39
2.8559661 -0.70781308 -0.43181777 3.4051062e-39
2.7435288 -0.67058802 -0.38696623 1.0600652e-38
2.768374 -0.67492086 -0.40322593 1.1059122e-38
2.8091478 -0.68068379 -0.42474374 1.0973427e-38
2.741503 -0.64408946 -0.39427757 1.0683155e-38
2.7696748 -0.63160861 -0.39831096 1.1878104e-38
2.7696619 -0.61887008 -0.39831096 1.2245443e-38
2.7897954 -0.61350316 -0.40807161 1.215288e-38
2.8337791 -1.1481229 -0.38869917 1.2249053e-38
2.8390105 -1.1261466 -0.38498828 1.1877368e-38
2.8409035 -1.0945822 -0.3886084 9.1111347e-39
2.8210001 -1.0597004 -0.38278922 9.035892e-39
2.8207672 -1.0314807 -0.38353848 3.1328395e-39
2.8207388 -1.0030018 -0.38353848 3.2253883e-39
2.8200245 -0.97193462 -0.38603577 3.2254079e-39
2.7989731 -0.94012964 -0.37570629 3.407637e-39
2.8176017 -0.93957454 -0.39477617 3.4097838e-39
2.7789147 -0.91099793 -0.36554462 3.4087384e-39
2.7991283 -0.91479301 -0.37504575 3.59348e-39
2.8175812 -0.91886264 -0.39477623 3.3190511e-39
2.7503853 -0.8773582 -0.36265081 4.0551532e-39
2.7766576 -0.89401549 -0.37373626 3.8693382e-39
2.7171831 -0.85286397 -0.34086311 4.5150916e-39
2.7339401 -0.84976095 -0.36297756 3.778216e-39
2.7362425 -0.82038116 -0.3632957 3.6863594e-39
2.715801 -0.78322494 -0.34566122 4.0533399e-39
2.7361248 -0.7918961 -0.36615062 4.053721e-39
2.7157815 -0.7633276 -0.34566131 4.2381235e-39
2.7330925 -0.75806475 -0.36574158 4.0555175e-39
2.7541747 -0.74259382 -0.3682037 4.3285031e-39
2.7796373 -0.73775309 -0.36226803 3.8671732e-39
2.7989469 -0.73332882 -0.37504578 3.8675207e-39
2.8183014 -0.72900248 -0.39144647 3.8664725e-39
2.7451751 -0.69866335 -0.36114734 3.9568479e-39
2.7971234 -0.71621144 -0.38165095 4.5100357e-39
2.7149043 -0.67379081 -0.3485401 9.9427269e-39
2.7328744 -0.66589046 -0.36620227 1.0311159e-38
2.7471972 -0.64344794 -0.36350214 1.2706774e-38
2.7770674 -0.63160121 -0.37127879 1.2889367e-38
2.826004 -1.1466855 -0.36480871 1.1789888e-38
2.7658813 -1.1190466 -0.32677272 9.2267671e-39
2.808372 -1.1270627 -0.34201989 7.5571592e-39
2.8283727 -1.1246766 -0.35606825 1.1140886e-38
2.8347182 -1.0935329 -0.35653126 6.6276359e-39
2.8389213 -1.0645798 -0.35464358 3.87005e-39
2.8286223 -1.0327673 -0.35481963 3.0410223e-39
2.8285911 -1.0016994 -0.35481963 3.3172308e-39
2.808218 -0.97298944 -0.34201989 3.5005641e-39
2.8280175 -0.97477448 -0.35681736 3.5009018e-39
2.8054779 -0.94217747 -0.35192761 3.0406551e-39
2.8068068 -0.91649723 -0.34697375 3.224689e-39
2.7418969 -0.86981171 -0.33395514 4.3303079e-39
2.7860658 -0.89400607 -0.33933157 3.961894e-39
2.7422063 -0.84849906 -0.33274588 3.7774943e-39
2.7441883 -0.82037324 -0.33424026 3.6870755e-39
2.7197375 -0.78322101 -0.33126685 4.421049e-39
2.7427001 -0.79124761 -0.33073044 4.1469859e-39
2.7197177 -0.76332372 -0.33126685 3.4126774e-39
2.746181 -0.75710458 -0.33114567 4.2366648e-39
2.7832353 -0.75133723 -0.34916154 4.1448349e-39
2.7571328 -0.73314863 -0.33081636 3.6813344e-39
2.7832201 -0.73605102 -0.34916154 3.3165021e-39
2.7249017 -0.69865245 -0.3120743 1.1143041e-38
2.7452404 -0.70523578 -0.33439517 6.4428887e-39
2.7225819 -0.67502677 -0.32047111 1.2521667e-38
2.7411611 -0.66320759 -0.33588997 1.3258521e-38
2.7248569 -0.6538837 -0.3120743 1.3810236e-38
2.7532482 -0.64609605 -0.33939412 1.3534726e-38
2.7864861 -0.64178264 -0.33687422 1.298298e-38
2.8078842 -0.63916397 -0.34201989 1.2615282e-38
2.7831028 -0.61885661 -0.34916154 1.2339076e-38
2.7698801 -1.1190426 -0.31215 9.0423758e-39
2.813791 -1.1270572 -0.32220435 5.5209618e-39
2.8369055 -1.1207846 -0.32485208 4.0537379e-39
2.8368795 -1.0948949 -0.32485205 2.4885449e-39
2.8164389 -1.0654254 -0.31229657 2.1219162e-39
2.8365057 -1.0625328 -0.32610071 2.9488098e-39
2.8155015 -1.0311878 -0.31559914 3.2254023e-39
2.835176 -1.0306896 -0.3308455 3.3172266e-39
2.8163874 -1.0140675 -0.31229657 3.5891261e-39
2.8367863 -1.0016913 -0.32485205 3.316163e-39
2.8145366 -0.96955925 -0.31890175 3.7767852e-39
2.8340285 -0.97580403 -0.33484119 3.2261408e-39
2.7957945 -0.94495046 -0.30394402 3.3175923e-39
2.8127065 -0.94559413 -0.3255069 3.4987536e-39
2.7941546 -0.91777647 -0.30984202 3.4087174e-39
2.8129032 -0.91649115 -0.32468128 3.6838665e-39
2.7612975 -0.87988216 -0.30285475 3.6881657e-39
2.7914424 -0.89400071 -0.31967184 3.8711024e-39
2.7276802 -0.85285348 -0.30247802 4.3277828e-39
2.7498124 -0.84849143 -0.30493268 3.410511e-39
2.7497835 -0.81965691 -0.30493268 3.5938107e-39
2.7302399 -0.78818476 -0.29288182 4.0544399e-39
2.7471077 -0.78957164 -0.31460685 4.1459335e-39
2.7307456 -0.76928192 -0.29096255 3.8718675e-39
2.7573123 -0.76039672 -0.3070392 3.6863664e-39
2.7308335 -0.72600532 -0.2904827 5.4269459e-39
2.752862 -0.73454195 -0.30928582 2.8537471e-39
2.7102911 -0.68829823 -0.2858521 1.362619e-38
2.7297833 -0.70646429 -0.29425272 1.1140536e-38
2.7297533 -0.67661852 -0.29425275 1.3719116e-38
2.7509508 -0.66420072 -0.30009565 1.3901716e-38
2.7301054 -0.65387845 -0.29288176 1.3625147e-38
2.7548943 -0.64787841 -0.30551845 1.3168096e-38
2.8464921 -1.146665 -0.28988987 8.8597754e-39
2.8451059 -1.1259545 -0.29488447 4.1462838e-39
2.819169 -1.0859658 -0.30238882 2.5789511e-39
2.8458567 -1.0963652 -0.29203045 2.6715041e-39
2.8198259 -1.0654219 -0.29991189 2.5810909e-39
2.8455877 -1.0617471 -0.29288661 2.6743837e-39
2.8218322 -1.039741 -0.29248106 2.9488042e-39
2.8453526 -1.0314561 -0.29363587 3.3183014e-39
2.8231406 -0.99351764 -0.2875272 3.1317774e-39
2.8443062 -1.0094508 -0.29738173 3.0403006e-39
2.8221052 -0.9742595 -0.2912426 3.7764279e-39
2.8008971 -0.93984997 -0.28526723 3.2243359e-39
2.7763326 -0.9068011 -0.28777882 3.4101537e-39
2.802664 -0.91437113 -0.27871403 3.4998326e-39
2.7634504 -0.87890267 -0.27791929 4.1466313e-39
2.7577505 -0.84973717 -0.27591035 3.5019752e-39
2.757391 -0.820903 -0.27711958 3.5941722e-39
2.7384446 -0.79190731 -0.26289356 4.054084e-39
2.7377598 -0.76330566 -0.26529256 3.5005487e-39
2.7550094 -0.75446093 -0.28558442 2.5800273e-39
2.7194395 -0.72283959 -0.25252536 1.3809164e-38
2.7373097 -0.73488146 -0.2668348 8.5619476e-39
2.7155139 -0.70310038 -0.26680827 1.3534032e-38
2.7384017 -0.70219189 -0.26272216 1.3349635e-38
2.7602355 -0.68926483 -0.26623619 1.371766e-38
2.7353837 -0.68371904 -0.27368924 1.3807338e-38
2.7646437 -0.67260712 -0.27659217 1.3900986e-38
2.9008703 -1.1762841 -0.2693291 1.1611622e-38
2.8752079 -1.1560051 -0.27211139 8.8601369e-39
2.8572764 -1.1238185 -0.26622504 4.3295975e-39
2.8532648 -1.0897003 -0.26491699 2.7644214e-39
2.8326852 -1.0551375 -0.25285 3.1321011e-39
2.8526986 -1.0700246 -0.26691476 3.042076e-39
2.8299656 -1.0448687 -0.26275778 3.1335486e-39
2.8532078 -1.0327427 -0.26491699 3.3179441e-39
2.8299143 -0.99351084 -0.26275778 2.8580393e-39
2.8531866 -1.0120308 -0.26491687 2.7676626e-39
2.8110056 -0.96786463 -0.24840519 3.6831266e-39
2.8289924 -0.97468054 -0.26606035 3.5938177e-39
2.8112087 -0.94663352 -0.24758607 3.6842183e-39
2.8294728 -0.93921876 -0.26417318 3.3154441e-39
2.8106616 -0.91145146 -0.24945846 3.7756936e-39
2.7657123 -0.87480253 -0.24688791 4.4221476e-39
2.7653577 -0.85098326 -0.24809714 3.2257568e-39
2.7473423 -0.83293653 -0.23050606 3.3179371e-39
2.765662 -0.82465571 -0.24688791 3.5941722e-39
2.7456625 -0.79314369 -0.23650378 4.0544329e-39
2.7259743 -0.74751198 -0.22872056 1.2527066e-38
2.7455888 -0.76614028 -0.23667514 4.6025676e-39
2.7629611 -0.76949698 -0.25656202 2.39815e-39
2.7033837 -0.73188317 -0.2316588 1.4637116e-38
2.7242794 -0.72636038 -0.23484188 1.4085743e-38
2.7485549 -0.73344898 -0.22570793 1.353474e-38
2.7452521 -0.71106791 -0.23770328 1.4085048e-38
2.7735043 -0.69771034 -0.2442831 1.37166e-38
2.7841079 -0.68445194 -0.25853339 1.3716599e-38
2.8827789 -1.1533874 -0.24441731 8.4863153e-39
2.8653309 -1.1225624 -0.23835364 3.6874679e-39
2.8618054 -1.0935752 -0.23370084 3.3154301e-39
2.8381042 -1.0551322 -0.23303451 3.4090467e-39
2.8614438 -1.0741582 -0.23494937 3.4087202e-39
2.8380837 -1.0345889 -0.23303451 3.5923898e-39
2.8383915 -1.0037739 -0.23179604 3.1321347e-39
2.8586504 -1.0120254 -0.24493858 2.6729754e-39
2.8157125 -0.97040761 -0.23120289 3.1324962e-39
2.8407366 -0.97809267 -0.22312675 3.1317816e-39
2.7923687 -0.94721079 -0.22928797 3.7753489e-39
2.8172979 -0.94289082 -0.22530496 3.7742601e-39
2.7923281 -0.90678513 -0.22928797 3.5924038e-39
2.8174551 -0.92115015 -0.22464959 3.6813484e-39
2.7807605 -0.88208842 -0.21842341 4.0544413e-39
2.7565472 -0.85282457 -0.19691917 3.2264687e-39
2.7739558 -0.85097462 -0.21665627 3.5016263e-39
2.7556357 -0.81634706 -0.20011783 4.0544315e-39
2.7735951 -0.8210659 -0.21786547 4.0537098e-39
2.7564871 -0.79313284 -0.19691911 3.9622289e-39
2.7740986 -0.79556215 -0.21593064 4.054807e-39
2.7163212 -0.75145924 -0.18442082 4.7894658e-39
2.7333617 -0.75737613 -0.20174171 7.7357715e-39
2.7525263 -0.76826525 -0.21131356 6.6286826e-39
2.712436 -0.74166858 -0.19859225 1.0765607e-38
2.7331228 -0.73516536 -0.20253524 1.3904205e-38
2.7532728 -0.72747511 -0.20843469 1.4271925e-38
2.7544372 -0.71105868 -0.20411634 1.3165209e-38
2.7734785 -0.70429569 -0.21786553 1.3071583e-38
2.8154423 -0.70035094 -0.23120289 1.3255272e-38
2.8395545 -0.69904971 -0.2264293 1.3077668e-38
2.8637927 -0.69098514 -0.22496025 1.4930911e-38
2.8696916 -1.1259298 -0.204982 4.6090612e-39
2.8489833 -1.0962075 -0.19340351 4.0490253e-39
2.8696604 -1.094862 -0.204982 3.13355e-39
2.8453364 -1.0619725 -0.20661385 3.318314e-39
2.872371 -1.0741473 -0.19499272 3.5037927e-39
2.8231637 -1.0289975 -0.20417073 3.7778544e-39
2.8462157 -1.0380049 -0.20331126 3.5945366e-39
2.8251669 -1.0162569 -0.19679828 3.2271932e-39
2.8461814 -1.0037662 -0.20331126 3.3165273e-39
2.8722882 -0.99129975 -0.19499272 3.3168623e-39
2.823772 -0.96530414 -0.20171322 3.316135e-39
2.845762 -0.97148454 -0.2047267 3.2236016e-39
2.8237474 -0.9408462 -0.20171328 3.223959e-39
2.8038905 -0.91688001 -0.18704464 4.3252689e-39
2.8237262 -0.91944551 -0.20171328 3.7760537e-39
2.7887175 -0.88208061 -0.18932667 4.1459223e-39
2.7819386 -0.84971297 -0.18746103 3.59238e-39
2.7617626 -0.81965709 -0.17772675 3.7781921e-39
2.7815404 -0.82965457 -0.18884306 3.6856462e-39
2.739687 -0.78945237 -0.17873043 3.6867252e-39
2.7634885 -0.79644203 -0.17132908 3.9622275e-39
2.7390125 -0.76559687 -0.18111101 3.8700388e-39
2.7636719 -0.76079255 -0.17052947 4.6965625e-39
2.7385433 -0.7310468 -0.18269783 5.148896e-39
2.7625496 -0.73177689 -0.17452797 5.1557288e-39
2.7840757 -0.719329 -0.17916897 4.4196421e-39
2.7616453 -0.70234638 -0.17772675 5.5263218e-39
2.7938857 -0.69611925 -0.19628456 5.523082e-39
2.8235018 -0.69524747 -0.20171328 4.5107587e-39
2.8445187 -0.69562089 -0.20826514 1.1953258e-39
2.8445082 -0.68534935 -0.20826514 2.6635895e-39
2.8768225 -0.68340147 -0.22088234 1.2256236e-38
2.8530886 -1.1372896 -0.17854182 1.115711e-38
2.8346879 -1.1283464 -0.16239366 1.179996e-38
2.8549709 -1.1229075 -0.17160644 4.9796556e-39
2.8751547 -1.1259245 -0.18500355 3.6849189e-39
2.8547421 -1.0974857 -0.17234948 3.6849301e-39
2.8760269 -1.0879517 -0.18167375 3.7778502e-39
2.8543611 -1.0551158 -0.17358795 3.8703934e-39
2.8764687 -1.0741432 -0.18000898 3.5956198e-39
2.8318973 -1.0264411 -0.17222351 4.1466243e-39
2.8543508 -1.0448443 -0.17358789 4.2381109e-39
2.8318825 -1.0111548 -0.17222369 3.8696913e-39
2.8543046 -0.99862224 -0.17358789 3.501985e-39
2.8542807 -0.97465539 -0.17358789 3.5923828e-39
2.8763754 -0.98093969 -0.18000898 3.0413726e-39
2.8128037 -0.94382149 -0.15454967 3.5005445e-39
2.8312745 -0.94083863 -0.17418951 3.7756978e-39
2.8117597 -0.91542834 -0.15826347 3.8682508e-39
2.8317957 -0.92453277 -0.17222363 4.2337949e-39
2.7683764 -0.87270999 -0.15373594 3.596333e-39
2.7957945 -0.88374496 -0.16345468 3.7785733e-39
2.7716393 -0.85529661 -0.14174059 3.9629589e-39
2.7891679 -0.85095942 -0.16102998 3.68457e-39
2.7699656 -0.82172155 -0.14773832 3.9622275e-39
