# .PCD v0.7 - Point Cloud Data file format
VERSION 0.7
FIELDS x y z rgb
SIZE 4 4 4 4
TYPE F F F F
COUNT 1 1 1 1
WIDTH 1025
HEIGHT 1
VIEWPOINT 0 0 0 1 0 0 0
POINTS 1025
DATA ascii
1.377281 0.5863229 -0.96593845 1.2355356e-38
1.3885626 0.60933989 -0.9670279 9.6809531e-39
1.4003831 0.62366146 -0.96784264 8.7622506e-39
1.4123195 0.63257611 -0.96764785 8.3873402e-39
1.5849199 0.41677704 -0.98150247 1.6685273e-38
1.6032645 0.41707158 -1.000304 1.4202152e-38
1.5680864 0.44330186 -0.97472435 1.2818889e-38
1.5875046 0.43153563 -0.98703963 1.4291832e-38
1.5664889 0.46082729 -0.97320884 8.6682599e-39
1.5888264 0.46392906 -0.99622488 8.0211039e-39
1.3795583 0.50604039 -0.91896397 1.1524563e-38
1.413179 0.50898719 -0.93467587 9.963347e-39
1.4442084 0.50475121 -0.95041752 7.9307075e-39
1.5885872 0.49745172 -0.98526913 5.9942223e-39
1.6015916 0.50975412 -1.0067093 5.3495606e-39
1.3628095 0.52920043 -0.92768991 1.3833041e-38
1.377715 0.51939487 -0.93472868 1.2173887e-38
1.412791 0.51500368 -0.95001251 1.032961e-38
1.4299932 0.51315969 -0.95933777 9.6860356e-39
1.5937259 0.52263522 -0.98696315 5.258095e-39
1.6019262 0.52829063 -1.0054283 5.3499347e-39
1.3624805 0.54768181 -0.92895025 1.2998949e-38
1.3694139 0.55807108 -0.93766016 1.309292e-38
1.5985948 0.54014677 -0.98256677 5.7223298e-39
1.3824296 0.58536357 -0.93712944 1.1155373e-38
1.3931655 0.61404836 -0.93463278 8.942672e-39
1.4059442 0.62806058 -0.94654852 8.8500966e-39
1.5988604 0.41618717 -0.94593316 1.7051162e-38
1.6116287 0.41707158 -0.96827734 1.9164784e-38
1.5671521 0.44242042 -0.95031637 1.337242e-38
1.5949721 0.43133986 -0.96477884 1.5398905e-38
1.6146065 0.42447463 -0.97006643 1.7969489e-38
1.5624572 0.46604627 -0.94953156 8.4838673e-39
1.3897316 0.50491184 -0.90396214 1.1897303e-38
1.4169576 0.49876881 -0.91493118 9.4998451e-39
1.4478947 0.50029355 -0.93036693 6.3637391e-39
1.5689161 0.49037027 -0.95050114 6.9158241e-39
1.5854479 0.50701553 -0.96167213 5.9034588e-39
1.3650357 0.52828455 -0.89938098 1.4755718e-38
1.3766505 0.51522934 -0.90239602 1.3925968e-38
1.5811069 0.5125578 -0.9426772 5.6272405e-39
1.5918014 0.52604568 -0.96200269 5.2584594e-39
1.3575827 0.55367863 -0.89733654 1.4108173e-38
1.3694736 0.58370042 -0.89461809 1.2169167e-38
1.3758703 0.5891425 -0.90999985 1.1155013e-38
1.3892406 0.61357802 -0.90794313 1.0048658e-38
1.5694702 0.41261467 -0.91600031 1.3737911e-38
1.5964838 0.41513026 -0.93722433 1.6589469e-38
1.5537307 0.42584953 -0.90503329 1.3003618e-38
1.5655893 0.43676314 -0.92195588 1.1897638e-38
1.5692375 0.46527904 -0.92282784 8.4849575e-39
1.3940934 0.50131643 -0.87391597 1.208386e-38
1.420486 0.49067783 -0.88295192 8.8526722e-39
1.571715 0.49333453 -0.9209739 6.9169143e-39
1.3664583 0.52767527 -0.86814725 1.4847916e-38
1.3820751 0.51522934 -0.88162488 1.4201845e-38
1.5835662 0.51580179 -0.93326092 6.18078e-39
1.593733 0.52458638 -0.92994958 5.2602642e-39
1.3529525 0.55590212 -0.85462523 1.4294381e-38
1.357133 0.5557766 -0.86631876 1.4016348e-38
1.3649729 0.58423525 -0.86837608 1.1985501e-38
1.3748264 0.60301358 -0.87059718 1.0970973e-38
1.3853419 0.6142503 -0.8746565 1.0324158e-38
1.5589871 0.41429329 -0.88490707 1.3647921e-38
1.5655713 0.40463609 -0.89531225 1.6222865e-38
1.5588168 0.43167579 -0.88555938 1.0514332e-38
1.5674592 0.44442022 -0.8940196 9.4998269e-39
1.4186465 0.47735533 -0.84580505 6.3586889e-39
1.5608433 0.46398529 -0.87779897 8.6693516e-39
1.5683753 0.46745199 -0.89407235 8.208372e-39
1.3881143 0.5072183 -0.83079869 1.3006544e-38
1.4037741 0.49893788 -0.84720129 1.2175699e-38
1.4273543 0.48771891 -0.85625863 9.5934715e-39
1.5704902 0.49611282 -0.88983393 6.5495709e-39
1.3602588 0.53444958 -0.82664919 1.5401091e-38
1.371025 0.52336514 -0.84083164 1.4202558e-38
1.5814359 0.51864034 -0.89244384 5.5368567e-39
1.3572814 0.55367512 -0.83126557 1.3740121e-38
1.3620987 0.55882859 -0.84730625 1.3924507e-38
1.3593161 0.57548922 -0.83025897 1.2449014e-38
1.3654289 0.58673197 -0.84009451 1.2355008e-38
1.3815248 0.6095441 -0.84063935 1.087878e-38
1.4026666 0.62676877 -0.84433347 9.8653458e-39
1.4143451 0.64060915 -0.84195977 1.1790272e-38
1.5591753 0.40802288 -0.85508674 1.3370593e-38
1.5714909 0.40250644 -0.87264621 1.6500533e-38
1.5557258 0.43550482 -0.85423857 9.9604435e-39
1.426186 0.47815776 -0.82748961 7.1859286e-39
1.5569038 0.46452248 -0.85405058 8.3924017e-39
1.3919637 0.50296342 -0.80850327 1.2914353e-38
1.4121858 0.49025059 -0.81993586 1.1347016e-38
1.5654154 0.48632663 -0.855205 6.7339594e-39
1.5732847 0.49976104 -0.86577773 6.456648e-39
1.3656324 0.53388989 -0.80607325 1.4664612e-38
1.3756675 0.51942819 -0.8108654 1.3927413e-38
1.585095 0.51684266 -0.8650772 5.9056463e-39
1.6170781 0.53088439 -0.87617743 5.9992852e-39
1.3598368 0.55462319 -0.80452168 1.4386581e-38
1.3616729 0.5819903 -0.80377471 1.2448293e-38
1.369107 0.59405994 -0.82047105 1.1617082e-38
1.3805195 0.61022323 -0.80699331 1.1246128e-38
1.4002775 0.6275624 -0.81885338 1.0142638e-38
1.4047441 0.63830405 -0.81461167 9.031625e-39
1.5501813 0.38815412 -0.81573009 1.7143379e-38
1.549654 0.41110948 -0.81774914 1.2172081e-38
1.5572835 0.40093794 -0.82415283 1.4476589e-38
1.547757 0.4375535 -0.81445974 1.0145213e-38
1.5558516 0.43232039 -0.82963592 1.0421796e-38
1.4346951 0.47755593 -0.78699344 7.8323994e-39
1.5500231 0.45702019 -0.8163358 8.0250555e-39
1.5564283 0.46707341 -0.82742769 7.9314236e-39
1.3944885 0.50127536 -0.78284389 1.272996e-38
1.4165843 0.48645481 -0.79031217 1.134738e-38
1.5640783 0.49684125 -0.82621431 6.7339664e-39
1.3726627 0.53033918 -0.77618575 1.4203633e-38
1.3801551 0.51848978 -0.78142607 1.3835215e-38
1.5722007 0.51483303 -0.83431178 5.5382903e-39
1.3612993 0.55351377 -0.77381754 1.4109995e-38
1.3647764 0.58580798 -0.77637386 1.2356096e-38
1.3739688 0.60587281 -0.77019584 1.1340113e-38
1.3822891 0.61842734 -0.78007072 1.0602185e-38
1.3969978 0.64055777 -0.78016168 8.8472324e-39
1.4059438 0.65119267 -0.79023153 1.1702018e-38
1.5588821 0.38815412 -0.7824145 1.5123413e-38
1.5743524 0.38329962 -0.79611015 1.704792e-38
1.5876352 0.38333946 -0.8108297 1.9445687e-38
1.54932 0.40590909 -0.79088724 1.2820331e-38
1.5635279 0.39177522 -0.80024314 1.4940458e-38
1.5461241 0.43567714 -0.79169065 9.7767879e-39
1.4371257 0.47857857 -0.76581389 9.3125896e-39
1.5480362 0.46435267 -0.79404223 7.7477638e-39
1.3813696 0.50766706 -0.74581516 1.2822151e-38
1.3957565 0.49654576 -0.7536869 1.273032e-38
1.425348 0.48495415 -0.75867236 1.1440297e-38
1.4524482 0.48026419 -0.75463295 7.7420409e-39
1.5490149 0.4925262 -0.79249424 6.6417778e-39
1.3726561 0.52584207 -0.74629223 1.374302e-38
1.3551377 0.56017673 -0.74336421 1.3831964e-38
1.3625647 0.55367166 -0.74361891 1.3925956e-38
1.3565278 0.57484585 -0.73804182 1.3186219e-38
1.3633554 0.58764362 -0.74405354 1.2078419e-38
1.3767844 0.61412036 -0.74516779 1.0695115e-38
1.3856809 0.62685502 -0.75700939 1.0143356e-38
1.3835919 0.63238531 -0.73730636 9.8664304e-39
1.3902675 0.63885093 -0.75329936 9.3114559e-39
1.5614464 0.38546053 -0.76204294 1.4664612e-38
1.573859 0.37870541 -0.76772046 1.5946645e-38
1.5455024 0.40595424 -0.76065326 1.2728864e-38
1.5333821 0.44817981 -0.74945921 7.4733461e-39
1.5440491 0.43504769 -0.76144791 9.3161671e-39
1.5113851 0.47805873 -0.7387079 7.3796931e-39
1.5310655 0.4659439 -0.74928385 7.28715e-39
1.5408279 0.46364409 -0.76198101 7.4718972e-39
1.3868831 0.50662673 -0.71995538 1.3283134e-38
1.4056054 0.49643511 -0.72333753 1.263849e-38
1.4351158 0.48535463 -0.73110873 1.1163355e-38
1.4648052 0.4838483 -0.74161559 8.1104282e-39
1.506956 0.48594677 -0.73983639 6.3673671e-39
1.5266187 0.49151647 -0.75952637 7.1038391e-39
1.5399528 0.48713249 -0.77020603 6.5503122e-39
1.3642598 0.53255755 -0.70843607 1.4110366e-38
1.3729696 0.51963663 -0.71609944 1.4019253e-38
1.3594574 0.55582863 -0.71067923 1.3279869e-38
1.3663538 0.54897618 -0.72812027 1.3740484e-38
1.3614604 0.58544928 -0.71171576 1.1617445e-38
1.3663538 0.57476699 -0.72812027 1.3000744e-38
1.3740331 0.61461478 -0.71472663 1.0327053e-38
1.3866421 0.63990641 -0.71738279 1.0140138e-38
1.3913634 0.64372104 -0.73525113 8.7608115e-39
1.5611439 0.37885231 -0.73180544 1.5214161e-38
1.5782382 0.36817431 -0.74391681 1.7230475e-38
1.5350386 0.40783438 -0.72623122 1.2360801e-38
1.5480428 0.39455277 -0.7338869 1.3834853e-38
1.534418 0.4355199 -0.72438765 9.2243358e-39
1.5438322 0.43798533 -0.74110579 8.9484608e-39
1.5085576 0.47232828 -0.71643525 7.8428503e-39
1.5322585 0.4620415 -0.72940874 7.5641054e-39
1.3923289 0.50415015 -0.68550432 1.3466084e-38
1.4108815 0.49464095 -0.69437355 1.2915434e-38
1.4426903 0.48493737 -0.70196444 1.1256266e-38
1.4728425 0.48183239 -0.71018165 5.427065e-39
1.499994 0.48317504 -0.72137946 6.000367e-39
1.3660338 0.53497458 -0.6813907 1.5586556e-38
1.380291 0.51944911 -0.68643874 1.4481304e-38
1.354161 0.554124 -0.68013096 1.5586192e-38
1.3564632 0.58210468 -0.67978746 1.2724868e-38
1.3703557 0.61110348 -0.67990077 1.1248647e-38
1.3757802 0.62312478 -0.69202632 1.0050108e-38
1.3820438 0.6378535 -0.68598235 1.0233774e-38
1.5399411 0.38579607 -0.69268543 1.4572778e-38
1.5661209 0.3717607 -0.70531607 1.5306348e-38
1.5325935 0.40647969 -0.6961956 1.2176048e-38
1.482602 0.44707522 -0.66687614 8.7662583e-39
1.5225605 0.44293579 -0.6868155 8.3023893e-39
1.5304332 0.43401244 -0.69743067 9.0403047e-39
1.4561594 0.47864401 -0.66852939 1.0059866e-38
1.4928006 0.46150324 -0.67963165 7.8414056e-39
1.506889 0.46746123 -0.69359326 6.8283326e-39
1.395223 0.50506592 -0.6608479 1.3191654e-38
1.4181174 0.4928152 -0.66578823 1.2916153e-38
1.4407877 0.48334312 -0.67220372 1.1902357e-38
1.4702079 0.48026419 -0.6866312 6.2701072e-39
1.5088797 0.48639631 -0.6981734 2.3045881e-39
1.3731632 0.53422916 -0.65401793 1.5586915e-38
1.3862633 0.51749367 -0.65563637 1.45735e-38
1.3608382 0.55434871 -0.65030247 1.6784361e-38
1.3654367 0.58351326 -0.65248275 1.4476226e-38
1.3749832 0.6147362 -0.65408033 1.1710343e-38
1.3780731 0.63480586 -0.65554464 1.0511805e-38
1.3870113 0.64270836 -0.65377218 1.078731e-38
1.5740376 0.35970643 -0.66106564 1.5217785e-38
1.5335572 0.38728809 -0.65381044 1.420544e-38
1.5421603 0.38149551 -0.66730183 1.4574576e-38
1.5691351 0.36752483 -0.67439598 1.5033019e-38
1.6023767 0.36040735 -0.68315065 1.6031954e-38
1.5288825 0.40480807 -0.66157788 1.1807985e-38
1.4746263 0.44171283 -0.64201021 8.6718865e-39
1.4822797 0.43767852 -0.65148872 8.6715362e-39
1.5271864 0.43089357 -0.66286939 8.5800524e-39
1.5356191 0.43173212 -0.67757422 8.7644325e-39
1.4668742 0.47249418 -0.64346391 7.9364683e-39
1.4830309 0.46615222 -0.65618843 5.6276188e-39
1.4085518 0.50023633 -0.63085175 1.3375329e-38
1.4242045 0.48724732 -0.63720417 1.1902004e-38
1.4483197 0.48174387 -0.6390543 1.0610184e-38
1.3819672 0.52915657 -0.62506056 1.5863856e-38
1.3956639 0.51288533 -0.62668478 1.4666051e-38
1.3688521 0.55394787 -0.62205267 1.7243535e-38
1.377647 0.58589095 -0.62367946 1.3923052e-38
1.3857183 0.61335224 -0.62627149 1.3002888e-38
1.398546 0.64192051 -0.6287812 1.1156087e-38
1.4090463 0.66036695 -0.63984144 1.2808726e-38
1.380226 0.7414605 -0.6215772 1.6487505e-38
1.3900944 0.74056518 -0.63721699 1.7592419e-38
1.3798032 0.75684655 -0.61895645 1.150968e-38
1.3970346 0.76571012 -0.63438708 1.5281387e-38
1.6522067 0.25712186 -0.65517038 1.6029089e-38
1.661659 0.26736513 -0.66985887 1.593689e-38
1.6565222 0.27249908 -0.65391123 1.5288986e-38
1.6633068 0.27714679 -0.66354942 1.5751038e-38
1.5808793 0.35681877 -0.64542156 1.5671505e-38
1.5361297 0.38248596 -0.63109833 1.5128818e-38
1.5516629 0.37074095 -0.63806063 1.5035188e-38
1.5687727 0.36395964 -0.64560795 1.5402529e-38
1.5239305 0.40535885 -0.63079309 1.1161537e-38
1.4675326 0.43699431 -0.6148771 8.9481119e-39
1.4956453 0.42589355 -0.62286925 9.2261491e-39
1.5202227 0.426047 -0.63205153 9.042111e-39
1.4490782 0.46257547 -0.59736699 8.7633521e-39
1.4609822 0.46464217 -0.61774272 6.5499213e-39
1.4093374 0.50277799 -0.60113066 1.3745543e-38
1.4374125 0.49189204 -0.60618424 1.0517618e-38
1.4531748 0.48510391 -0.61215234 7.3807932e-39
1.387392 0.53037149 -0.59526992 1.567875e-38
1.4001474 0.51528209 -0.60109884 1.4573856e-38
1.3759829 0.55381054 -0.59218502 1.6505976e-38
1.3795259 0.58229566 -0.59237933 1.4753533e-38
1.3924944 0.61022502 -0.59663153 1.2817056e-38
1.39987 0.62450641 -0.59978616 1.2356437e-38
1.4066238 0.64067012 -0.59904635 1.1985858e-38
1.362258 0.74292111 -0.58946264 1.5010265e-38
1.3837976 0.74044627 -0.59048879 1.3911096e-38
1.4005682 0.74609178 -0.59711254 1.4829135e-38
1.3649787 0.75907159 -0.57904506 1.5748201e-38
1.3718152 0.7633763 -0.58964819 1.2614971e-38
1.4012665 0.75161839 -0.59443891 1.7043632e-38
1.3649787 0.78060549 -0.57904506 1.3076652e-38
1.369651 0.78560001 -0.58490008 1.2983749e-38
1.6556565 0.23649244 -0.62873226 1.593906e-38
1.6571161 0.25202879 -0.63637209 1.7134001e-38
1.6771927 0.26281711 -0.63412535 1.2889767e-38
1.6517451 0.27865762 -0.63183761 1.5104989e-38
1.6901422 0.27007338 -0.63203049 8.9084691e-39
1.5786234 0.35295844 -0.61382473 1.4290374e-38
1.5351915 0.37964323 -0.60222185 1.4575293e-38
1.558673 0.36448348 -0.61040741 1.5034828e-38
1.4857939 0.41878897 -0.58342022 1.1070782e-38
1.5138173 0.41588357 -0.59412193 9.5949358e-39
1.5229994 0.40292767 -0.60321432 1.0978222e-38
1.4522773 0.4398852 -0.57720184 1.0425048e-38
1.4673642 0.42711192 -0.5864774 9.7789655e-39
1.4964201 0.42262018 -0.600115 1.0794557e-38
1.4487909 0.46344304 -0.5784077 9.1314241e-39
1.4237715 0.50566643 -0.57396013 1.2545558e-38
1.4391515 0.49114701 -0.5777564 8.6733396e-39
1.391432 0.52697092 -0.56561041 1.4850077e-38
1.4120275 0.51383048 -0.56774598 1.4113961e-38
1.3837503 0.55386573 -0.56409329 1.5401069e-38
1.384011 0.58396661 -0.56334734 1.4292916e-38
1.3984145 0.61447328 -0.56745195 1.2446828e-38
1.4168431 0.64325333 -0.56947094 1.1616348e-38
1.4304304 0.65777612 -0.5856629 1.3095072e-38
1.4246017 0.66036695 -0.58027959 1.2630454e-38
1.3717804 0.74830455 -0.55300117 1.2622164e-38
1.390581 0.73883301 -0.56496793 1.3171027e-38
1.3691672 0.76435769 -0.5580079 1.4275207e-38
1.3787216 0.75836086 -0.56546944 1.3814241e-38
1.3702841 0.78275889 -0.55873078 1.2984461e-38
1.3764805 0.79280734 -0.55874968 1.372058e-38
1.6621176 0.23620366 -0.61467761 1.6398586e-38
1.6653148 0.25963461 -0.60441422 1.3909692e-38
1.6804216 0.25093451 -0.60988897 1.5290113e-38
1.6543993 0.28042573 -0.6033774 1.5659621e-38
1.5711615 0.35479143 -0.58105618 1.2267865e-38
1.5870335 0.34911987 -0.58689928 7.2795606e-39
1.6203816 0.35244036 -0.58254933 5.4237495e-39
1.5242321 0.38594496 -0.56683528 1.2454804e-38
1.5410503 0.37341452 -0.57334203 1.2454085e-38
1.5624298 0.36266971 -0.59074587 1.4482379e-38
1.4846466 0.41513854 -0.55516398 9.3190706e-39
1.5160279 0.40158662 -0.56823891 1.0056274e-38
1.4528226 0.43688536 -0.54955643 1.0794554e-38
1.4690945 0.4241688 -0.55634135 9.6856699e-39
1.4461757 0.46491835 -0.54639083 8.7633731e-39
1.4259052 0.50324333 -0.54193282 1.0056636e-38
1.4407578 0.48952645 -0.54757631 1.0333578e-38
1.3996677 0.52710533 -0.53599817 1.2268613e-38
1.4148928 0.51309907 -0.54819989 1.0703454e-38
1.3914299 0.5545094 -0.53474945 1.3186946e-38
1.3921064 0.5839715 -0.53569722 1.2815976e-38
1.405473 0.61332285 -0.53619713 1.2079483e-38
1.4230865 0.64219868 -0.54311419 1.1246837e-38
1.4335577 0.66036695 -0.54598635 1.2449702e-38
1.3913039 0.71788627 -0.53760737 1.5569156e-38
1.3929186 0.73629308 -0.53431225 1.4277735e-38
1.3759749 0.76339108 -0.53318959 1.602478e-38
1.3847672 0.76302212 -0.52864796 1.5471598e-38
1.3763484 0.78289545 -0.53254241 1.5009889e-38
1.3853574 0.7897321 -0.52871746 1.5287183e-38
1.6688823 0.2561914 -0.57492566 1.8427997e-38
1.6873448 0.24515229 -0.58931637 1.7688599e-38
1.6710888 0.28249159 -0.57778257 1.6302832e-38
1.6880239 0.29344955 -0.56890726 1.5761145e-38
1.5720592 0.35809451 -0.55387521 1.2267167e-38
1.5984707 0.35549265 -0.56157422 1.125189e-38
1.5277467 0.38209933 -0.53896111 1.0240308e-38
1.5476393 0.36896768 -0.54448545 1.1900168e-38
1.5755218 0.36266974 -0.54061627 1.2913971e-38
1.4959264 0.41074228 -0.52833742 9.0435627e-39
1.5166172 0.39582634 -0.54058927 9.7807732e-39
1.4611396 0.43742669 -0.52474076 1.1162613e-38
1.4786357 0.42935213 -0.5182845 9.9622694e-39
1.4415712 0.47288993 -0.51530296 8.5811258e-39
1.4558131 0.46351811 -0.51925325 9.685328e-39
1.4385737 0.49672076 -0.51315063 9.4105305e-39
1.4471227 0.48489907 -0.52174795 1.0516885e-38
1.4095917 0.52925867 -0.50802338 1.1807271e-38
1.4256079 0.51407701 -0.51169497 1.0518689e-38
1.4006522 0.55447799 -0.50576943 1.2358246e-38
1.4005406 0.58348298 -0.50575715 1.2264243e-38
1.4116927 0.61411268 -0.50752306 1.3369137e-38
1.4316357 0.64284706 -0.51606184 1.2078756e-38
1.4510294 0.65777612 -0.50678915 1.1893993e-38
1.406226 0.717255 -0.5200448 1.6122697e-38
1.4088404 0.73963684 -0.50977069 1.5661748e-38
1.3958212 0.76295233 -0.50405586 1.7132541e-38
1.3978431 0.78795922 -0.50539517 1.5655961e-38
1.6725563 0.23883668 -0.55689901 1.6974838e-38
1.6819338 0.25627887 -0.55660969 1.8520921e-38
1.696997 0.25953528 -0.54981381 1.7504587e-38
1.6824911 0.2862936 -0.55193126 1.6858872e-38
1.6954744 0.28446203 -0.54394156 1.676739e-38
1.6913195 0.30649173 -0.5562883 1.6224682e-38
1.5954368 0.35608807 -0.51185077 1.3663003e-38
1.5991689 0.35779083 -0.52921993 1.2457646e-38
1.5325102 0.38410681 -0.51579118 1.1440275e-38
1.5555298 0.3752979 -0.51405251 1.1163691e-38
1.5851058 0.36506084 -0.51974887 1.1162973e-38
1.4662223 0.41793028 -0.47631824 5.727701e-39
1.5096617 0.41043702 -0.50522155 8.2127048e-39
1.5217699 0.39981771 -0.50440568 8.1190757e-39
1.4473456 0.44641837 -0.4760434 6.4623625e-39
1.4698682 0.435559 -0.48544267 8.5764553e-39
1.4918169 0.43245775 -0.50209522 9.5952875e-39
1.5190469 0.42364767 -0.49962646 6.7361342e-39
1.425058 0.46978897 -0.46871281 7.287852e-39
1.4333862 0.45594496 -0.47145206 6.5433996e-39
1.4699851 0.46510154 -0.49804285 9.5030835e-39
1.481166 0.45225686 -0.50220412 9.2174751e-39
1.4267237 0.50608438 -0.46926066 6.7357741e-39
1.441685 0.49764004 -0.48536673 8.2127048e-39
1.4561476 0.48583525 -0.49550182 9.133257e-39
1.4213226 0.52798593 -0.47770986 9.2243288e-39
1.4316485 0.51571769 -0.48673978 7.7506449e-39
1.4145762 0.55551028 -0.4796775 1.1067884e-38
1.4319897 0.55818719 -0.47679931 1.3838023e-38
1.4102473 0.58520967 -0.47880724 1.2631948e-38
1.4207579 0.61483407 -0.47979245 1.1895092e-38
1.432688 0.62450641 -0.47412568 1.2541532e-38
1.4394183 0.64071804 -0.48364186 1.0418873e-38
1.4145166 0.74511224 -0.48038459 1.5016728e-38
1.432688 0.74609178 -0.47412568 1.6493635e-38
1.4083302 0.76357347 -0.47720349 1.5197881e-38
1.4073868 0.78641826 -0.47338668 1.3536898e-38
1.7062182 0.26390213 -0.52298617 1.5017112e-38
1.7073793 0.28484038 -0.52373356 1.4280631e-38
1.7089945 0.30148992 -0.52422792 5.7154564e-39
1.5977639 0.35608807 -0.50294048 1.3662289e-38
1.5068494 0.38313431 -0.46282831 6.5528065e-39
1.5330056 0.37949175 -0.47486952 9.880449e-39
1.5667784 0.37818903 -0.48957592 1.1531045e-38
1.590066 0.36571643 -0.49500033 1.1346295e-38
1.4576567 0.41762611 -0.45371056 9.2250925e-39
1.4754953 0.40825588 -0.46081755 7.5651928e-39
1.5002593 0.39878407 -0.47328699 8.0283178e-39
1.5344461 0.39338228 -0.48815206 1.0336091e-38
1.5506159 0.3938202 -0.4974713 9.7857927e-39
1.4450576 0.43621403 -0.45446569 9.1339577e-39
1.4595531 0.42446238 -0.4741517 6.0954101e-39
1.4282519 0.4643105 -0.4487451 9.7796816e-39
1.4347827 0.45594496 -0.46610478 3.5964199e-39
1.418384 0.49314862 -0.44765198 9.3176259e-39
1.4022521 0.53404182 -0.43632451 9.9622708e-39
1.4104695 0.52251703 -0.44793436 8.3949353e-39
1.3974948 0.55305594 -0.43475413 9.039946e-39
1.4108734 0.55420607 -0.45306328 7.9307019e-39
1.4027963 0.58464664 -0.43424097 7.3771778e-39
1.4153358 0.58566576 -0.45098448 9.2210764e-39
1.4215062 0.61328369 -0.44892192 9.4054494e-39
1.435481 0.62450641 -0.46343115 1.1157161e-38
1.4323665 0.63894677 -0.43841964 8.112917e-39
1.4483457 0.64547825 -0.4581688 1.041778e-38
1.4609737 0.65777612 -0.46871215 1.0681091e-38
1.4195805 0.74299067 -0.44671407 1.2990941e-38
1.4143927 0.76531196 -0.44883886 1.4092246e-38
1.4234772 0.78655303 -0.45172822 1.2526346e-38
1.7127298 0.26582676 -0.5028016 1.4001888e-38
1.7016073 0.27574313 -0.4812794 1.5115061e-38
1.7111851 0.28684321 -0.496984 1.2808032e-38
1.7175525 0.30859295 -0.49145851 1.1977182e-38
1.547035 0.35680461 -0.44984183 1.1715079e-38
1.5710027 0.34906462 -0.45304754 1.263342e-38
1.6101748 0.34380916 -0.4554188 1.4392678e-38
1.6222034 0.34019268 -0.45882952 1.6313303e-38
1.5143306 0.37796146 -0.44355848 1.1625762e-38
1.5329909 0.3643682 -0.45085028 1.0884244e-38
1.5581548 0.36398533 -0.46860462 1.2827507e-38
1.482699 0.41236746 -0.43723568 1.190308e-38
1.5020506 0.40098128 -0.43608665 1.2178937e-38
1.4514233 0.43641636 -0.42472035 1.1718329e-38
1.4707149 0.42325762 -0.43141219 1.2087474e-38
1.4349449 0.46584076 -0.42147827 1.1716876e-38
1.4476306 0.45539227 -0.41691005 1.227149e-38
1.4334927 0.49632815 -0.4214544 1.1623593e-38
1.4044287 0.53834862 -0.42799044 1.1529973e-38
1.4290483 0.52601624 -0.42157736 1.2084928e-38
1.4029055 0.55543995 -0.42115927 1.1623233e-38
1.4270847 0.55337638 -0.41398191 1.2360795e-38
1.4061104 0.58286351 -0.41745651 1.1069327e-38
1.417897 0.58334309 -0.40478185 1.2084204e-38
1.4051088 0.60295045 -0.42538604 9.0392173e-39
1.4179608 0.61586732 -0.41620609 1.116007e-38
1.4262398 0.64366686 -0.41678834 1.0419974e-38
1.4377897 0.67033601 -0.41457626 1.1706007e-38
1.4487478 0.6852991 -0.41263226 1.2165878e-38
1.4326338 0.74504399 -0.42242107 1.1239243e-38
1.4462835 0.73843437 -0.42470717 1.3917876e-38
1.4262637 0.76228416 -0.41957557 1.354124e-38
1.4385771 0.78418523 -0.41925699 1.2525638e-38
1.7061743 0.27898717 -0.463792 1.419131e-38
1.7150069 0.29100415 -0.46558967 1.2808742e-38
1.7245654 0.31468806 -0.46658376 1.1331449e-38
1.5587406 0.3562569 -0.43470198 1.3007624e-38
1.5775011 0.35036722 -0.42874786 1.2548443e-38
1.6099321 0.34271312 -0.43524149 1.3746622e-38
1.6217713 0.3408266 -0.44267502 1.4482022e-38
1.726384 0.33426055 -0.45764288 1.3738962e-38
1.529388 0.3839367 -0.41748679 1.1994557e-38
1.5517787 0.37498975 -0.42488226 1.1717965e-38
1.571348 0.36846054 -0.41808799 1.1163705e-38
1.4714698 0.41812581 -0.40082037 1.1441738e-38
1.4882421 0.40743503 -0.40446836 1.1164076e-38
1.5183218 0.39651123 -0.4178125 1.1074404e-38
1.5397662 0.39241099 -0.42029107 1.1534308e-38
1.463025 0.43588051 -0.3999424 1.2086013e-38
1.4453708 0.47450829 -0.39508995 1.180871e-38
1.4553872 0.46139953 -0.39620468 1.2178209e-38
1.4438941 0.49773762 -0.39499208 1.190126e-38
1.4538684 0.49002573 -0.39302564 1.2270396e-38
1.4386059 0.52580595 -0.39168131 1.033285e-38
1.4420216 0.55562001 -0.39386639 1.0609067e-38
1.4346459 0.5843538 -0.39190316 1.1807614e-38
1.4321439 0.61287743 -0.39092633 1.1621045e-38
1.443151 0.64492053 -0.40042418 1.1620684e-38
1.4578879 0.64612544 -0.39166558 1.0790924e-38
1.4444147 0.67111188 -0.401521 1.1711074e-38
1.4568188 0.67539233 -0.39190361 1.1619962e-38
1.4625542 0.69374758 -0.39459315 1.1435554e-38
1.4429815 0.73981369 -0.39711592 1.0226183e-38
1.4554164 0.73459822 -0.39105564 1.0412724e-38
1.4413418 0.76267439 -0.39319712 1.4001497e-38
1.4439741 0.78296232 -0.39628208 1.280078e-38
1.7106243 0.28547525 -0.44675305 1.5207261e-38
1.7264472 0.28815973 -0.43704906 1.3175356e-38
1.6171427 0.32994494 -0.39707893 1.53931e-38
1.7171822 0.30818349 -0.42164296 1.2994214e-38
1.7257756 0.31677452 -0.43935332 1.096556e-38
1.593181 0.35371852 -0.41250721 1.1626124e-38
1.6086644 0.34545943 -0.40346923 1.1993467e-38
1.7274239 0.33696225 -0.43387479 1.0225091e-38
1.5083619 0.3875376 -0.37036848 1.098003e-38
1.5214562 0.38094798 -0.3814756 1.1718688e-38
1.5590694 0.37702221 -0.394308 1.2088918e-38
1.5854906 0.36927125 -0.40164715 1.0980767e-38
1.6093726 0.36484402 -0.39517102 1.0149203e-38
1.4779509 0.41649979 -0.36175796 9.5963707e-39
1.4954507 0.40375194 -0.37662482 1.1256615e-38
1.455914 0.44557431 -0.35749027 9.044276e-39
1.4695239 0.43474767 -0.36981055 1.0242107e-38
1.4837036 0.42165136 -0.381679 1.2269331e-38
1.45225 0.46530932 -0.36396655 9.6889237e-39
1.4635233 0.45505595 -0.38079122 1.0425069e-38
1.4494625 0.49553326 -0.36438614 1.051724e-38
1.4443547 0.52599007 -0.36346096 1.0978581e-38
1.4438379 0.55666119 -0.36249682 1.0148812e-38
1.4480048 0.58626139 -0.3640312 9.6863916e-39
1.449886 0.61461931 -0.36446008 1.0976405e-38
1.4634111 0.61897981 -0.35648608 1.0144852e-38
1.455914 0.63260549 -0.35749027 1.1251542e-38
1.4709998 0.64586341 -0.37165889 1.0789474e-38
1.4763147 0.67379493 -0.37144735 1.0329581e-38
1.4872552 0.66620916 -0.36808008 9.1321164e-39
1.4746844 0.69468617 -0.37070435 1.1897259e-38
1.4893861 0.71399635 -0.35992074 1.2535397e-38
1.452188 0.74005646 -0.36384344 1.2437791e-38
1.4685595 0.72896767 -0.36969125 1.0688227e-38
1.4897581 0.72446233 -0.36772996 1.2442807e-38
1.447713 0.76187766 -0.36348891 1.372383e-38
1.451049 0.78113025 -0.37611866 1.2986229e-38
1.7209998 0.2955589 -0.39990211 1.4650121e-38
1.7331213 0.29317936 -0.40958524 1.4280621e-38
1.7217622 0.31412584 -0.40014839 1.3084979e-38
1.7281206 0.32388136 -0.41537669 1.133291e-38
1.6278061 0.3484976 -0.38368773 1.125733e-38
1.6404767 0.34853762 -0.37105164 1.1165511e-38
1.7244425 0.34108728 -0.39384249 1.0043969e-38
1.7309464 0.34438276 -0.41003728 9.8574102e-39
1.5052592 0.38567281 -0.34531203 1.1072234e-38
1.5346428 0.37427732 -0.35246706 1.2087467e-38
1.5588163 0.36560979 -0.35658228 1.3193092e-38
1.5971665 0.37011194 -0.37463236 1.264208e-38
1.6212562 0.36491647 -0.3786895 1.0518703e-38
1.7404613 0.36047706 -0.4037407 1.2263095e-38
1.4806948 0.4124063 -0.34062225 1.1162979e-38
1.4946827 0.39980832 -0.34452775 1.0980027e-38
1.4628642 0.44282383 -0.33087826 1.1347016e-38
1.4698837 0.43265629 -0.33901078 1.1256972e-38
1.454712 0.46558911 -0.33340248 1.0886745e-38
1.4512707 0.49603179 -0.33200234 1.0424675e-38
1.4579426 0.52741086 -0.33496007 1.134628e-38
1.4543706 0.55621743 -0.33243963 1.106933e-38
1.4497559 0.58316487 -0.33226207 1.0976407e-38
1.4609042 0.60990798 -0.33607396 9.9626099e-39
1.4679886 0.62205017 -0.33895895 1.0055159e-38
1.4609528 0.63604355 -0.33819652 1.0053731e-38
1.4718156 0.64268732 -0.33533001 1.0147356e-38
1.4844664 0.67529052 -0.35105658 9.9597162e-39
1.4976814 0.67793518 -0.342823 9.1306702e-39
1.4868233 0.70513761 -0.34203205 1.0600013e-38
1.4980552 0.70790875 -0.34416923 1.1615608e-38
1.4582505 0.73715669 -0.33546779 1.289769e-38
1.4781719 0.72500288 -0.3391009 1.0963748e-38
1.4509906 0.76122653 -0.33209136 1.2986618e-38
1.4518824 0.78295773 -0.34522578 1.4278037e-38
1.7176486 0.29118019 -0.36999291 1.1794201e-38
1.7374581 0.29997063 -0.379623 1.4926358e-38
1.723609 0.32329175 -0.37329048 1.2717996e-38
1.7382822 0.30975229 -0.37646833 1.4649062e-38
1.5668775 0.35805321 -0.33033252 1.3101615e-38
1.6536427 0.35198188 -0.35532549 1.033285e-38
1.728056 0.34533238 -0.37237421 1.0229079e-38
1.5104852 0.38775519 -0.31690788 9.8726045e-39
1.5399348 0.37567449 -0.32466754 1.1533205e-38
1.5644271 0.36586425 -0.3298215 1.2455874e-38
1.6033133 0.36655962 -0.34120229 1.2919379e-38
1.6334015 0.36748624 -0.35065317 1.1624338e-38
1.645153 0.36627293 -0.35314575 1.0610901e-38
1.7446017 0.36047706 -0.38788715 1.0125013e-38
1.4841574 0.40638876 -0.30927464 8.6736914e-39
1.5016066 0.39517158 -0.31659108 9.1350423e-39
1.4680642 0.43880442 -0.30950999 9.4108879e-39
1.4768492 0.42748374 -0.30635259 8.3971003e-39
1.4599069 0.46423972 -0.303947 9.2254106e-39
1.4521549 0.4950493 -0.30125833 8.3956373e-39
1.4562184 0.52532947 -0.30359763 8.2090923e-39
1.4541932 0.55400538 -0.30207825 9.1317618e-39
1.4597716 0.58535331 -0.30399343 9.6842125e-39
1.4677138 0.61058456 -0.30647784 1.0052279e-38
1.4758401 0.62450641 -0.3088955 9.8682395e-39
1.48124 0.64338481 -0.30945733 9.8696856e-39
1.491776 0.66439122 -0.30882156 1.023955e-38
1.5042759 0.67926425 -0.31906685 8.0225108e-39
1.4849458 0.7168178 -0.30941346 1.1057021e-38
1.5096778 0.70490873 -0.3173148 1.078585e-38
1.4596004 0.73729515 -0.30479005 1.3173904e-38
1.4768645 0.72553146 -0.307612 1.2253764e-38
1.4590889 0.76430637 -0.30263498 1.3353958e-38
1.4718993 0.78113025 -0.29628265 1.3440023e-38
1.7297792 0.29723597 -0.34491518 1.3452674e-38
1.7424015 0.29344955 -0.36069459 9.0333949e-39
1.7320995 0.31593713 -0.34594157 1.4096959e-38
1.5757703 0.35805321 -0.29628193 1.1528174e-38
1.6621909 0.3575899 -0.32748333 1.1258057e-38
1.6887652 0.35873395 -0.32070786 1.1535695e-38
1.7290239 0.34574184 -0.3436518 1.1427977e-38
1.5002575 0.38614681 -0.29059225 9.6874748e-39
1.5195881 0.38026476 -0.28516975 9.3190608e-39
1.5462734 0.36968231 -0.29693329 1.0241013e-38
1.5741137 0.36421287 -0.30790159 9.8690172e-39
1.610036 0.36428133 -0.31084424 1.0610178e-38
1.6419778 0.36836699 -0.33364448 1.2267899e-38
1.6591122 0.36629236 -0.32344058 1.1256621e-38
1.7312764 0.36148256 -0.33205867 1.1144573e-38
1.4744262 0.41457161 -0.27165616 8.3059696e-39
1.4915007 0.4009105 -0.28150374 9.1339408e-39
1.4672637 0.43554834 -0.2733793 7.568406e-39
1.4808675 0.42278534 -0.28964537 1.079774e-38
1.4587559 0.46436304 -0.27152631 8.6707865e-39
1.4545319 0.495152 -0.27096885 9.3150685e-39
1.4469705 0.52758169 -0.26509774 6.82509e-39
1.453212 0.52293348 -0.27123791 8.6704123e-39
1.4531875 0.55321109 -0.27076718 7.8392237e-39
1.4607034 0.58283919 -0.27187511 8.0236052e-39
1.4742137 0.61058533 -0.27532879 8.5774894e-39
1.482264 0.62450641 -0.28429812 9.1285136e-39
1.492739 0.64358783 -0.28142715 8.8522841e-39
1.5027322 0.66176605 -0.28111649 8.8540847e-39
1.5198041 0.67950642 -0.28698042 8.2991019e-39
1.4926289 0.71307713 -0.27986783 1.1148497e-38
1.5228661 0.70637357 -0.29150221 1.0231222e-38
1.5362808 0.70071185 -0.29116863 8.8522785e-39
1.4722924 0.73585844 -0.27660325 1.363273e-38
1.4825433 0.72509062 -0.28322867 1.2529983e-38
1.4728997 0.76143837 -0.27662316 1.3906416e-38
1.4829623 0.7792514 -0.2816245 1.3170611e-38
1.4808675 0.78477806 -0.28964537 1.426801e-38
1.7329075 0.2969321 -0.32581311 1.1336104e-38
1.7522883 0.29997063 -0.32283771 9.4720658e-39
1.7373604 0.31775326 -0.31385148 1.4373184e-38
1.5886256 0.35797676 -0.28069797 1.0879907e-38
1.6094195 0.35801837 -0.27231139 1.2268926e-38
1.6664983 0.35970643 -0.30703196 1.1256937e-38
1.6911505 0.35873395 -0.31157383 1.1159678e-38
1.7357012 0.34773365 -0.31374693 1.216339e-38
1.5108634 0.38614681 -0.24998187 9.2250533e-39
1.5249521 0.37643507 -0.257597 9.7793159e-39
1.5583929 0.36387271 -0.26951656 1.1069337e-38
1.589123 0.36266056 -0.27483526 1.0796347e-38
1.6101733 0.36398533 -0.26942474 1.2178203e-38
1.6727949 0.36486608 -0.29649061 9.3169056e-39
1.7051044 0.36250368 -0.29969785 1.0231595e-38
1.4818486 0.4128491 -0.24917294 9.1335863e-39
1.5011321 0.39925954 -0.2514461 9.594919e-39
1.5149572 0.39354128 -0.26200846 4.2404693e-39
1.4673119 0.43376467 -0.24261323 8.6722368e-39
1.4517007 0.46836329 -0.24698533 9.872533e-39
1.4601258 0.46270856 -0.24087755 7.9328711e-39
1.4557817 0.48855138 -0.231359 1.0514307e-38
1.4595098 0.49541017 -0.24295798 8.1165323e-39
1.4532211 0.528359 -0.23984328 8.854805e-39
1.4589356 0.51784736 -0.2430269 8.4835043e-39
1.4529476 0.54373211 -0.24221063 8.1186833e-39
1.4594591 0.55676699 -0.24102196 8.5760671e-39
1.46176 0.58477247 -0.24186817 8.1161582e-39
1.4745477 0.61463809 -0.24548799 8.9444713e-39
1.5007976 0.64445543 -0.25360581 8.8515582e-39
1.5080352 0.67435777 -0.2608113 8.7582822e-39
1.5248719 0.67726302 -0.25694105 7.5608208e-39
1.5455389 0.68697244 -0.25571916 7.5672976e-39
1.4999367 0.70734137 -0.25099787 8.8493876e-39
1.5200446 0.69547582 -0.26099753 8.023217e-39
1.5429351 0.69498718 -0.26568931 6.1753528e-39
1.4811881 0.73277313 -0.24785565 1.2345236e-38
1.4816557 0.75875533 -0.25101042 1.390677e-38
1.4939016 0.76635599 -0.23973767 1.3536554e-38
1.7424954 0.32052454 -0.28465024 1.2717991e-38
1.5591056 0.35282755 -0.23378371 1.0704145e-38
1.6203682 0.3597798 -0.26204768 9.405881e-39
1.7207628 0.34957799 -0.26546475 7.6570073e-39
1.7341427 0.34574059 -0.28222874 1.0324889e-38
1.534435 0.37744367 -0.23082925 1.0055536e-38
1.5529655 0.36188444 -0.23189983 1.0054096e-38
1.6045018 0.36219451 -0.25948173 1.0606207e-38
1.6257881 0.36132112 -0.26899689 1.1352385e-38
1.6795228 0.36846972 -0.2663945 1.0419276e-38
1.7125925 0.36475679 -0.27696231 8.1165225e-39
1.7264756 0.36417249 -0.27920747 6.1822219e-39
1.4883442 0.41574642 -0.21352746 8.4893085e-39
1.5055513 0.40376821 -0.22500858 9.6874678e-39
1.5254341 0.39564955 -0.22189158 8.5789622e-39
1.4719316 0.43519822 -0.21406643 8.7640779e-39
1.4571083 0.46684608 -0.20990269 8.0257786e-39
1.4653947 0.45715126 -0.21829613 7.9335928e-39
1.4554006 0.49397278 -0.20907398 7.6548353e-39
1.4638985 0.50631565 -0.2240243 6.0882733e-39
1.4592867 0.52628249 -0.21160486 8.483154e-39
1.4661751 0.52703667 -0.21530747 6.4559474e-39
1.460518 0.55358434 -0.21037243 8.3931094e-39
1.4637847 0.56352389 -0.22446012 9.868224e-39
1.4618949 0.57789969 -0.20267469 8.2094314e-39
1.4668441 0.58548522 -0.21670237 8.207279e-39
1.4797802 0.6132139 -0.21517587 8.3902227e-39
1.4948345 0.63260549 -0.20846306 7.6548269e-39
1.5067484 0.64358038 -0.22220671 8.5760405e-39
1.5227706 0.65777612 -0.23209079 8.3902017e-39
1.4839566 0.67924589 -0.2055943 5.5354162e-39
1.5090672 0.6754303 -0.2169562 5.3492047e-39
1.5323497 0.67714107 -0.23234859 5.7183375e-39
1.4814521 0.70655537 -0.21150863 7.4700783e-39
1.5022784 0.700966 -0.2296758 7.0101749e-39
1.52135 0.69150823 -0.23753037 6.916522e-39
1.4792657 0.73254585 -0.21501777 9.2221442e-39
1.4906609 0.75629073 -0.22136517 9.8657045e-39
1.4962291 0.76819813 -0.23082559 1.1511905e-38
1.7191762 0.32249051 -0.23658341 1.0243175e-38
1.7488431 0.32000029 -0.25931659 8.8544547e-39
1.5755128 0.3506434 -0.20646606 9.5019989e-39
1.7028413 0.34746054 -0.23119278 7.5662522e-39
1.7146848 0.34517318 -0.2457993 7.3822225e-39
1.7329333 0.33222753 -0.25448084 8.4021281e-39
1.5271258 0.38614681 -0.18771264 7.6598772e-39
1.5402814 0.37761894 -0.20095313 8.4882183e-39
1.5606581 0.3640084 -0.20613788 9.6878307e-39
1.6973044 0.36937249 -0.2523936 9.0510793e-39
1.7110329 0.3649002 -0.24494189 6.639247e-39
1.4914527 0.41261896 -0.18820421 9.2246931e-39
1.5147811 0.39783818 -0.19394873 8.5807657e-39
1.5291634 0.39354128 -0.20761274 1.0793441e-38
1.4660366 0.44340304 -0.1709865 9.3139839e-39
1.4764409 0.43416545 -0.18543525 9.0399375e-39
1.459011 0.46465573 -0.17896898 8.9470118e-39
1.4716387 0.45406243 -0.19438714 1.1434469e-38
1.4549061 0.49448237 -0.17908281 8.0243227e-39
1.4538393 0.52520937 -0.17909776 7.7459421e-39
1.4606291 0.5566774 -0.17955729 7.8392209e-39
1.4648192 0.58384621 -0.1791653 8.4831358e-39
1.4816145 0.61465919 -0.18578386 8.667883e-39
1.496264 0.64597946 -0.18433394 6.4569885e-39
1.5060853 0.65265691 -0.19783519 4.7938715e-39
1.4650975 0.67834234 -0.17313069 7.1952893e-39
1.4840165 0.6706422 -0.18984115 6.4577228e-39
1.5032116 0.66319269 -0.2040893 4.3343297e-39
1.463768 0.70351774 -0.17703503 8.3916604e-39
1.4718339 0.70734888 -0.19364002 6.9172632e-39
1.4710855 0.72318166 -0.17276022 8.942672e-39
1.4788065 0.73686671 -0.18474889 9.7749536e-39
1.4853156 0.75254315 -0.19346459 4.8850147e-39
1.7091691 0.32398349 -0.20696327 9.9676588e-39
1.7223886 0.31670263 -0.21781771 9.6802945e-39
1.7426199 0.30667156 -0.21739094 9.7875947e-39
1.5623654 0.3590422 -0.16358846 8.2112741e-39
1.5813667 0.34910598 -0.18053539 9.8700724e-39
1.6004448 0.33969909 -0.1879518 8.2094748e-39
1.7043008 0.34416148 -0.21121316 7.4736978e-39
1.7139452 0.34195104 -0.22429334 7.6584562e-39
1.5283356 0.38303405 -0.16373266 9.2243218e-39
1.5467988 0.3695972 -0.17104726 8.9488251e-39
1.5659956 0.36283851 -0.18200751 7.2871752e-39
1.7060052 0.36311194 -0.21907802 7.3850867e-39
1.7214078 0.3667303 -0.22737886 4.8068517e-39
1.4914842 0.4111304 -0.15676858 8.7629975e-39
1.5168204 0.39769253 -0.16543645 9.2275602e-39
1.4741329 0.44087476 -0.15367228 8.4881917e-39
1.4825766 0.4277468 -0.1540436 8.3967219e-39
1.4648503 0.46579996 -0.14914833 8.4871197e-39
1.4476246 0.49587461 -0.14255121 7.8417335e-39
1.4532779 0.49158612 -0.15015836 7.8402999e-39
1.4475344 0.52441007 -0.13630019 7.933192e-39
1.4556917 0.52468729 -0.15255488 7.3771484e-39
1.4496635 0.54315966 -0.13606258 7.5626312e-39
1.4576901 0.5557431 -0.14806949 7.4700601e-39
1.464 0.58402491 -0.14888483 7.8381335e-39
1.4773432 0.61479419 -0.14879982 6.9161716e-39
1.4842994 0.61749035 -0.15778004 8.3927324e-39
1.4686112 0.64783645 -0.1437909 4.9804263e-39
1.4891927 0.64600694 -0.16231412 5.2584524e-39
1.4648503 0.67573184 -0.1484708 7.8395699e-39
1.4798342 0.66487706 -0.16300665 9.1306478e-39
1.463964 0.70394027 -0.1484471 8.7597269e-39
1.4714304 0.73008436 -0.14927873 9.6816692e-39
1.4826404 0.74390739 -0.1626496 9.6823838e-39
1.4812001 0.75136513 -0.15777656 6.3705522e-39
1.7134988 0.317927 -0.17631449 8.8558826e-39
1.7241173 0.31247112 -0.19062071 9.6885341e-39
1.5609359 0.3526853 -0.1413597 9.3183209e-39
1.5814109 0.34405935 -0.15222262 9.6878181e-39
1.6708339 0.34660181 -0.15983503 6.4616689e-39
1.6978587 0.34385827 -0.18087414 6.6432113e-39
1.5299671 0.38034403 -0.13612856 8.5793195e-39
1.5500373 0.3665401 -0.14072257 8.4864036e-39
1.7043034 0.36140919 -0.19393478 8.7597297e-39
1.5002706 0.4107399 -0.12809803 8.5789622e-39
1.5213665 0.39791566 -0.13457507 8.947016e-39
1.4780415 0.44044319 -0.12238095 8.2098139e-39
1.4892815 0.4256835 -0.12683187 8.3970807e-39
1.4556599 0.4798789 -0.11310242 8.3956387e-39
1.4672455 0.46439716 -0.12112056 8.3931262e-39
1.4503025 0.49733546 -0.11370072 8.2090909e-39
1.4585263 0.48929614 -0.12587121 7.6577192e-39
1.4437633 0.52458996 -0.11455663 7.284608e-39
1.4465616 0.55467629 -0.1131135 7.1923942e-39
1.4577234 0.56131375 -0.12894537 8.6678746e-39
1.450004 0.58250093 -0.10705595 5.7194165e-39
1.465387 0.58772051 -0.12466528 8.0210674e-39
1.4547665 0.6193673 -0.10939981 5.1648274e-39
1.4730645 0.61632276 -0.12182332 5.3481144e-39
1.4874833 0.62163305 -0.13371819 6.6406483e-39
1.4544332 0.64492679 -0.11067542 6.91545e-39
1.4624661 0.6426785 -0.12578292 6.732502e-39
1.4569925 0.67451513 -0.10800018 7.5622557e-39
1.4631798 0.67665946 -0.12201989 6.8225229e-39
1.4711944 0.70567805 -0.12089635 7.745561e-39
1.4773134 0.7289905 -0.12686548 9.405441e-39
1.4917744 0.74337727 -0.1212447 1.0142283e-38
1.4887125 0.75136513 -0.12901109 8.6678872e-39
1.6077844 0.32572478 -0.11631656 5.9935119e-39
1.7124903 0.32226285 -0.1507156 9.5956253e-39
1.731724 0.31491867 -0.16149405 9.590219e-39
1.5623059 0.35339618 -0.11368819 9.2243288e-39
1.5934201 0.33895853 -0.12125523 9.7774942e-39
1.622329 0.33530641 -0.1318595 6.2615046e-39
1.6886722 0.34206879 -0.15089367 6.2751392e-39
1.697929 0.33487812 -0.15106548 7.1974501e-39
1.5390328 0.37773666 -0.10676815 8.7644325e-39
1.5550852 0.36443672 -0.11528404 9.5016247e-39
1.48877 0.41991192 -0.10504609 1.1259049e-38
1.5069219 0.40927944 -0.097981356 9.0406536e-39
1.5286283 0.39681023 -0.10676932 8.209465e-39
1.4834852 0.43817082 -0.091581546 8.948458e-39
1.496225 0.4248727 -0.10024559 8.3970975e-39
1.4624559 0.47671491 -0.087080926 8.0247066e-39
1.4737134 0.46328068 -0.091465682 8.7636982e-39
1.4528062 0.49484342 -0.08445289 8.9477279e-39
1.4351145 0.5308814 -0.073045969 7.565141e-39
1.4443694 0.52248693 -0.085864544 8.209444e-39
1.4345403 0.5557344 -0.075245142 7.7484602e-39
1.4415443 0.55356854 -0.087169349 7.6566177e-39
1.4344218 0.57450825 -0.072401531 7.1002084e-39
1.4465095 0.58568853 -0.085809119 6.6410211e-39
1.4354579 0.62247413 -0.069752701 6.2718896e-39
1.451996 0.61588216 -0.084093496 4.703838e-39
1.4663208 0.61381102 -0.099983416 5.5303561e-39
1.436197 0.64089495 -0.068901807 7.6526507e-39
1.4462334 0.64455777 -0.086866826 6.9157989e-39
1.4644139 0.65663117 -0.10332754 6.272935e-39
1.459731 0.67047668 -0.087125547 7.6540828e-39
1.4676635 0.68159533 -0.090884581 8.5760447e-39
1.4603237 0.69081467 -0.095244512 7.563706e-39
1.4771867 0.70329851 -0.089472666 8.5756804e-39
1.4919442 0.72407889 -0.092892267 9.7731389e-39
1.4996421 0.73733854 -0.10447528 9.4972821e-39
1.6269944 0.32846484 -0.095527843 6.7220764e-39
1.6702496 0.32724404 -0.10007332 6.8279529e-39
1.6920224 0.32382751 -0.11036351 8.7651485e-39
1.7169741 0.31884292 -0.12776251 9.6860174e-39
1.5718243 0.35319132 -0.085816383 9.5019975e-39
1.6011817 0.33741936 -0.092412829 9.133931e-39
1.6457618 0.33250642 -0.10149629 7.3649487e-39
1.6711042 0.33174923 -0.10603382 6.8264913e-39
1.6922163 0.33532751 -0.12545066 6.4620374e-39
1.7028282 0.33311558 -0.13230702 6.7322036e-39
1.5483789 0.37905347 -0.079291731 9.407997e-39
1.5650982 0.36670774 -0.077933647 9.0388684e-39
1.5152297 0.4075596 -0.071008094 9.2246833e-39
1.5377198 0.39563307 -0.074595772 9.2268413e-39
1.4922566 0.43782941 -0.064559519 9.0399333e-39
1.5056497 0.42379159 -0.064158 9.9615309e-39
1.4729826 0.4798789 -0.046773024 1.2085213e-38
1.4819074 0.46594688 -0.060788818 9.2239547e-39
1.4605904 0.49609473 -0.055367425 9.2221666e-39
1.4751186 0.48188251 -0.062339008 8.9498873e-39
1.4410715 0.53182018 -0.050237149 9.4061879e-39
1.4526734 0.52253354 -0.054093316 9.2225127e-39
1.4395311 0.55616105 -0.05040532 8.3927591e-39
1.447399 0.55223668 -0.049754631 1.1067492e-38
1.4400164 0.58429772 -0.048683684 7.1012832e-39
1.4473426 0.59367853 -0.064217247 5.7172529e-39
1.4368361 0.61626166 -0.048153255 6.6399589e-39
1.4489034 0.60882205 -0.063781761 3.6900617e-39
1.4378207 0.64373642 -0.04817576 8.2987445e-39
1.4431406 0.65853578 -0.066059992 9.2264322e-39
1.4417964 0.66090274 -0.047461793 8.8511896e-39
1.4595779 0.6783728 -0.05513281 8.4834777e-39
1.4724424 0.68840367 -0.072586164 8.1139525e-39
1.4683256 0.69713521 -0.054051414 8.851184e-39
1.4810375 0.70860362 -0.067377046 8.2079754e-39
1.4947153 0.72588718 -0.064472966 9.4043662e-39
1.5085182 0.73514867 -0.053174891 7.8302358e-39
1.643006 0.32600701 -0.069955118 5.7180054e-39
1.6757789 0.31728891 -0.080660746 8.950253e-39
1.6877357 0.31923851 -0.095117629 9.1332388e-39
1.5857145 0.35424879 -0.060332861 1.0423584e-38
1.6086149 0.34010431 -0.062350113 9.8714975e-39
1.5574993 0.38330358 -0.054060709 1.0238107e-38
1.5752466 0.37013501 -0.053321119 9.2254036e-39
1.5269879 0.41268364 -0.04238138 9.4083669e-39
1.5480422 0.39797279 -0.046596393 9.6867321e-39
1.4996724 0.44166341 -0.036164351 9.315437e-39
1.516795 0.42820403 -0.037575565 9.1321346e-39
1.4758699 0.4763633 -0.035718139 9.9611582e-39
1.4906647 0.46267977 -0.031920578 9.2235945e-39
1.4713081 0.49549928 -0.028043147 9.3157916e-39
1.4851543 0.48188254 -0.023912281 9.5963161e-39
1.4470941 0.53322834 -0.027175989 9.406904e-39
1.4631382 0.52296066 -0.022906216 9.4983835e-39
1.4478222 0.55573666 -0.023153463 9.6827664e-39
1.454933 0.54445875 -0.020906601 1.0883096e-38
1.4452163 0.58545911 -0.02213601 8.8522897e-39
1.441614 0.6137231 -0.019993234 8.4842274e-39
1.4523125 0.6118679 -0.030940691 8.9506062e-39
1.4427829 0.64532334 -0.02073279 9.1288667e-39
1.4467624 0.66707957 -0.021251544 9.1281451e-39
1.4606729 0.68193138 -0.025047762 9.1274192e-39
1.4675494 0.69632876 -0.029585009 9.2192603e-39
1.4850228 0.71509725 -0.040245835 9.5865925e-39
1.4914334 0.72082573 -0.047358897 9.3125265e-39
1.5098841 0.73514867 -0.047944795 1.133902e-38
1.6554868 0.32445112 -0.042492405 8.7633493e-39
1.6748135 0.31241748 -0.052178856 1.0238834e-38
1.6954184 0.30403668 -0.065700628 1.771131e-38
1.617597 0.34567437 -0.035972826 9.9608008e-39
1.6450769 0.33273247 -0.04079932 9.4087159e-39
1.5688426 0.38614681 -0.027978491 7.5630194e-39
1.587285 0.37530148 -0.026618214 9.2236099e-39
1.6053311 0.3616147 -0.026774291 1.1066421e-38
1.5391306 0.41517603 -0.015328342 9.4098089e-39
1.5615605 0.39917991 -0.019867631 9.1324891e-39
1.512087 0.44163236 -0.0017976243 9.5012744e-39
1.5234989 0.43017808 -0.011642398 9.77822e-39
1.499048 0.46415949 -0.0039567258 9.5931127e-39
1.480724 0.50102144 -0.0028839994 9.0388473e-39
1.494694 0.48950639 0.00074308261 9.2199988e-39
1.4717686 0.52576274 0.002665038 8.9452112e-39
1.4558804 0.56478578 0.0064666653 9.8642864e-39
1.4636371 0.55173343 0.0064861015 9.312556e-39
1.4510974 0.58499539 0.006896019 1.05118e-38
1.4489933 0.61486644 0.0093786223 9.0363208e-39
1.4520595 0.64384794 0.0067986501 9.1274234e-39
1.4556407 0.6672135 0.0055486402 1.0326318e-38
1.4614844 0.68100548 0.0041786125 1.0509632e-38
1.469932 0.69550461 -0.010964858 9.5815688e-39
1.6628671 0.32261652 -0.023248268 1.088636e-38
1.6764083 0.31965923 -0.01581057 1.0051892e-38
1.6314983 0.35231632 -0.0091574769 1.0789477e-38
1.6558167 0.3374874 -0.010560515 1.1249756e-38
1.5956963 0.38305524 -0.0051835943 9.2243232e-39
1.619368 0.37285909 0.00040238252 1.0421783e-38
1.5454723 0.4157615 0.011482503 1.0054825e-38
1.5705268 0.40733469 0.006172868 9.0413851e-39
1.5924689 0.3979283 0.0070828735 9.5941819e-39
1.5171448 0.43825322 0.01415502 9.5012576e-39
1.5401226 0.43204331 0.021537054 1.0045417e-38
1.512507 0.46717894 0.0224503 1.170962e-38
1.5318644 0.45621601 0.028302865 1.2809094e-38
1.4876969 0.50352496 0.023135912 7.5626663e-39
1.5052772 0.49382475 0.026000731 1.1067866e-38
1.4840378 0.52651238 0.028949127 8.9462846e-39
1.5012113 0.5163027 0.037570469 8.9463112e-39
1.4626718 0.56796324 0.032470047 1.1065325e-38
1.4766034 0.55476153 0.032786783 1.0141585e-38
1.4609802 0.58771461 0.032288946 1.0050826e-38
1.4715042 0.5831238 0.040566079 1.0972774e-38
1.4594332 0.61495298 0.037816584 1.041925e-38
1.4599483 0.64271432 0.034310065 1.0141215e-38
1.4728739 0.65404403 0.041853473 1.1248984e-38
1.4615411 0.66296804 0.028140444 1.1434464e-38
1.4778131 0.67327464 0.035041872 1.3092182e-38
1.4929706 0.69081467 0.029760906 1.3822208e-38
1.666501 0.32799631 0.0075951689 1.2728085e-38
1.6620053 0.34733394 0.014845138 1.1066794e-38
1.6372517 0.37804189 0.018861957 1.1158254e-38
1.6569078 0.36729667 0.023629162 1.0144106e-38
1.4660932 0.40756631 0.074132182 1.013434e-38
1.4772077 0.40964037 0.064383186 1.0226891e-38
1.5269177 0.41728896 0.058830742 1.2900211e-38
1.5496511 0.41413352 0.051051464 1.2713681e-38
1.5718808 0.41202506 0.036179949 8.6642831e-39
1.6006936 0.40447024 0.031188415 1.0978574e-38
1.6302797 0.39462864 0.029179147 1.0789122e-38
1.4629176 0.4296985 0.0740849 9.6722735e-39
1.4882631 0.43631741 0.063183606 8.2882586e-39
1.5194634 0.43502581 0.052470107 1.1238887e-38
1.5432091 0.43193117 0.038453475 1.1701673e-38
1.564658 0.42002201 0.031189902 3.0382337e-39
1.4919535 0.45669726 0.073355548 6.074846e-39
1.521174 0.46494839 0.052730519 1.197283e-38
1.5320802 0.45811656 0.037044097 1.2160479e-38
1.5217161 0.49318713 0.051973376 1.4095139e-38
1.493453 0.53401887 0.048568554 8.6675327e-39
1.5152385 0.52306461 0.054343704 1.0144095e-38
1.5378853 0.51352292 0.059271917 1.5748885e-38
1.4950392 0.55669492 0.056030281 1.023413e-38
1.5093932 0.54933208 0.064941756 1.0234491e-38
1.4683255 0.59894311 0.05411825 1.1432653e-38
1.4884615 0.58532619 0.061861124 1.115501e-38
1.4689778 0.62734127 0.056616127 1.1155003e-38
1.4842463 0.61389452 0.064491667 1.1430519e-38
1.4681077 0.63605499 0.059879575 1.2263507e-38
1.4821672 0.64309543 0.059628833 1.2908149e-38
1.4857858 0.66806149 0.049740296 1.3547399e-38
1.6666254 0.3564837 0.03775214 1.5033689e-38
1.4538107 0.38966238 0.10934904 1.133074e-38
1.4667468 0.38580826 0.10545617 1.2531067e-38
1.4972856 0.38492844 0.097729467 1.1241412e-38
1.5276115 0.38789174 0.079295777 1.2720889e-38
1.6527604 0.38446531 0.046399359 1.4289291e-38
1.662146 0.37236878 0.040388219 1.3095082e-38
1.4206741 0.40932477 0.1214731 9.9492443e-39
1.4421761 0.40620366 0.10577005 1.068429e-38
1.4622909 0.39805487 0.091304392 1.1423628e-38
1.4954789 0.39393762 0.086855136 1.1144902e-38
1.5294747 0.39823708 0.084055722 1.2440659e-38
1.5453839 0.40218738 0.070918836 1.1427628e-38
1.5716406 0.40344223 0.057926159 4.3167406e-39
1.6156021 0.40868711 0.054106947 1.0887798e-38
1.6361951 0.39861265 0.05020088 1.318656e-38
1.4440337 0.43162954 0.10413609 9.9441772e-39
1.4620706 0.44441518 0.089529559 9.8541382e-39
1.4538107 0.45291924 0.10934904 1.059133e-38
1.4684803 0.46014401 0.099765204 9.8552088e-39
1.4937848 0.46819061 0.085847832 8.5626833e-39
1.5149522 0.4740853 0.072375566 1.0497322e-38
1.5116259 0.4851523 0.10119254 9.4785524e-39
1.5239021 0.4961786 0.081712544 1.3259955e-38
1.5325456 0.52512151 0.07365264 1.2165168e-38
