# .PCD v0.7 - Point Cloud Data file format
VERSION 0.7
FIELDS x y z rgb
SIZE 4 4 4 4
TYPE F F F F
COUNT 1 1 1 1
WIDTH 1005
HEIGHT 1
VIEWPOINT 0 0 0 1 0 0 0
POINTS 1005
DATA ascii
1.9120231 -0.28012845 -1.3100188 6.9161296e-39
1.9213852 -0.27643058 -1.3256173 7.3771119e-39
1.6177945 -0.26345289 -1.2465122 7.9248613e-39
1.6466962 -0.25731176 -1.2502533 8.106017e-39
1.6608189 -0.24960244 -1.2587767 1.2343039e-38
1.9079782 -0.2401101 -1.3255066 8.1078414e-39
1.922606 -0.25442347 -1.3209431 7.3731477e-39
1.9307544 -0.22570948 -1.3266791 8.2036174e-39
1.954495 -0.21447615 -1.3274572 8.0166982e-39
1.9488434 -0.20394497 -1.3352461 8.8471735e-39
1.6214981 -0.36783195 -1.2193804 1.0879136e-38
1.6410986 -0.37184954 -1.2116059 1.0512891e-38
1.5942074 -0.34250861 -1.2051543 6.9147157e-39
1.5982568 -0.32085967 -1.2034988 6.5419479e-39
1.6128 -0.31226912 -1.2170684 6.5430269e-39
1.6206136 -0.28537208 -1.2152677 7.5575305e-39
1.6405132 -0.27106789 -1.2138476 7.740477e-39
1.911968 -0.27553579 -1.2917608 6.0834991e-39
1.6280752 -0.26949358 -1.2179408 7.9270277e-39
1.6442372 -0.25904787 -1.2175769 9.4903807e-39
1.9187645 -0.25878531 -1.2842056 5.8051241e-39
1.928845 -0.24690886 -1.2970536 6.0824032e-39
1.9424206 -0.23150721 -1.3004769 6.6348469e-39
1.9596584 -0.22042751 -1.3007597 7.3702526e-39
1.6371551 -0.37038094 -1.1831745 1.0144095e-38
1.6509886 -0.37898716 -1.2001201 1.1891454e-38
1.5946548 -0.34235632 -1.1757388 8.3009095e-39
1.6246436 -0.35703486 -1.1835921 9.1281647e-39
1.5973302 -0.31816262 -1.1748935 6.9121625e-39
1.6191434 -0.30363184 -1.1861842 6.9125283e-39
1.6290891 -0.28570917 -1.1868505 6.63557e-39
1.6446112 -0.27106789 -1.1981562 6.5430058e-39
1.9140795 -0.27710971 -1.257821 8.7618863e-39
1.6379699 -0.26719022 -1.1800544 6.9121345e-39
1.6532114 -0.25586423 -1.1901894 7.7397596e-39
1.6804546 -0.25431192 -1.183592 7.9266802e-39
1.919619 -0.25464919 -1.2587719 6.820341e-39
1.9366438 -0.2415413 -1.2671915 6.5426611e-39
1.9516635 -0.23335926 -1.2650858 6.7281202e-39
1.9694601 -0.22207399 -1.274772 6.908166e-39
1.9909731 -0.21486974 -1.2886968 1.3535429e-38
1.6363701 -0.36822662 -1.1564999 9.8686136e-39
1.6011235 -0.34002247 -1.1480016 9.1321248e-39
1.629825 -0.35646242 -1.1518795 8.7640611e-39
1.5883387 -0.32352296 -1.1366035 7.5600809e-39
1.60179 -0.31571653 -1.1503973 7.0976314e-39
1.6228758 -0.30081469 -1.1587008 7.3742365e-39
1.6176013 -0.29580003 -1.1393226 7.3756616e-39
1.6290743 -0.28403646 -1.1547536 7.0061602e-39
1.6598247 -0.27154493 -1.1530958 7.5567808e-39
1.9192258 -0.2801654 -1.2270348 8.7586241e-39
1.6420441 -0.26949358 -1.1644541 7.2805919e-39
1.6668013 -0.2629199 -1.1677148 7.4660468e-39
1.6869309 -0.25552294 -1.1650131 8.0185045e-39
1.9234772 -0.25433734 -1.2292241 8.2976515e-39
1.9427474 -0.2415413 -1.2438214 7.5557383e-39
1.9342698 -0.23210643 -1.2248355 7.5582368e-39
1.9567361 -0.22319162 -1.2377483 7.4642391e-39
1.9715185 -0.2141422 -1.2484224 7.8312293e-39
1.9735799 -0.20394497 -1.2405294 1.0403692e-38
1.6192319 -0.36280918 -1.1132919 1.0515068e-38
1.63416 -0.36675411 -1.1352804 1.0146279e-38
1.5939766 -0.33467889 -1.1150156 9.8696912e-39
1.6122713 -0.34661284 -1.1165596 9.4072725e-39
1.5931756 -0.32218602 -1.115038 7.9306809e-39
1.6094935 -0.30924186 -1.1189212 6.9128758e-39
1.6197064 -0.29539636 -1.1213683 7.4660636e-39
1.6408025 -0.28114492 -1.1265889 7.189841e-39
1.6696345 -0.27214128 -1.132023 7.4653335e-39
1.9355422 -0.28101715 -1.2061121 8.3894856e-39
1.6818364 -0.26246193 -1.1332856 7.924511e-39
1.6931322 -0.2564413 -1.145933 7.9248865e-39
1.9388925 -0.25211558 -1.2071351 7.928855e-39
1.9539371 -0.25361836 -1.2009758 7.4653433e-39
1.9362923 -0.23210643 -1.2170916 7.9270277e-39
1.9601889 -0.22423913 -1.2093579 7.7433693e-39
1.9787333 -0.21210276 -1.2207967 7.3709771e-39
1.9684528 -0.18636329 -1.2007995 1.3538323e-38
1.9810007 -0.19741872 -1.2121143 9.2098268e-39
1.6199872 -0.36521834 -1.0906126 1.1249387e-38
1.6018698 -0.33467889 -1.0847926 1.014737e-38
1.6157262 -0.34978744 -1.0886631 9.6849482e-39
1.5959414 -0.31729335 -1.0820512 8.8533715e-39
1.6094904 -0.3043789 -1.0912298 7.5589655e-39
1.6254745 -0.29519451 -1.0943357 8.1103442e-39
1.6449988 -0.28117001 -1.0970759 7.8348461e-39
1.6683214 -0.27106789 -1.10737 7.6497304e-39
1.9380752 -0.27096024 -1.1733292 7.8366608e-39
1.6612512 -0.26949358 -1.0909098 7.9252382e-39
1.6793814 -0.26009908 -1.1054749 8.4784092e-39
1.9472134 -0.25184879 -1.1752743 7.2823996e-39
1.9464045 -0.23210643 -1.1783718 8.022124e-39
1.9693304 -0.22019364 -1.1803918 7.5593382e-39
1.9751071 -0.20054311 -1.1753201 7.4656852e-39
1.9875972 -0.19089249 -1.1868565 8.747778e-39
1.9900709 -0.17947157 -1.1773849 1.3078767e-38
1.6259027 -0.364822 -1.0600476 1.1067167e-38
1.6075077 -0.33467889 -1.0632048 1.1438806e-38
1.6231506 -0.34948784 -1.0587133 1.0606912e-38
1.5980171 -0.3155908 -1.0550236 1.1252997e-38
1.6201137 -0.32455871 -1.0505528 1.1345907e-38
1.5986032 -0.29326323 -1.0489317 9.6820587e-39
1.624879 -0.28509578 -1.0639669 8.2940194e-39
1.6495596 -0.27678972 -1.0723581 8.0185073e-39
1.6744684 -0.27106789 -1.0838329 7.7418994e-39
1.6659075 -0.26949358 -1.0730809 7.7419162e-39
1.679765 -0.26225933 -1.0767443 8.296176e-39
1.9527026 -0.25187707 -1.1463404 6.9125339e-39
1.9702129 -0.2415413 -1.1386551 7.0043581e-39
1.953483 -0.23210643 -1.1512681 7.5578963e-39
1.9711487 -0.22107583 -1.1489233 7.5578893e-39
1.9807376 -0.19851743 -1.1537607 7.9259557e-39
2.0010538 -0.18461755 -1.1590747 9.025095e-39
1.9921323 -0.17947157 -1.1694918 1.1972069e-38
1.635874 -0.36657101 -1.0297818 1.1525237e-38
1.6289731 -0.346315 -1.0298227 1.0699469e-38
1.6154326 -0.30942318 -1.0256643 1.1252268e-38
1.625638 -0.32471159 -1.0294009 1.0697658e-38
1.6045098 -0.28651977 -1.0246956 1.2173873e-38
1.6099089 -0.25961834 -1.0144367 9.3121888e-39
1.624788 -0.26570088 -1.032655 8.7557486e-39
1.9561268 -0.25172278 -1.115961 7.0962006e-39
1.9722475 -0.2415413 -1.130865 6.8199697e-39
1.9646064 -0.23210643 -1.1086764 7.2816597e-39
1.97861 -0.22006921 -1.1223333 7.5582424e-39
1.9879037 -0.19851744 -1.1263214 8.5702251e-39
2.0024393 -0.18762939 -1.1300266 8.939009e-39
2.0028515 -0.17784001 -1.128448 9.2148588e-39
1.6486226 -0.36390686 -1.0057013 1.0422139e-38
1.6428634 -0.34415853 -1.0010407 1.0146289e-38
1.6223919 -0.30388844 -1.0062128 1.1249761e-38
1.6334568 -0.31659889 -0.99946266 1.0606537e-38
1.6171768 -0.28268623 -1.0014474 1.3095462e-38
1.6352699 -0.28588074 -0.99252051 1.2450823e-38
1.6170338 -0.25844279 -0.99594903 1.3740459e-38
1.6354024 -0.24259816 -1.0052041 9.9604239e-39
1.9433775 -0.25019574 -1.0791541 6.7295705e-39
1.9588827 -0.24438411 -1.0936565 6.6359414e-39
1.6439016 -0.23671558 -0.99904358 9.0345005e-39
1.9648253 -0.23231642 -1.0832139 7.188734e-39
1.9841335 -0.2176543 -1.096434 7.6497135e-39
1.9726961 -0.20409358 -1.0777007 8.018482e-39
1.9878117 -0.19466992 -1.0958934 8.6617047e-39
1.9971173 -0.17420918 -1.0910424 9.4864066e-39
1.6588401 -0.36039999 -0.98141885 1.0977143e-38
1.6716791 -0.36405414 -0.97183192 1.1619591e-38
1.6505455 -0.34596893 -0.97360563 1.0516518e-38
1.6328787 -0.30121103 -0.96605939 1.0147357e-38
1.6409355 -0.31816846 -0.97082603 1.0237033e-38
1.6278337 -0.28477538 -0.96841544 1.0790571e-38
1.6166517 -0.25454465 -0.96600485 1.2817426e-38
1.9507929 -0.24831457 -1.0507603 7.2820423e-39
1.618638 -0.23300548 -0.9630236 1.0786195e-38
1.9513633 -0.22912663 -1.0485761 6.9117982e-39
1.9640521 -0.21471195 -1.0553944 7.3720392e-39
1.9713398 -0.19731112 -1.0577102 8.4773064e-39
1.9898797 -0.18518166 -1.0633508 9.3078042e-39
1.9968671 -0.17434129 -1.0587578 9.7684054e-39
1.6682906 -0.36039999 -0.94523263 1.1250445e-38
1.6755662 -0.36918166 -0.95694852 1.2162616e-38
1.6530632 -0.3444522 -0.94265515 1.0146649e-38
1.6363978 -0.31310013 -0.93499666 9.3165244e-39
1.647168 -0.32511926 -0.9469623 1.014557e-38
1.613813 -0.27477852 -0.92429584 1.2726677e-38
1.6224391 -0.28702599 -0.93819094 1.0605101e-38
1.6131911 -0.25537893 -0.92667711 1.2908527e-38
1.6176031 -0.25156695 -0.94540107 1.2539375e-38
1.9568536 -0.24690369 -1.0275537 7.5589977e-39
1.628801 -0.23337868 -0.93905395 1.1615216e-38
1.6631415 -0.22810154 -0.93856591 1.0968763e-38
1.6828939 -0.22601469 -0.94208217 8.4819965e-39
1.9572103 -0.22476222 -1.0222296 7.3735036e-39
1.968071 -0.21471193 -1.040006 7.7400945e-39
1.9613457 -0.20542386 -1.0103536 7.372398e-39
1.9742551 -0.19541369 -1.0291121 8.5698636e-39
1.9804764 -0.17153946 -1.0202084 9.0290509e-39
2.0002301 -0.17480612 -1.0421871 9.8591632e-39
1.6743046 -0.36039999 -0.92220497 1.2349528e-38
1.6464097 -0.33467889 -0.91424853 1.0238498e-38
1.6617451 -0.34625015 -0.91093439 1.0699825e-38
1.6380527 -0.31425455 -0.90914696 1.014557e-38
1.6579328 -0.32960367 -0.90574288 1.060656e-38
1.6192623 -0.27995411 -0.90343058 1.1895117e-38
1.6278791 -0.29601678 -0.90605396 1.1252266e-38
1.6146208 -0.25464076 -0.89943618 1.3091831e-38
1.9416049 -0.24197066 -0.9830479 7.0969027e-39
1.950495 -0.24344955 -1.0004537 6.5423206e-39
1.6340861 -0.23736303 -0.91055441 1.2533571e-38
1.6644652 -0.23265688 -0.91465265 1.0323385e-38
1.6919527 -0.22382312 -0.92586428 7.8348279e-39
1.9409474 -0.22505873 -0.9855653 6.1742275e-39
1.9534589 -0.22413854 -1.0019673 6.5440933e-39
1.9416049 -0.19513762 -0.9830479 7.1858445e-39
1.9603784 -0.19329819 -1.0011954 7.5539026e-39
1.9376491 -0.17135537 -0.98104513 8.7538975e-39
1.9574147 -0.16936882 -0.99968183 7.5546579e-39
1.670105 -0.34701726 -0.88551968 1.0329578e-38
1.6473721 -0.31380323 -0.88012129 1.0055167e-38
1.6638819 -0.32960367 -0.8829639 9.4094459e-39
1.6263092 -0.27985504 -0.87390381 1.2358246e-38
1.6362433 -0.29507107 -0.87402719 1.1250826e-38
1.6193488 -0.25484297 -0.87256974 1.2814519e-38
1.9316981 -0.24049176 -0.96953362 7.096551e-39
1.6302203 -0.2371376 -0.86147243 9.7655495e-39
1.6454213 -0.23297042 -0.87845933 1.0137196e-38
1.6663381 -0.22350274 -0.88675082 8.9408195e-39
1.9263226 -0.22520088 -0.95449942 6.8210585e-39
1.9257114 -0.19691147 -0.95387208 7.8341174e-39
1.9324549 -0.16735218 -0.95634693 1.0136832e-38
1.6754816 -0.34399787 -0.85833716 1.1342646e-38
1.6501553 -0.31191823 -0.84902537 9.7771382e-39
1.6706809 -0.32960367 -0.85693061 9.6863986e-39
1.6343815 -0.27336699 -0.84553897 1.2540111e-38
1.643334 -0.29142573 -0.8501755 1.1067504e-38
1.6298258 -0.2529816 -0.84517455 1.5029381e-38
1.6312244 -0.23380497 -0.84236318 1.3644634e-38
1.6491132 -0.22369093 -0.85113168 1.1243544e-38
1.6706809 -0.21525137 -0.85693061 8.666392e-39
1.9178978 -0.22111456 -0.91948164 7.5589697e-39
1.932483 -0.21588257 -0.91508222 7.6515324e-39
1.9320263 -0.19675046 -0.92326134 8.0188618e-39
1.9387436 -0.16646767 -0.92647952 1.0783279e-38
1.9471194 -0.14509846 -0.92763573 1.271147e-38
1.690522 -0.34327742 -0.82844889 1.2727382e-38
1.7092534 -0.35550824 -0.8279593 1.3634509e-38
1.6568725 -0.31498566 -0.82142144 9.5005486e-39
1.6808794 -0.32960367 -0.81788075 1.0794907e-38
1.6417128 -0.28073829 -0.81746566 1.0697641e-38
1.6509404 -0.29790828 -0.81775171 1.0421053e-38
1.6365187 -0.25279135 -0.81420285 1.2815965e-38
1.6386938 -0.2305963 -0.81630647 1.318183e-38
1.6598512 -0.21687487 -0.81924975 1.189035e-38
1.9198306 -0.21775046 -0.88833642 6.8188949e-39
1.9354053 -0.21588257 -0.9038924 7.3749441e-39
1.6804544 -0.20684312 -0.81950784 9.7738102e-39
1.9275173 -0.19411376 -0.88264835 7.2812968e-39
1.9360547 -0.19660735 -0.90140575 7.9266788e-39
1.9292384 -0.17240368 -0.87605834 8.3872772e-39
1.9387655 -0.16473369 -0.89470053 9.1226828e-39
1.9486994 -0.13831106 -0.89652103 1.08715e-38
1.7086703 -0.36379999 -0.79061848 1.4739394e-38
1.7217261 -0.3659327 -0.80658489 1.4279484e-38
1.702113 -0.34489909 -0.79923731 1.2544464e-38
1.7127086 -0.35550827 -0.81472969 1.3644632e-38
1.6518587 -0.30630276 -0.7786184 1.0421078e-38
1.6625704 -0.3133131 -0.7948069 9.9604547e-39
1.6859785 -0.32960367 -0.79835582 1.1162973e-38
1.6472673 -0.28524232 -0.78781849 1.1528122e-38
1.6438359 -0.25531566 -0.78496712 1.3093275e-38
1.6474309 -0.23474371 -0.78963625 1.308964e-38
1.6649094 -0.22195832 -0.78987145 1.2349542e-38
1.9081117 -0.2155578 -0.85010135 7.1905431e-39
1.9181509 -0.21712294 -0.87102354 6.3607768e-39
1.6768547 -0.20415413 -0.79767412 1.0323018e-38
1.6868284 -0.20583412 -0.79510164 1.0783996e-38
1.9103905 -0.19599551 -0.84929144 6.6352015e-39
1.9200759 -0.19045871 -0.86365241 7.2794835e-39
1.9302539 -0.16552195 -0.85921866 8.3865499e-39
1.9431983 -0.15420184 -0.87405282 9.2159532e-39
1.9331108 -0.14558531 -0.86123091 9.2155889e-39
1.9478008 -0.13184129 -0.86500382 1.0043543e-38
1.9611027 -0.11636698 -0.85694301 1.3536882e-38
1.7108499 -0.36460304 -0.77567583 1.5109251e-38
1.7013215 -0.34633657 -0.76787645 1.1898373e-38
1.6551882 -0.30599889 -0.75874615 1.1253359e-38
1.6779237 -0.32122129 -0.76192158 1.0792382e-38
1.6927774 -0.32960367 -0.7723226 1.1163706e-38
1.6487817 -0.28438878 -0.75647837 1.198911e-38
1.6498111 -0.25427851 -0.7576248 1.3001075e-38
1.6564361 -0.2371376 -0.76109159 1.2719775e-38
1.6709325 -0.22337785 -0.76215321 1.2075121e-38
1.8953087 -0.21699451 -0.81206101 7.6540436e-39
1.9036103 -0.21450827 -0.8277638 6.5469743e-39
1.6848149 -0.20459597 -0.75927919 1.1062397e-38
1.692211 -0.20291929 -0.77449208 1.0508138e-38
1.8953087 -0.20951192 -0.81206101 5.4381058e-39
1.9059 -0.19092871 -0.82238948 6.4511718e-39
1.9170709 -0.16385032 -0.82371223 8.0177702e-39
1.9258511 -0.15617615 -0.84153908 8.6624039e-39
1.9190521 -0.13816422 -0.81612563 9.1226758e-39
1.9321324 -0.13399389 -0.83331817 9.7673221e-39
1.9509913 -0.12336148 -0.84421331 1.0325166e-38
1.9408556 -0.11493579 -0.83157599 1.179167e-38
1.963063 -0.11636698 -0.84943694 1.3540126e-38
1.6844796 -0.36612844 -0.72890425 1.6209814e-38
1.703593 -0.3637321 -0.7408033 1.5201413e-38
1.6954601 -0.33802569 -0.72643417 1.1623213e-38
1.700912 -0.34738111 -0.74117565 1.1898722e-38
1.663717 -0.30611286 -0.72876066 1.2451912e-38
1.6794245 -0.32083008 -0.73243076 1.1069339e-38
1.6523458 -0.28449771 -0.72555363 1.2728124e-38
1.6368486 -0.25952291 -0.72924149 1.3555705e-38
1.652135 -0.25564688 -0.7273733 1.3001073e-38
1.6657295 -0.23603974 -0.72550684 1.1984378e-38
1.6757892 -0.2215625 -0.73302066 1.179926e-38
1.897236 -0.21667525 -0.79280955 7.7440419e-39
1.6954601 -0.20750092 -0.72643417 1.1151739e-38
1.700912 -0.20468099 -0.74117565 1.1151002e-38
1.8995056 -0.19980343 -0.79259819 5.9001574e-39
1.9109008 -0.18314742 -0.79984808 6.4508144e-39
1.9028717 -0.17958166 -0.7831021 6.5440568e-39
1.9159064 -0.16100787 -0.79425061 7.9252116e-39
1.9237853 -0.13404875 -0.79460937 8.9393706e-39
1.9345139 -0.12189358 -0.80836904 1.0137191e-38
1.9259071 -0.11103608 -0.78987789 1.0781482e-38
1.9354765 -0.11427523 -0.80468351 1.0872595e-38
1.6971514 -0.36814678 -0.71995783 1.7042096e-38
1.7072252 -0.36491832 -0.71700191 1.5845003e-38
1.6946019 -0.34293678 -0.70597464 1.1714331e-38
1.7063754 -0.35651007 -0.72025603 1.2909989e-38
1.6684788 -0.30526155 -0.69914967 1.2912164e-38
1.6810516 -0.3210789 -0.70245552 1.1070055e-38
1.6466854 -0.27249908 -0.69157636 1.4020308e-38
1.6556257 -0.28702754 -0.69533581 1.3281304e-38
1.6464121 -0.2638483 -0.6926226 1.3556789e-38
1.6582441 -0.25134444 -0.69605666 1.2354991e-38
1.6710768 -0.23248196 -0.69711715 1.2076575e-38
1.6842121 -0.21829124 -0.70474494 1.1892182e-38
1.8832769 -0.21444039 -0.7631529 7.6547554e-39
1.7005342 -0.2075009 -0.70700514 1.1062411e-38
1.7089249 -0.20179817 -0.71049362 1.059928e-38
1.8736635 -0.20001742 -0.74158901 7.4671398e-39
1.886235 -0.19429266 -0.75974035 6.2667735e-39
1.8973074 -0.16814899 -0.76008523 7.0961712e-39
1.9188254 -0.15053211 -0.76950496 8.2025202e-39
1.9104348 -0.14965138 -0.75414312 8.3876219e-39
1.9235339 -0.13115081 -0.76414013 9.2163204e-39
1.9325389 -0.1120455 -0.76448476 1.0692169e-38
1.9431767 -0.10665688 -0.775199 1.0967676e-38
1.6900687 -0.34156221 -0.67386609 1.235788e-38
1.6760826 -0.30828229 -0.66805667 1.2176402e-38
1.6878625 -0.32249752 -0.67637664 1.0793464e-38
1.6516037 -0.27249908 -0.6727438 1.4387643e-38
1.6671401 -0.28509286 -0.66786766 1.3834473e-38
1.6538579 -0.25627887 -0.66411221 1.2909974e-38
1.6626205 -0.25214925 -0.66617846 1.2633382e-38
1.6775118 -0.22974023 -0.67021656 1.2629397e-38
1.6941966 -0.21586056 -0.67586845 1.2166962e-38
1.7242367 -0.20659082 -0.68578637 1.179888e-38
1.7532274 -0.20125259 -0.68596572 1.0877282e-38
1.797805 -0.20028441 -0.69468158 1.0050037e-38
1.8278465 -0.20005871 -0.70628989 9.7720179e-39
1.8451575 -0.19814128 -0.70530373 8.0163451e-39
1.8702615 -0.18856697 -0.7203843 7.003977e-39
1.8777241 -0.17103304 -0.71515912 7.1894599e-39
1.8928106 -0.16277137 -0.73139703 7.556792e-39
1.9018722 -0.13848677 -0.72926432 8.8479008e-39
1.926433 -0.12042569 -0.74037558 1.004394e-38
1.9179978 -0.11972111 -0.72518414 1.0324467e-38
1.9330378 -0.10385914 -0.73335057 1.1520866e-38
1.948952 -0.099038526 -0.75308567 1.170417e-38
1.6754664 -0.39410031 -0.62886274 1.750453e-38
1.6636264 -0.36982021 -0.62670869 1.6765487e-38
1.6727817 -0.37985408 -0.62726992 1.4547799e-38
1.6901422 -0.33594495 -0.63203049 1.1987297e-38
1.6971951 -0.34672049 -0.64591992 1.3919403e-38
1.684549 -0.31567156 -0.64157522 1.1345191e-38
1.6647195 -0.27574313 -0.62252361 1.4108172e-38
1.670238 -0.28602296 -0.63879186 1.3558242e-38
1.6641729 -0.25952291 -0.62461615 1.4477289e-38
1.6718293 -0.25377297 -0.64063007 1.3831916e-38
1.6840723 -0.23059985 -0.64157277 1.29989e-38
1.7049363 -0.21583201 -0.64617777 1.2444982e-38
1.7430358 -0.21080001 -0.65903199 1.1148831e-38
1.7550336 -0.21193762 -0.65266633 1.1520145e-38
1.7310658 -0.20966239 -0.66529119 1.1430079e-38
1.7656838 -0.2067523 -0.67124856 1.050957e-38
1.7944355 -0.20366082 -0.66574734 8.481635e-39
1.8239766 -0.19608659 -0.67757648 7.373491e-39
1.8517981 -0.18756224 -0.68920529 6.5437191e-39
1.8562841 -0.17176954 -0.67575908 7.0972502e-39
1.8784168 -0.16206913 -0.69337904 8.0195681e-39
1.8875735 -0.14496972 -0.68832773 8.7567842e-39
1.9024537 -0.13390428 -0.70159632 9.4939919e-39
1.9195791 -0.11699205 -0.70329857 1.0230846e-38
1.938301 -0.098608874 -0.70680523 1.1798527e-38
1.9614649 -0.083801836 -0.70517337 1.3637382e-38
1.6707308 -0.42388746 -0.59950608 1.7229393e-38
1.6809675 -0.43110824 -0.60779917 1.7963332e-38
1.6653354 -0.40281776 -0.60372627 1.4367026e-38
1.6764892 -0.41735044 -0.61307359 1.8240292e-38
1.6631303 -0.37498018 -0.60424006 1.2429499e-38
1.6836878 -0.36491376 -0.61222374 1.4274097e-38
1.7002894 -0.36411008 -0.62879407 1.2312126e-38
1.6951356 -0.33594495 -0.61291027 1.0883842e-38
1.7048925 -0.35113394 -0.61644584 1.3176052e-38
1.6937417 -0.31770074 -0.61177063 1.097459e-38
1.6671786 -0.27898717 -0.61310732 1.4201805e-38
1.6780107 -0.28893495 -0.60724956 1.392594e-38
1.6671786 -0.266011 -0.61310738 1.4478381e-38
1.6841327 -0.25303781 -0.60924751 1.4107781e-38
1.694062 -0.23283769 -0.61378396 1.3368403e-38
1.7106552 -0.22053713 -0.6178844 1.2630464e-38
1.7433739 -0.21258056 -0.62607807 1.1890365e-38
1.7636714 -0.21193762 -0.61959219 1.1981825e-38
1.7775607 -0.20117737 -0.63236618 8.5741908e-39
1.8016236 -0.18750887 -0.63784677 7.3742239e-39
1.8288895 -0.18707401 -0.658764 7.0061532e-39
1.836284 -0.17250824 -0.64133322 6.8199571e-39
1.8585446 -0.16640367 -0.65602303 6.9132331e-39
1.8730564 -0.15440369 -0.6637764 7.6511569e-39
1.8932004 -0.13877706 -0.66315562 8.6645913e-39
1.9061661 -0.12755506 -0.67550993 9.3110538e-39
1.9165215 -0.11025068 -0.67238837 1.0784379e-38
1.9444895 -0.0934356 -0.68073452 1.1983274e-38
1.9530082 -0.083277069 -0.6861077 1.3725618e-38
1.6715951 -0.43304858 -0.57616156 1.5194645e-38
1.6606818 -0.40440568 -0.5726862 1.4736191e-38
1.6654797 -0.37637046 -0.57551557 1.5100287e-38
1.6940932 -0.36374587 -0.58128482 1.2520584e-38
1.734362 -0.36145321 -0.57747805 1.3356842e-38
1.6814327 -0.35866052 -0.59414518 1.4084996e-38
1.7157568 -0.34768236 -0.58715892 1.0691498e-38
1.7012023 -0.31593031 -0.58374447 1.1343025e-38
1.686684 -0.28479496 -0.58251882 1.4294004e-38
1.6906098 -0.25600931 -0.581671 1.4200707e-38
1.7022692 -0.23431453 -0.58559579 1.3368407e-38
1.7203767 -0.22353175 -0.58749634 1.336694e-38
1.7423973 -0.21450947 -0.5955196 1.2352763e-38
1.7560419 -0.20569788 -0.58944494 1.0507778e-38
1.7778774 -0.19402711 -0.60477102 8.2039957e-39
1.7956531 -0.18071193 -0.61981469 9.308544e-39
1.7890657 -0.17689836 -0.60150605 8.482749e-39
1.8096448 -0.16546789 -0.61153114 7.7419176e-39
1.8407825 -0.15826881 -0.62410915 7.5589612e-39
1.8642728 -0.1513156 -0.63211095 7.1883949e-39
1.8426532 -0.14919634 -0.60606319 8.1125302e-39
1.8684156 -0.14130053 -0.62060153 7.4660439e-39
1.8952736 -0.13174112 -0.63734847 8.8471735e-39
1.9042557 -0.11515719 -0.63533467 9.8620499e-39
1.9180875 -0.10221579 -0.64410931 1.1152431e-38
1.9337286 -0.089614682 -0.64912128 1.2349533e-38
1.6758184 -0.45185319 -0.5444079 9.8457808e-39
1.6733906 -0.43563938 -0.54433233 1.6670855e-38
1.6647185 -0.40417433 -0.54416889 1.8328938e-38
1.6783135 -0.37824771 -0.5467279 1.5563412e-38
1.7015417 -0.3683354 -0.55276436 1.1957723e-38
1.7279389 -0.3661162 -0.56249785 1.3445435e-38
1.7484437 -0.36491832 -0.55917537 1.1793143e-38
1.7263155 -0.33914864 -0.56079954 1.0696198e-38
1.747169 -0.35651007 -0.56405658 1.0514705e-38
1.7078308 -0.31313691 -0.55480278 1.2817432e-38
1.7211999 -0.32438898 -0.54872733 1.1799334e-38
1.6976033 -0.28661284 -0.55235958 1.3833746e-38
1.7025743 -0.2557444 -0.55308318 1.4476931e-38
1.710116 -0.2371376 -0.5555498 1.3738992e-38
1.7248876 -0.22323544 -0.55879146 1.2537185e-38
1.7590086 -0.19784668 -0.56709266 9.1270226e-39
1.7740368 -0.18459083 -0.57990319 9.1302849e-39
1.790139 -0.16737595 -0.57644445 8.4823931e-39
1.8099263 -0.15579206 -0.59286481 6.5452017e-39
1.8218527 -0.14715414 -0.58083707 8.4787834e-39
1.8459879 -0.13958225 -0.58603883 9.6801838e-39
1.8749804 -0.13120073 -0.59546447 8.2950956e-39
1.8945079 -0.12686606 -0.60934085 8.3876359e-39
1.9077238 -0.10637867 -0.60820436 9.9538756e-39
1.9110661 -0.088205509 -0.60925764 1.2439213e-38
1.6748973 -0.42994893 -0.51505804 1.8149231e-38
1.6737355 -0.40457001 -0.51676667 1.7961589e-38
1.6871263 -0.38044626 -0.51773214 1.5561948e-38
1.6987346 -0.37170273 -0.52789569 1.4731107e-38
1.725382 -0.37073028 -0.53271395 1.2341234e-38
1.7576947 -0.36720181 -0.53562671 1.0229795e-38
1.7360295 -0.34095359 -0.53151876 1.0606173e-38
1.7552427 -0.35651007 -0.53314209 1.0142305e-38
1.7175307 -0.30899751 -0.52715927 1.1620679e-38
1.7263858 -0.32306495 -0.52887076 1.1435589e-38
1.7143759 -0.28601697 -0.5258829 1.3464588e-38
1.7142251 -0.25836244 -0.52724564 1.254082e-38
1.72817 -0.24715352 -0.5220384 1.3091823e-38
1.7151096 -0.2371376 -0.5364297 1.2720856e-38
1.7323939 -0.22513877 -0.53085941 1.0694725e-38
1.7495844 -0.20750092 -0.51919085 5.6268733e-39
1.7614561 -0.19523729 -0.53738254 8.6671375e-39
1.7954085 -0.16513619 -0.54714203 7.8370181e-39
1.827332 -0.14398269 -0.55165863 8.6649823e-39
1.8540231 -0.13259654 -0.56252766 8.6656816e-39
1.880657 -0.12249357 -0.56937569 8.1128595e-39
1.886843 -0.11561101 -0.56745541 8.112142e-39
1.9070215 -0.10594972 -0.57963008 8.7560681e-39
1.9309238 -0.096128441 -0.58071244 9.126294e-39
1.9290552 -0.088733949 -0.58786696 1.1515099e-38
1.6876116 -0.43176365 -0.48738009 1.5196077e-38
1.6894634 -0.40640369 -0.48788786 1.528971e-38
1.6968682 -0.38318729 -0.48846614 1.1602946e-38
1.7732834 -0.36885232 -0.50858647 1.0505993e-38
1.7423335 -0.33692676 -0.50378299 1.1069323e-38
1.762831 -0.35362723 -0.50408721 1.0882768e-38
1.7239869 -0.30740061 -0.50243825 1.2822458e-38
1.7346587 -0.31897247 -0.49719343 1.1250462e-38
1.7222867 -0.28315982 -0.4992331 1.3188005e-38
1.7370919 -0.28246117 -0.48787653 1.1896182e-38
1.7240564 -0.25936922 -0.50217271 1.2448625e-38
1.7344434 -0.25101528 -0.49801838 1.2263148e-38
1.7406712 -0.22595522 -0.5026657 1.1064595e-38
1.7538129 -0.20750092 -0.5029999 1.179963e-38
1.7718379 -0.1941772 -0.50917441 9.591242e-39
1.7930398 -0.18459083 -0.50714004 7.4696719e-39
1.8039901 -0.16742134 -0.51962483 7.1916459e-39
1.8334205 -0.15897065 -0.51675576 8.9451383e-39
1.8339216 -0.14427376 -0.5310632 9.6812852e-39
1.8563007 -0.13455045 -0.53006184 7.8384474e-39
1.8826567 -0.12215045 -0.53995275 7.9270347e-39
1.893842 -0.11320245 -0.54065579 7.9277466e-39
1.9130259 -0.10142019 -0.55162632 8.2965305e-39
1.6879174 -0.427885 -0.45850742 1.630602e-38
1.6934918 -0.40561104 -0.4589285 1.5290436e-38
1.7008157 -0.38679779 -0.46294001 1.1607992e-38
1.7810972 -0.36780921 -0.48031598 1.0690367e-38
1.7557526 -0.33710825 -0.47578672 9.4069082e-39
1.7716812 -0.35363302 -0.48009366 1.0515774e-38
1.7412744 -0.31445873 -0.47186327 9.4076228e-39
1.7300901 -0.28983486 -0.4790692 9.8707772e-39
1.7424238 -0.2844798 -0.4716273 1.0331021e-38
1.747704 -0.25541282 -0.47444993 1.0146254e-38
1.7712485 -0.24439998 -0.47185549 1.023772e-38
1.7548287 -0.23383486 -0.48591939 1.2538268e-38
1.7696298 -0.22438034 -0.47805393 8.0243002e-39
1.7780317 -0.19957162 -0.48018152 7.3781909e-39
1.8008704 -0.18772183 -0.49298635 5.5353601e-39
1.7911477 -0.1768 -0.4748109 3.7750532e-39
1.8132874 -0.16661483 -0.48717526 4.793835e-39
1.8349459 -0.16407983 -0.5044843 6.0816732e-39
1.8201463 -0.13820183 -0.48249808 8.2050537e-39
1.8412269 -0.14000575 -0.4984549 5.3462815e-39
1.8627049 -0.12927523 -0.50751919 5.0711506e-39
1.8881036 -0.12215045 -0.51909631 6.3633187e-39
1.8713771 -0.10301651 -0.49607873 7.2784381e-39
1.8958688 -0.10906146 -0.51657146 6.3582797e-39
1.9084003 -0.10172477 -0.52844399 8.1114106e-39
1.6974983 -0.42944476 -0.42851847 1.3264628e-38
1.7009938 -0.40566522 -0.43091527 1.5843614e-38
1.7036097 -0.38399348 -0.43008024 1.1141978e-38
1.7413249 -0.37113249 -0.42892745 1.1791655e-38
1.7504746 -0.36411008 -0.4366338 1.3993211e-38
1.7902105 -0.36880612 -0.46520802 1.0126813e-38
1.741444 -0.34511453 -0.43050691 8.3001711e-39
1.7622386 -0.34402692 -0.44875321 9.5927302e-39
1.778067 -0.35190678 -0.46157816 8.8573371e-39
1.7375796 -0.31412712 -0.43096423 8.3931234e-39
1.7487369 -0.3156884 -0.45048299 8.8551581e-39
1.7346921 -0.28300852 -0.43630704 8.6711452e-39
1.7457349 -0.28687462 -0.45478228 9.9618742e-39
1.7374915 -0.25530219 -0.43292016 8.3016298e-39
1.7511302 -0.25558347 -0.45391059 8.0235968e-39
1.7422172 -0.23149145 -0.4326345 8.8547994e-39
1.7517295 -0.22261691 -0.44721857 6.6399407e-39
1.760668 -0.1961692 -0.44377318 8.3938114e-39
1.7754575 -0.18738401 -0.45573974 7.7473616e-39
1.7851539 -0.16553944 -0.45225045 9.2224889e-39
1.8034052 -0.15040734 -0.46745107 8.4834665e-39
1.7980208 -0.14960001 -0.4484936 1.0882007e-38
1.8171438 -0.13411191 -0.46035659 9.7752955e-39
1.8245115 -0.11747156 -0.46578345 9.2217714e-39
1.8496315 -0.11107522 -0.46408269 9.6827342e-39
1.8747112 -0.098262519 -0.47661534 9.4961597e-39
1.9054873 -0.08340393 -0.47740954 1.0785447e-38
1.9230888 -0.07266055 -0.47220197 1.1803217e-38
1.7122391 -0.42993957 -0.40171486 1.344472e-38
1.7094779 -0.40574703 -0.39985383 1.6028001e-38
1.7183299 -0.38586056 -0.39943904 1.160547e-38
1.7437295 -0.37257615 -0.40818673 7.8334098e-39
1.7538203 -0.37735045 -0.42382312 3.2214913e-39
1.7453341 -0.34522784 -0.40823299 1.1528489e-38
1.7424424 -0.3151094 -0.40755084 1.1990551e-38
1.7343763 -0.28425744 -0.40566993 1.1530299e-38
1.7399821 -0.25660533 -0.40881273 1.0791632e-38
1.7605116 -0.25156698 -0.39820173 1.1805047e-38
1.74586 -0.23043153 -0.41512382 1.0974577e-38
1.7609097 -0.22165452 -0.40798548 1.1619582e-38
1.7666544 -0.2023312 -0.41920242 1.1435906e-38
1.7849882 -0.18890552 -0.4192467 1.0883099e-38
1.7930806 -0.16557477 -0.42288959 1.0053334e-38
1.8111792 -0.15040734 -0.43768433 1.0695821e-38
1.8025992 -0.14354602 -0.41965568 8.577844e-39
1.8196814 -0.13148929 -0.43151253 9.0377431e-39
1.8332421 -0.11747156 -0.43235424 9.406513e-39
1.8566078 -0.10845688 -0.43786487 1.0049708e-38
1.8821622 -0.097922198 -0.44607669 1.1059531e-38
1.9071678 -0.093409173 -0.4460988 1.2075835e-38
1.9142307 -0.083095416 -0.46258745 1.2353486e-38
1.9438602 -0.087882571 -0.45466757 1.2537525e-38
1.7118714 -0.42706835 -0.37074417 1.7034228e-38
1.7135468 -0.40567756 -0.36897558 1.5752132e-38
1.7239761 -0.38480598 -0.37336788 1.2432354e-38
1.7509345 -0.37341222 -0.38144749 8.1096043e-39
1.7663666 -0.3674202 -0.37578303 7.6482786e-39
1.7555331 -0.34676671 -0.38164741 1.1712512e-38
1.7672031 -0.33762935 -0.37258035 1.1713217e-38
1.7550285 -0.31493166 -0.38148451 1.1621758e-38
1.7663666 -0.3210789 -0.37578303 1.0976026e-38
1.7500217 -0.28374451 -0.37900516 1.1438822e-38
1.7672031 -0.27142751 -0.37258035 1.0879147e-38
1.7489973 -0.26610273 -0.38886443 1.1159683e-38
1.7648615 -0.25421503 -0.38154793 1.0513231e-38
1.7738055 -0.22562131 -0.3849889 9.5920127e-39
1.7793841 -0.19308302 -0.38282621 9.0399193e-39
1.7895679 -0.19581896 -0.40171039 9.3161391e-39
1.784258 -0.17403303 -0.38642552 9.0388333e-39
1.7932196 -0.16238718 -0.39267585 9.2228602e-39
1.8039446 -0.14216638 -0.39415234 9.8674996e-39
1.8254536 -0.12674312 -0.39885691 1.0234472e-38
1.8391402 -0.1173468 -0.40185484 1.0142265e-38
1.8607494 -0.1117945 -0.4101344 1.0142629e-38
1.8893375 -0.10285504 -0.41642532 1.134006e-38
1.9144304 -0.093409173 -0.41829026 1.1430463e-38
1.932269 -0.094458714 -0.4370507 1.2355292e-38
1.724498 -0.42934209 -0.34506175 1.6942754e-38
1.7204161 -0.40389308 -0.34126416 1.5197885e-38
1.7323312 -0.38407773 -0.34420976 1.2800056e-38
1.7583675 -0.3723782 -0.35417366 8.1989272e-39
1.7747308 -0.3674202 -0.34375632 7.186967e-39
1.7608833 -0.35241282 -0.36116153 1.0419252e-38
1.7764896 -0.34302497 -0.35285261 9.7756739e-39
1.7633506 -0.3114444 -0.34961948 1.0700174e-38
1.7694335 -0.32218227 -0.3640399 1.0238108e-38
1.7628564 -0.28530344 -0.35021341 1.0883465e-38
1.7705487 -0.27308255 -0.35976967 1.0513599e-38
1.7639675 -0.25302428 -0.34935203 1.0607609e-38
1.768876 -0.25818714 -0.36617503 1.0147705e-38
1.764555 -0.22590069 -0.34710258 9.8704031e-39
1.7709379 -0.22109999 -0.36322606 9.1324807e-39
1.7662929 -0.19926146 -0.34044802 9.5023352e-39
1.772103 -0.19411837 -0.35629365 9.3165048e-39
1.7819604 -0.1686113 -0.35564837 9.4998073e-39
1.798161 -0.15471193 -0.36880726 9.3157831e-39
1.8090504 -0.13757323 -0.36435905 9.5905497e-39
1.8296064 -0.12306055 -0.36712611 9.9582505e-39
1.8391377 -0.11684771 -0.37020513 1.0234095e-38
1.8683237 -0.10862998 -0.37805435 1.1063122e-38
1.8929089 -0.096782051 -0.38944963 1.0876924e-38
1.7186968 -0.42573911 -0.30899176 1.5933639e-38
1.7107249 -0.40519267 -0.30390036 1.6581897e-38
1.7198565 -0.40258995 -0.31167421 1.5751417e-38
1.7382699 -0.38250864 -0.31240416 1.3166676e-38
1.7668244 -0.37601906 -0.32416639 1.0319041e-38
1.7879829 -0.36703414 -0.32467356 7.0969041e-39
1.773367 -0.33594495 -0.31336111 7.746305e-39
1.7900872 -0.34775829 -0.32980666 7.1019936e-39
1.7693906 -0.31591558 -0.3226504 1.0606523e-38
1.7822586 -0.30452845 -0.31493226 1.0512177e-38
1.7705928 -0.28324768 -0.32398337 1.0516137e-38
1.7822586 -0.29790828 -0.31493226 1.0699445e-38
1.7689257 -0.25426334 -0.32198727 1.0331744e-38
1.7706852 -0.22542709 -0.32362932 1.0239177e-38
1.7814223 -0.21184587 -0.31813493 1.0790912e-38
1.7708703 -0.20420183 -0.32292119 1.0790901e-38
1.7797496 -0.19198535 -0.32454035 1.0237725e-38
1.7894131 -0.16606312 -0.32711288 9.5916372e-39
1.8041101 -0.15471193 -0.34602815 1.1064961e-38
1.8003261 -0.14725871 -0.32490012 8.9451845e-39
1.8152955 -0.13508257 -0.33444408 9.7738508e-39
1.8353649 -0.12306055 -0.34507668 1.0418137e-38
1.8499525 -0.11475229 -0.34198663 1.0877659e-38
1.8770115 -0.10480872 -0.34935045 1.0509947e-38
1.9011917 -0.094746321 -0.36015233 1.0508511e-38
1.9307714 -0.086223848 -0.355721 1.1891431e-38
1.9638778 -0.087867893 -0.37670019 1.1890711e-38
1.7317548 -0.4284673 -0.28273737 1.4833075e-38
1.7307597 -0.4034906 -0.279899 1.6212027e-38
1.7462834 -0.38239968 -0.28350127 1.3167755e-38
1.7716732 -0.37568623 -0.29313448 1.0224705e-38
1.7965539 -0.37360364 -0.29977083 7.7415546e-39
1.8155227 -0.36611947 -0.30232954 5.6246649e-39
1.7783604 -0.33594495 -0.29424092 8.672213e-39
1.7917253 -0.34654236 -0.29847166 5.2519447e-39
1.7779689 -0.31385863 -0.29574057 9.5008863e-39
1.7884721 -0.32155177 -0.291141 9.0377501e-39
1.7751522 -0.2832599 -0.29316711 8.8544477e-39
1.7726799 -0.25360328 -0.29394215 9.3150559e-39
1.7724552 -0.22503768 -0.29418564 8.4849351e-39
1.7766374 -0.19624218 -0.29309437 7.8388482e-39
1.7811347 -0.17346175 -0.28361866 8.2065559e-39
1.7877964 -0.16437934 -0.29732755 8.4845609e-39
1.7951984 -0.14295779 -0.29704541 8.3912723e-39
1.8242373 -0.12842323 -0.30523866 8.9426384e-39
1.8551155 -0.11251042 -0.31262356 9.3106922e-39
1.8854327 -0.10138991 -0.32254753 8.8500728e-39
1.9044778 -0.091834858 -0.32580331 9.8634905e-39
1.7492187 -0.42913473 -0.25544226 1.4570919e-38
1.725715 -0.3988367 -0.24650322 1.2076952e-38
1.7332023 -0.41315475 -0.2534506 1.4008016e-38
1.7271872 -0.38771376 -0.24086595 1.0053336e-38
1.7470347 -0.37778196 -0.25391224 9.2167169e-39
1.7763445 -0.36811253 -0.26634297 7.0997992e-39
1.8072215 -0.36680123 -0.27211481 4.8006454e-39
1.8231641 -0.36541373 -0.2829642 3.5949373e-39
1.7841736 -0.34612715 -0.25615251 4.519067e-39
1.7993033 -0.34901202 -0.27165413 3.4087454e-39
1.784391 -0.31521925 -0.26402608 7.9321242e-39
1.7922957 -0.32438898 -0.2765002 8.9440873e-39
1.7753166 -0.28547436 -0.26010305 8.5778468e-39
1.7616817 -0.25025421 -0.2512531 8.0228891e-39
1.7685312 -0.255485 -0.26262388 8.2087195e-39
1.763087 -0.22708257 -0.24587239 9.129566e-39
1.7725068 -0.22408663 -0.26322982 8.3001823e-39
1.763087 -0.20113027 -0.24587239 1.0881615e-38
1.7782567 -0.1951451 -0.26241294 8.0221478e-39
1.7856187 -0.16656752 -0.26288605 8.5763964e-39
1.7922957 -0.15557432 -0.2765002 8.0225164e-39
1.8007727 -0.14079562 -0.26778698 8.3898388e-39
1.8272649 -0.12707831 -0.2756339 9.2184952e-39
1.8435553 -0.1156 -0.27414149 9.0344473e-39
1.8658599 -0.10675168 -0.28437454 8.665683e-39
1.8872772 -0.093619399 -0.29216364 9.4003557e-39
1.9089404 -0.091834858 -0.30871588 1.1055561e-38
1.7470237 -0.42714727 -0.2231928 1.4755667e-38
1.7323681 -0.40283158 -0.21865426 1.0885293e-38
1.7413093 -0.41387036 -0.23428191 1.1434873e-38
1.7331393 -0.37687123 -0.21807599 9.5920015e-39
1.7419527 -0.3696619 -0.23330249 7.6544499e-39
1.7574996 -0.35146788 -0.22571458 7.6544303e-39
1.7861445 -0.33786458 -0.23594309 5.624309e-39
1.8031693 -0.33100918 -0.23486549 6.1771268e-39
1.7904344 -0.31749579 -0.23613755 7.1019866e-39
1.7680054 -0.27620655 -0.2270398 8.7618667e-39
1.7757699 -0.29127583 -0.2329278 8.0243269e-39
1.7642449 -0.25427291 -0.2268699 8.5789272e-39
1.7661861 -0.22550495 -0.23004839 8.3945345e-39
1.7674197 -0.19927655 -0.22928177 7.7469987e-39
1.7756324 -0.18476452 -0.23345351 8.1154029e-39
1.786477 -0.16496843 -0.23467 8.4827532e-39
1.8023328 -0.15226422 -0.23806816 8.943737e-39
1.8086624 -0.13902044 -0.23757651 8.9437216e-39
1.8348119 -0.1256133 -0.24825871 8.8504315e-39
1.8475692 -0.11547524 -0.25085703 9.2192057e-39
1.871464 -0.10386588 -0.25721988 9.0333795e-39
1.9018108 -0.092337616 -0.26240745 9.0322991e-39
1.9061271 -0.084330276 -0.27991432 1.1146689e-38
1.9196507 -0.084770642 -0.26770604 1.0414148e-38
1.743248 -0.42584953 -0.17936897 1.5128777e-38
1.7529792 -0.42869762 -0.19715303 1.4573088e-38
1.7345899 -0.4030754 -0.19047062 1.1347701e-38
1.7313547 -0.37312853 -0.19071475 9.6849272e-39
1.7374393 -0.34946954 -0.1857806 7.3793064e-39
1.7624831 -0.34169537 -0.19832066 6.9161478e-39
1.7879629 -0.33369908 -0.20998438 5.0697017e-39
1.7769053 -0.31142756 -0.19296184 5.5350126e-39
1.7885749 -0.31915963 -0.20855476 5.4413751e-39
1.7727554 -0.28519249 -0.2017293 7.7477316e-39
1.7689921 -0.25359958 -0.19951855 8.0246828e-39
1.7670628 -0.22552766 -0.19948356 7.8402873e-39
1.7713088 -0.19480169 -0.20103587 7.378219e-39
1.7803011 -0.18259081 -0.21557663 7.5582942e-39
1.7757342 -0.17239738 -0.19744579 8.2987221e-39
1.7914158 -0.1603076 -0.20654008 8.4827504e-39
1.8008312 -0.14491743 -0.20820023 8.9444447e-39
1.8187959 -0.13254367 -0.2115602 9.0348326e-39
1.8381048 -0.12107889 -0.21586193 8.8511532e-39
1.8522899 -0.11188808 -0.22090924 8.7571639e-39
1.8761586 -0.10059483 -0.2284514 9.3099579e-39
1.894884 -0.090355963 -0.23985782 9.4918353e-39
1.8882442 -0.089831196 -0.22175017 9.5901462e-39
1.9043975 -0.083746798 -0.23410155 9.5858302e-39
1.9232209 -0.084770642 -0.25403613 9.7659405e-39
1.7483339 -0.42796814 -0.15989491 1.622897e-38
1.758764 -0.43125689 -0.15557438 1.4938607e-38
1.7433819 -0.40570876 -0.16049221 1.1530297e-38
1.7369457 -0.37370488 -0.15962377 9.5920057e-39
1.7409593 -0.34496975 -0.16026433 8.2065391e-39
1.7566115 -0.33222753 -0.16381657 6.8239592e-39
1.7769492 -0.31685078 -0.16999927 5.5314071e-39
1.7718089 -0.28552425 -0.17038377 7.7491595e-39
1.7512784 -0.26059449 -0.14862049 8.6743472e-39
1.7644196 -0.25570497 -0.16798817 7.8395755e-39
1.7508769 -0.22722569 -0.15015788 8.5781929e-39
1.7622347 -0.22390635 -0.1686098 8.393094e-39
1.7707773 -0.19331579 -0.16941151 8.2079712e-39
1.7830585 -0.17104921 -0.16940068 8.7600436e-39
1.8013762 -0.15692531 -0.1755846 8.7586115e-39
1.8088763 -0.14381957 -0.17739551 8.5738615e-39
1.8243413 -0.13243409 -0.1820647 9.3106978e-39
1.8457536 -0.12107889 -0.1865745 9.4950821e-39
1.8559707 -0.11164955 -0.19098566 8.7568066e-39
1.8792651 -0.099388987 -0.19676965 9.3110369e-39
1.9036655 -0.090355963 -0.20623334 9.1252052e-39
1.8961016 -0.089831196 -0.19166388 8.9368692e-39
1.9140108 -0.083845876 -0.20619541 9.3121075e-39
1.9339311 -0.084770642 -0.21302631 8.2925858e-39
1.7511634 -0.42623559 -0.13481417 1.5948759e-38
1.7465003 -0.40406513 -0.12997848 1.0976749e-38
1.7414711 -0.37301171 -0.1299082 9.7763998e-39
1.7328987 -0.35372108 -0.11610254 8.576807e-39
1.7450722 -0.3430874 -0.12993048 8.2994592e-39
1.7526735 -0.32509908 -0.12992178 7.378205e-39
1.7728479 -0.31185338 -0.13904466 5.3462942e-39
1.7556378 -0.27603039 -0.13192849 7.7470155e-39
1.7692941 -0.28904274 -0.13991216 7.0105183e-39
1.7533562 -0.25410867 -0.12879121 7.379298e-39
1.7610704 -0.25190881 -0.14674346 8.1161568e-39
1.7545731 -0.22649783 -0.13006936 7.5618886e-39
1.762262 -0.21296637 -0.14218082 7.7473616e-39
1.7577027 -0.20656881 -0.12402169 8.3934177e-39
1.7719365 -0.19318281 -0.13913517 7.7455525e-39
1.7853566 -0.17015597 -0.13834147 7.9292179e-39
1.8033932 -0.15362568 -0.14496522 8.2979864e-39
1.8141598 -0.14231792 -0.1474511 9.4958024e-39
1.8350321 -0.12645625 -0.15243635 8.9408363e-39
1.8500029 -0.12107889 -0.17030375 9.1262687e-39
1.8606018 -0.10987389 -0.15850291 8.7582401e-39
1.8851459 -0.098470181 -0.16930519 8.6653256e-39
1.8995724 -0.08772058 -0.16706823 8.4787806e-39
1.9152936 -0.081878908 -0.18149729 9.9563811e-39
1.7609148 -0.42584953 -0.11172231 1.3555674e-38
1.7549664 -0.40363598 -0.10264063 1.2267494e-38
1.7388752 -0.36798128 -0.093219154 1.0698713e-38
1.7487607 -0.37883541 -0.1024968 1.0515056e-38
1.7374328 -0.34774905 -0.096762411 9.3143356e-39
1.7462815 -0.33985317 -0.10047686 8.7615262e-39
1.7404921 -0.30927119 -0.087027118 6.826134e-39
1.7531718 -0.31633332 -0.10426881 7.0079889e-39
1.7599827 -0.28747889 -0.099901736 5.6279313e-39
1.7698857 -0.28537497 -0.11298968 6.5455674e-39
1.7515277 -0.25552121 -0.10101014 7.7495294e-39
1.7527246 -0.22742321 -0.10188855 7.7466301e-39
1.7625209 -0.20021284 -0.10557269 8.3912793e-39
1.7716793 -0.18528074 -0.10612115 8.6678536e-39
1.7884135 -0.16771559 -0.11031285 8.666769e-39
1.8133321 -0.15074496 -0.1247177 8.9429929e-39
1.820112 -0.14124952 -0.11656608 8.5752866e-39
1.8337678 -0.12740143 -0.12649752 8.9437076e-39
1.8434427 -0.11982385 -0.1202321 8.8504287e-39
1.8683547 -0.1049006 -0.13262601 9.0337438e-39
1.902822 -0.085678287 -0.13954906 9.0319543e-39
1.9333193 -0.073979557 -0.14526674 9.8631387e-39
1.9517816 -0.06357798 -0.14467663 9.0315844e-39
1.7645622 -0.40171766 -0.074942634 1.282139e-38
1.7444048 -0.36925083 -0.069784157 1.0976035e-38
1.7572091 -0.38278258 -0.066550232 1.1806508e-38
1.7376952 -0.34278253 -0.067341082 9.8685968e-39
1.740199 -0.31379545 -0.068002626 8.4845693e-39
1.7414631 -0.28790802 -0.062203128 5.996711e-39
1.7563474 -0.2814905 -0.078981742 5.7161543e-39
1.7452422 -0.25543526 -0.063561797 7.7473546e-39
1.7548552 -0.25856093 -0.081217363 6.9172534e-39
1.7584159 -0.226689 -0.073800609 8.5753076e-39
1.7660235 -0.20020528 -0.075290672 8.7600674e-39
1.7815932 -0.18675008 -0.075284265 9.220656e-39
1.7974244 -0.16814801 -0.080473177 8.9440789e-39
1.8211291 -0.1524996 -0.089775234 9.2167127e-39
1.8288702 -0.14140587 -0.090153553 8.1132463e-39
1.8412484 -0.12918073 -0.094006389 8.5742132e-39
1.855271 -0.11680733 -0.094729155 9.0340997e-39
1.875316 -0.10537541 -0.10503967 9.0348214e-39
1.8975569 -0.095713757 -0.10694281 9.4965352e-39
1.9119645 -0.086137623 -0.11113788 9.4957996e-39
1.9397182 -0.073466063 -0.11963397 9.4943604e-39
1.9571368 -0.06357798 -0.1241717 9.8631303e-39
1.9571366 -0.05651376 -0.1241717 9.3135467e-39
1.7684518 -0.39553481 -0.047245294 1.2912859e-38
1.7519963 -0.36751029 -0.040099151 1.1802916e-38
1.7644048 -0.38221973 -0.042954624 1.1897991e-38
1.7413397 -0.34249353 -0.037611831 1.0789827e-38
1.7402488 -0.3145026 -0.036512949 9.3136195e-39
1.7412949 -0.28597489 -0.037097372 8.5753188e-39
1.7475431 -0.25580889 -0.037233852 7.7441176e-39
1.7667116 -0.22727224 -0.04377798 9.3128642e-39
1.7769234 -0.20282397 -0.04567647 8.9444559e-39
1.7993702 -0.18560115 -0.049408853 9.4961667e-39
1.8105654 -0.16841808 -0.053118035 9.3124943e-39
1.8266307 -0.15403724 -0.053444851 9.3128502e-39
1.8316469 -0.14311327 -0.061065465 9.6798405e-39
1.8541971 -0.12726773 -0.066876575 8.4791659e-39
1.8648946 -0.11620404 -0.061836973 9.8627758e-39
1.8831747 -0.10605174 -0.074948788 9.4954296e-39
1.9078912 -0.095842198 -0.077266254 9.4961597e-39
1.9188452 -0.086495012 -0.082593262 9.5894287e-39
1.9492127 -0.07393273 -0.090754598 9.4947149e-39
1.9651694 -0.06357798 -0.093414322 9.7702411e-39
1.9774123 -0.056917429 -0.10095072 9.2181225e-39
2.0016952 -0.050391436 -0.098663203 9.4943492e-39
1.7749318 -0.39202204 -0.022434508 1.3460987e-38
1.7585211 -0.36581653 -0.010079436 1.2174219e-38
1.7751449 -0.38094899 -0.015681699 1.3095447e-38
1.7516085 -0.3419272 -0.0075249402 1.0882024e-38
1.7465056 -0.31349802 -0.0070157782 1.0329206e-38
1.7514628 -0.28635067 -0.0070275962 9.2210372e-39
1.7560582 -0.2617951 -0.01159372 9.2231994e-39
1.7757785 -0.24731709 -0.0076790527 9.2199511e-39
1.7779608 -0.22708666 -0.017586282 9.2195924e-39
1.7969722 -0.21296637 -0.0092752604 9.0348452e-39
1.7842029 -0.20974679 -0.022551708 9.1291975e-39
1.8072202 -0.19334066 -0.020916866 8.3901919e-39
1.8203313 -0.16977124 -0.026682226 8.8515246e-39
1.8428059 -0.1560445 -0.029670812 9.3114195e-39
1.8457727 -0.14327064 -0.03611875 9.7720361e-39
1.8611676 -0.13115229 -0.035873026 9.4954632e-39
1.8856974 -0.12107889 -0.033629198 1.1981107e-38
1.8670758 -0.11680734 -0.049527775 1.0416317e-38
1.8937891 -0.11110091 -0.042221125 1.0602134e-38
1.918658 -0.0994578 -0.050880156 1.014009e-38
1.9298973 -0.087448321 -0.055664122 1.0048249e-38
1.9553779 -0.080463313 -0.058682706 1.050634e-38
1.9776162 -0.068448931 -0.065103099 1.0140807e-38
2.0099401 -0.057644036 -0.0743481 9.30853e-39
2.042887 -0.049474314 -0.082747787 8.8504329e-39
2.0607848 -0.044366974 -0.083472729 8.2036076e-39
1.7930363 -0.39406973 0.011271656 1.6801549e-38
1.800739 -0.39611745 0.0051485817 1.6236893e-38
1.7708659 -0.36311194 0.029274607 1.373865e-38
1.7839049 -0.37552711 0.01324373 1.2910341e-38
1.800739 -0.38972846 0.0051485817 1.2709774e-38
1.7627245 -0.34335819 0.022163108 1.2080929e-38
1.7802082 -0.35244036 0.029429035 1.1342326e-38
1.7603855 -0.31410608 0.022471061 1.0512495e-38
1.7610067 -0.2880964 0.021744382 1.0602531e-38
1.7782203 -0.27219725 0.021817356 9.6802272e-39
1.76612 -0.26711681 0.011102454 7.4725894e-39
1.7858438 -0.25239673 0.014766485 9.7724047e-39
1.7916088 -0.23022713 0.0058052572 9.1263248e-39
1.8061416 -0.22035547 0.013115074 8.9437216e-39
1.8224602 -0.19395967 0.0052121594 8.2983592e-39
1.8278458 -0.17517798 0.0020896769 8.4856259e-39
1.8475518 -0.16142091 -0.0031878359 8.6664186e-39
1.8625551 -0.15226422 -0.0074757813 9.6827117e-39
1.8683023 -0.13902287 -0.009213483 1.0232643e-38
1.8939881 -0.12415045 -0.013191452 1.0324129e-38
1.9028432 -0.11513211 -0.017445715 1.0231937e-38
1.9316455 -0.10397064 -0.024785955 1.0601424e-38
1.9576492 -0.093431927 -0.024065373 1.004753e-38
1.9635141 -0.084088072 -0.03841294 1.0878724e-38
1.9874893 -0.071986727 -0.03808862 9.9560574e-39
2.0011694 -0.057159632 -0.042633817 1.0142956e-38
2.0106599 -0.057482567 -0.049826786 8.9408489e-39
2.0484412 -0.051311925 -0.061480321 9.219563e-39
2.0645218 -0.044366974 -0.06916368 8.9372168e-39
1.7724478 -0.36311194 0.035332013 1.1431986e-38
1.7885125 -0.37305322 0.029566286 1.133187e-38
1.7747079 -0.34701332 0.043985385 1.3557851e-38
1.7870784 -0.33918479 0.051212505 1.3275871e-38
1.7709026 -0.31367707 0.04920239 1.0418169e-38
1.7873646 -0.32726607 0.056831066 1.328018e-38
1.7698869 -0.29331294 0.046631698 1.0878766e-38
1.7918997 -0.27949274 0.046493582 1.014082e-38
1.7940698 -0.25696078 0.034656461 9.4961807e-39
1.8224089 -0.25288928 0.04459076 9.1284814e-39
1.823818 -0.22510649 0.037548527 8.7593485e-39
1.8331234 -0.19347976 0.032011267 8.7582583e-39
1.8348135 -0.17517798 0.028769128 1.0046095e-38
1.8526338 -0.16454448 0.030221758 9.8577311e-39
1.8712538 -0.15461163 0.019235792 9.3085006e-39
1.8859044 -0.14573944 0.022566663 1.0408004e-38
1.9070078 -0.13088207 0.011991286 9.8616898e-39
1.940742 -0.1237211 0.018839579 1.226525e-38
1.9148639 -0.1156 -0.0010995164 9.8678247e-39
1.9378313 -0.11120551 0.0010984825 1.0324478e-38
1.9689208 -0.097918652 -0.0045183823 1.0784003e-38
1.9901601 -0.09536697 0.0022752441 9.9574994e-39
2.0008318 -0.081850767 -0.01490553 1.023588e-38
2.0238211 -0.071974307 -0.013942101 1.0044655e-38
2.0442679 -0.065394498 -0.0082051652 1.1982526e-38
2.0235958 -0.057644036 -0.022060568 1.0136871e-38
2.0424318 -0.058128443 -0.01523541 1.1153519e-38
1.7761834 -0.30916327 0.065465041 1.3191969e-38
1.7905452 -0.30209175 0.069009773 1.4385796e-38
1.7979583 -0.28771192 0.064745426 1.1800695e-38
1.8356719 -0.27432844 0.067673437 1.105989e-38
1.8383598 -0.25459078 0.06484165 1.0048987e-38
1.8403962 -0.22459911 0.06326735 9.3985803e-39
1.8389114 -0.19389792 0.062927417 1.2067189e-38
1.7838928 -0.1562691 0.089708 7.0882889e-39
1.8379869 -0.16743672 0.06585253 1.2064303e-38
1.8570361 -0.15606362 0.048562415 1.2247249e-38
1.7806098 -0.14093652 0.091911577 5.6171035e-39
1.8399091 -0.14488368 0.069650501 1.1328889e-38
1.8608929 -0.13837226 0.05739386 1.2062477e-38
1.8802962 -0.13940918 0.040667851 1.2155372e-38
1.9174061 -0.13901469 0.028421668 9.6718559e-39
1.9472945 -0.13150091 0.035134159 8.7495871e-39
1.97816 -0.12576881 0.039432649 1.1981838e-38
1.9511038 -0.11747156 0.01894016 1.1798905e-38
1.983843 -0.11467522 0.024916366 1.1523015e-38
1.9982202 -0.10064831 0.0186271 1.0970555e-38
2.0333104 -0.079344161 0.0058079497 9.4943604e-39
2.0698717 -0.06615413 -0.0011884973 1.1520127e-38
1.8438233 -0.27111194 0.098885261 1.1112455e-38
1.8577479 -0.27388623 0.08096876 1.2534997e-38
1.8442385 -0.25702292 0.088602059 1.4194215e-38
1.8619857 -0.24386175 0.085322402 9.3985789e-39
1.8476624 -0.22020051 0.090688765 1.611983e-38
1.8593957 -0.23475963 0.087278239 1.4002898e-38
1.7895967 -0.18113029 0.11682497 1.1424e-38
1.812742 -0.18755524 0.10809504 1.2345211e-38
1.8347116 -0.19776386 0.093327127 1.4095127e-38
1.7821405 -0.16353782 0.10931162 1.1239585e-38
1.8064344 -0.17496879 0.09687075 1.0410178e-38
1.8274065 -0.16583531 0.084997639 1.022398e-38
1.7755506 -0.13618673 0.1105327 1.2065009e-38
1.8086612 -0.1331633 0.087919071 7.5513746e-39
1.8373892 -0.13214679 0.083152875 9.0218202e-39
1.8561002 -0.13042201 0.07465928 1.1600421e-38
1.7912629 -0.11667767 0.1179284 1.1142315e-38
1.8042876 -0.11669541 0.10579899 9.300942e-39
1.9901804 -0.11478287 0.041926999 1.2255916e-38
1.9999778 -0.11302752 0.039867595 1.1796353e-38
1.8204132 -0.21870826 0.13390613 1.7415612e-38
1.8408396 -0.21668361 0.11798924 1.6125592e-38
1.7906861 -0.18996331 0.13999143 1.391038e-38
1.8169132 -0.20065744 0.12948613 1.3633797e-38
1.8337169 -0.20497616 0.11361242 1.529404e-38
1.7603287 -0.16065167 0.14062828 1.3542677e-38
1.7771549 -0.17210943 0.13286294 1.391073e-38
1.7624825 -0.13905632 0.13994545 1.1969969e-38
1.7761394 -0.12748347 0.13504615 1.0771404e-38
1.7890059 -0.11162081 0.1367235 1.1047618e-38
