# .PCD v0.7 - Point Cloud Data file format
VERSION 0.7
FIELDS x y z rgb
SIZE 4 4 4 4
TYPE F F F F
COUNT 1 1 1 1
WIDTH 1027
HEIGHT 1
VIEWPOINT 0 0 0 1 0 0 0
POINTS 1027
DATA ascii
6.3424168 -4.4680967 -1.2774184 4.6097815e-40
6.3953266 -4.8390656 -1.2064452 3.6878252e-40
6.3796368 -4.8473401 -1.2122391 3.6878252e-40
6.3562202 -4.8255196 -1.2176994 9.219563e-40
6.3590221 -4.8590531 -1.223827 2.7658689e-40
6.3399215 -4.8328409 -1.2176994 3.6878252e-40
6.3198466 -4.8414469 -1.21575 3.6878252e-40
6.2993536 -4.8176651 -1.2234248 3.6878252e-40
6.2783661 -4.7930527 -1.2313974 2.7658689e-40
6.283833 -4.8271365 -1.2352325 2.7658689e-40
6.2639112 -4.8003869 -1.2353716 5.5317378e-40
6.2465534 -4.7724366 -1.2352802 2.7658689e-40
6.2233706 -4.7470541 -1.2349582 2.7658689e-40
6.2325735 -4.778717 -1.2352802 2.7658689e-40
6.4330578 -4.3813748 -1.260523 2.7658689e-40
6.430438 -4.4648209 -1.2535797 2.7658689e-40
6.4219928 -4.4259734 -1.2472945 3.6878252e-40
6.4200406 -4.5083303 -1.2471765 3.6878252e-40
6.4038773 -4.4744987 -1.2429323 4.6097815e-40
6.4040017 -4.4340553 -1.2472945 2.7658689e-40
6.4082909 -4.5136089 -1.2471765 3.6878252e-40
6.382452 -4.4850254 -1.2471912 4.6097815e-40
6.3596964 -4.4947062 -1.2446359 5.5317378e-40
6.3325481 -4.4675198 -1.2537497 5.5317378e-40
6.3118458 -4.4358253 -1.260523 7.3756504e-40
6.2903566 -4.4030609 -1.2605673 8.2976067e-40
6.3934927 -4.8349838 -1.1832696 5.5317378e-40
6.3773446 -4.8422379 -1.1832696 4.6097815e-40
6.3611965 -4.8494921 -1.1832696 5.5317378e-40
6.3367066 -4.8285918 -1.1907988 4.6097815e-40
6.3104434 -4.8398943 -1.1884596 5.5317378e-40
6.2731018 -4.7912111 -1.2115258 3.6878252e-40
6.2877865 -4.8475971 -1.1767637 3.6878252e-40
6.2691269 -4.8237462 -1.188002 2.7658689e-40
6.2560148 -4.7976251 -1.2055644 2.7658689e-40
6.2389278 -4.804039 -1.1996028 2.7658689e-40
6.4299612 -4.3744812 -1.2213817 2.7658689e-40
6.424046 -4.3402147 -1.2473832 2.7658689e-40
6.4204607 -4.4225626 -1.2279294 2.7658689e-40
6.4015183 -4.4692478 -1.2131196 4.6097815e-40
6.4029803 -4.4317818 -1.2343844 3.6878252e-40
6.3812895 -4.5163689 -1.2029115 3.6878252e-40
6.38586 -4.4767332 -1.2152491 4.6097815e-40
6.3700399 -4.5227609 -1.2092351 4.6097815e-40
6.3561845 -4.4900637 -1.2152491 4.6097815e-40
6.3365026 -4.4602785 -1.2279294 6.4536941e-40
6.3153257 -4.4273586 -1.2279052 5.5317378e-40
6.296628 -4.4343777 -1.2213817 9.219563e-40
6.2893133 -4.4007392 -1.2473832 9.219563e-40
6.3916593 -4.8309021 -1.1600939 7.3756504e-40
6.383729 -4.7995462 -1.1533718 4.6097815e-40
6.3750525 -4.8371363 -1.1543 4.6097815e-40
6.34937 -4.8483667 -1.1528515 4.6097815e-40
6.3275247 -4.860939 -1.1658878 4.6097815e-40
6.3081303 -4.8347445 -1.1592197 3.6878252e-40
6.2809653 -4.8469477 -1.1592199 3.6878252e-40
6.2562885 -4.8245153 -1.1643867 2.7658689e-40
6.2387371 -4.8323994 -1.1643867 2.7658689e-40
6.2370415 -4.799839 -1.1757571 2.7658689e-40
6.4289289 -4.3721838 -1.2083346 3.6878252e-40
6.4232368 -4.4540825 -1.1875658 3.6878252e-40
6.4239039 -4.4141846 -1.1956538 4.6097815e-40
6.414537 -4.4960794 -1.1776172 5.5317378e-40
6.3910379 -4.5066357 -1.1776171 4.6097815e-40
6.3600979 -4.4828968 -1.1896954 4.6097815e-40
6.335948 -4.4536963 -1.1956538 5.5317378e-40
6.3137774 -4.423912 -1.2083346 1.6595213e-39
6.3149366 -4.460402 -1.1827435 7.3756504e-40
6.3823409 -4.7964563 -1.135828 4.6097815e-40
6.3727608 -4.8320336 -1.1253304 1.1063476e-39
6.3458471 -4.8441238 -1.1253304 7.3756504e-40
6.3062797 -4.8306246 -1.135828 4.6097815e-40
6.2786522 -4.8417978 -1.12998 2.7658689e-40
6.253953 -4.8193159 -1.1348677 2.7658689e-40
6.2374988 -4.8267074 -1.1348677 2.7658689e-40
6.2377334 -4.8914642 -1.1195366 2.7658689e-40
6.435535 -4.4799547 -1.1459992 3.6878252e-40
6.4179325 -4.4528599 -1.17053 3.6878252e-40
6.4188261 -4.5241203 -1.1345719 5.5317378e-40
6.4184108 -4.4889855 -1.1523228 3.6878252e-40
6.4071932 -4.5293455 -1.1345719 5.5317378e-40
6.3867869 -4.5034599 -1.1535876 4.6097815e-40
6.361454 -4.5141258 -1.1502149 7.3756504e-40
6.3467112 -4.4848537 -1.17053 4.6097815e-40
6.3333249 -4.4868107 -1.1513647 5.5317378e-40
6.3134041 -4.4569912 -1.1633784 6.4536941e-40
6.3704686 -4.826932 -1.0963609 4.6097815e-40
6.343555 -4.8390217 -1.0963609 3.6878252e-40
6.3166413 -4.8511124 -1.0963609 2.7658689e-40
6.2931004 -4.8303561 -1.1065881 2.7658689e-40
6.2965989 -4.8592978 -1.0924984 3.6878252e-40
6.274682 -4.8378048 -1.1026895 3.6878252e-40
6.2546067 -4.8464103 -1.1007402 2.7658689e-40
6.2296782 -4.8239722 -1.1053486 2.7658689e-40
6.2212477 -4.7943153 -1.1161425 2.7658689e-40
6.2368169 -4.8894234 -1.1079488 2.7658689e-40
6.2279043 -4.859643 -1.1065881 2.7658689e-40
6.2187085 -4.8289003 -1.1053486 1.8439126e-40
6.2092276 -4.7971916 -1.1042196 2.7658689e-40
6.4345341 -4.4777269 -1.133352 3.6878252e-40
6.4258165 -4.5163417 -1.1126601 4.6097815e-40
6.4227848 -4.4830055 -1.133352 3.6878252e-40
6.4057074 -4.5260377 -1.1157904 4.6097815e-40
6.3806601 -4.4992514 -1.1207049 3.6878252e-40
6.357161 -4.5098081 -1.1207049 6.4536941e-40
6.339036 -4.5166111 -1.1143813 6.4536941e-40
6.3189278 -4.486517 -1.1194226 5.5317378e-40
6.311872 -4.4535809 -1.144013 3.6878252e-40
6.2914667 -4.4228878 -1.156146 1.6595213e-39
6.3777142 -4.7861567 -1.0773484 5.5317378e-40
6.3681765 -4.8218293 -1.0673913 4.6097815e-40
6.3412628 -4.8339195 -1.0673913 2.7658689e-40
6.3143492 -4.8460097 -1.0673913 2.7658689e-40
6.2893987 -4.8221169 -1.0598044 3.6878252e-40
6.2928181 -4.8556814 -1.0673913 2.7658689e-40
6.2685924 -4.8339386 -1.0715004 2.7658689e-40
6.2522936 -4.8412609 -1.0715004 2.7658689e-40
6.2273426 -4.8187733 -1.0758296 2.7658689e-40
6.2159061 -4.8226614 -1.0699258 2.7658689e-40
6.44877 -4.4974174 -1.0719666 3.6878252e-40
6.4264956 -4.5100737 -1.0844878 3.6878252e-40
6.4032311 -4.520525 -1.0844877 4.6097815e-40
6.3781586 -4.4936829 -1.089087 6.4536941e-40
6.3546596 -4.5042391 -1.089087 4.6097815e-40
6.3329515 -4.5135446 -1.0869792 1.1985432e-39
6.3179169 -4.4842668 -1.1066457 3.6878252e-40
6.3664265 -4.845499 -1.0172553 1.751717e-39
6.3671446 -4.8166513 -1.0407394 4.6097815e-40
6.3389711 -4.8288174 -1.0384216 4.6097815e-40
6.312057 -4.8409076 -1.0384218 2.7658689e-40
6.2884731 -4.8200569 -1.0481086 3.6878252e-40
6.2905264 -4.8505793 -1.0384218 1.8439126e-40
6.2717118 -4.8263483 -1.0422605 2.7658689e-40
6.2445469 -4.8385515 -1.0422606 2.7658689e-40
6.2240734 -4.8114948 -1.034503 2.7658689e-40
6.223278 -4.8493438 -1.0481086 2.7658689e-40
6.2135706 -4.8174629 -1.0404067 2.7658689e-40
6.4513268 -4.4927354 -1.055272 2.7658689e-40
6.4240189 -4.5045605 -1.0531851 2.7658689e-40
6.394938 -4.5176239 -1.0531851 4.6097815e-40
6.3774891 -4.5254626 -1.0531851 8.2976067e-40
6.3526583 -4.4997845 -1.0637927 5.5317378e-40
6.3350334 -4.5077019 -1.0637927 4.6097815e-40
6.3153896 -4.4786415 -1.0747035 1.4751301e-39
6.3655186 -4.8434772 -1.0057756 7.3756504e-40
6.3652339 -4.8104787 -1.007521 4.6097815e-40
6.336679 -4.8237152 -1.0094521 4.6097815e-40
6.3097649 -4.8358049 -1.0094522 2.7658689e-40
6.2882342 -4.8454771 -1.0094522 1.8439126e-40
6.2639656 -4.8236394 -1.0130209 2.7658689e-40
6.2489386 -4.8308849 -1.01536 2.7658689e-40
6.2281566 -4.805912 -1.0167915 2.7658689e-40
6.2137012 -4.7775164 -1.0207591 2.7658689e-40
6.1940145 -4.7527218 -1.0306305 3.6878252e-40
6.1980295 -4.7870803 -1.0326821 2.7658689e-40
6.1828303 -4.7577457 -1.0306305 3.6878252e-40
6.445303 -4.4896994 -1.028143 3.6878252e-40
6.4220381 -4.5001497 -1.028143 3.6878252e-40
6.3929567 -4.5132141 -1.028143 4.6097815e-40
6.3696918 -4.523665 -1.028143 6.4536941e-40
6.3442817 -4.4968548 -1.0321748 1.1063476e-39
6.3280325 -4.5046902 -1.0347043 8.2976067e-40
6.3620081 -4.7370358 -0.97546488 7.3756504e-40
6.3613009 -4.8065228 -0.98048264 6.4536941e-40
6.3405557 -4.8449717 -0.95985669 5.5317378e-40
6.3345017 -4.8188682 -0.98193109 6.4536941e-40
6.3074732 -4.8307033 -0.98048264 2.7658689e-40
6.2859426 -4.8403749 -0.98048264 2.7658689e-40
6.261652 -4.8184896 -0.98378098 2.7658689e-40
6.2507863 -4.8233709 -0.98378098 2.7658689e-40
6.225821 -4.8007126 -0.98727256 1.8439126e-40
6.1911569 -4.7463608 -0.99451584 2.7658689e-40
6.1942806 -4.7816982 -0.99929786 2.7658689e-40
6.4503555 -4.52038 -0.99919522 5.5317378e-40
6.4195614 -4.4946365 -0.99684042 3.6878252e-40
6.39048 -4.5077004 -0.99684042 4.6097815e-40
6.3672152 -4.5181513 -0.99684042 5.5317378e-40
6.3417802 -4.4912863 -1.0005569 7.3756504e-40
6.3265014 -4.5364408 -0.99684036 1.5673257e-39
6.3262811 -4.4986954 -1.0026648 7.3756504e-40
6.3601398 -4.7328768 -0.95184958 5.5317378e-40
6.3560882 -4.8021193 -0.94861621 5.5317378e-40
6.3566694 -4.7683792 -0.94869328 4.6097815e-40
6.3316364 -4.8124905 -0.94571912 9.219563e-40
6.3047228 -4.8245807 -0.94571912 2.7658689e-40
6.2778091 -4.8366709 -0.94571918 2.7658689e-40
6.2484732 -4.8182211 -0.95454121 2.7658689e-40
6.2254701 -4.7950392 -0.95972133 1.8439126e-40
6.2089849 -4.7670174 -0.96114451 2.7658689e-40
6.1902046 -4.7442408 -0.98247761 2.7658689e-40
6.1979079 -4.7719932 -0.96114451 3.6878252e-40
6.4398546 -4.4775705 -0.95927721 3.6878252e-40
6.4170847 -4.4891238 -0.96553785 3.6878252e-40
6.3901076 -4.5016842 -0.9676246 4.6097815e-40
6.3830986 -4.5400987 -0.94961554 4.6097815e-40
6.3629651 -4.5138774 -0.9676246 6.4536941e-40
6.3356576 -4.5257025 -0.96553785 6.4536941e-40
6.3656845 -4.7593784 -0.92530137 6.4536941e-40
6.3562584 -4.7952976 -0.91674966 6.4536941e-40
6.3293447 -4.8073883 -0.9167496 9.219563e-40
6.3024306 -4.819478 -0.91674966 2.7658689e-40
6.2828469 -4.8286843 -0.91868103 2.7658689e-40
6.2604933 -4.8062196 -0.92335206 1.8439126e-40
6.2387614 -4.8159819 -0.92335206 2.7658689e-40
6.2147312 -4.790699 -0.91642678 2.7658689e-40
6.215642 -4.7596102 -0.94027942 2.7658689e-40
6.221231 -4.8547282 -0.91095573 2.7658689e-40
6.1969647 -4.7698936 -0.94922161 2.7658689e-40
6.4444714 -4.5072813 -0.92482561 3.6878252e-40
6.4334464 -4.513546 -0.93102312 3.6878252e-40
6.4092875 -4.4873261 -0.94049567 2.7658689e-40
6.3918386 -4.4951649 -0.94049567 4.6097815e-40
6.3758698 -4.5394106 -0.93102318 5.5317378e-40
6.3336759 -4.5212917 -0.94049573 9.219563e-40
6.3661928 -4.8164463 -0.8794986 4.1488033e-39
6.3515043 -4.7919149 -0.89067703 4.6097815e-40
6.3270526 -4.8022861 -0.88778001 1.0141519e-39
6.3030596 -4.8136773 -0.89067703 2.7658689e-40
6.2868471 -4.7873669 -0.89021367 1.8439126e-40
6.2839904 -4.8216295 -0.88778013 1.8439126e-40
6.2601452 -4.8006001 -0.8960616 2.7658689e-40
6.2438459 -4.8079214 -0.8960616 1.8439126e-40
6.2137971 -4.78862 -0.90461916 2.7658689e-40
6.2119675 -4.7539005 -0.90550423 1.8439126e-40
6.1844902 -4.7315197 -0.91024828 2.7658689e-40
6.2121735 -4.824625 -0.90775752 2.7658689e-40
6.1941347 -4.7635937 -0.9134528 2.7658689e-40
6.4430008 -4.5040073 -0.90623325 3.6878252e-40
6.4282732 -4.4323549 -0.90570325 2.7658689e-40
6.4274836 -4.510541 -0.90416735 3.6878252e-40
6.4101024 -4.4798045 -0.90668887 2.7658689e-40
6.4079642 -4.5184345 -0.90003574 2.7658689e-40
6.384511 -4.4913006 -0.90668887 4.6097815e-40
6.3712749 -4.5368834 -0.90933198 4.6097815e-40
6.3656015 -4.4990001 -0.90293252 4.6097815e-40
6.3513684 -4.5464821 -0.9124307 9.219563e-40
6.3296218 -4.5161562 -0.907628 7.3756504e-40
6.3158417 -4.5598173 -0.90003574 6.4536941e-40
6.3089252 -4.5284352 -0.92171407 8.2976067e-40
6.3643761 -4.8124027 -0.85653913 5.5317378e-40
6.3462915 -4.7875118 -0.85881054 5.5317378e-40
6.3247604 -4.797184 -0.85881048 7.3756504e-40
6.3032293 -4.8068562 -0.85881054 4.6097815e-40
6.2795634 -4.7856874 -0.86682183 2.7658689e-40
6.2578316 -4.7954502 -0.86682183 2.7658689e-40
6.2415328 -4.8027716 -0.86682183 2.7658689e-40
6.2210302 -4.7753735 -0.85738868 2.7658689e-40
6.2070012 -4.7507477 -0.88006866 2.7658689e-40
6.1825848 -4.7272787 -0.88617188 2.7658689e-40
6.171401 -4.7323031 -0.88617182 2.7658689e-40
6.43292 -4.4621334 -0.87162989 4.6097815e-40
6.4272723 -4.4301276 -0.89305609 3.6878252e-40
6.4101505 -4.4736872 -0.87789053 2.7658689e-40
6.383173 -4.486248 -0.87997723 4.6097815e-40
6.3672915 -4.5305834 -0.87111431 5.5317378e-40
6.3439345 -4.5402021 -0.86698252 2.0283039e-39
6.3211331 -4.5141172 -0.87997723 1.2907388e-39
6.3138804 -4.5554519 -0.87524581 7.3756504e-40
6.3484893 -4.7808838 -0.83215851 6.4536941e-40
6.3469534 -4.7467504 -0.82588607 1.1063476e-39
6.3224688 -4.7920818 -0.8298409 7.3756504e-40
6.2964482 -4.8032799 -0.82752335 7.3756504e-40
6.2760558 -4.7827244 -0.84537929 2.7658689e-40
6.2784901 -4.8093853 -0.81825316 1.8439126e-40
6.2555184 -4.7903004 -0.83758199 1.8439126e-40
6.2310658 -4.7683663 -0.84558105 1.8439126e-40
6.2392197 -4.7976217 -0.83758199 1.8439126e-40
6.2196288 -4.772254 -0.83967721 1.8439126e-40
6.2000237 -4.7470684 -0.84787679 2.7658689e-40
6.1806803 -4.7230387 -0.86209536 2.7658689e-40
6.1884751 -4.7509942 -0.84191531 1.8439126e-40
6.4503717 -4.5576177 -0.82173836 3.6878252e-40
6.4203339 -4.4997597 -0.83806109 2.7658689e-40
6.4144807 -4.4677668 -0.85910887 2.7658689e-40
6.3977938 -4.5111971 -0.84425855 3.6878252e-40
6.3826256 -4.5880508 -0.82173836 4.6097815e-40
6.383924 -4.5540562 -0.83795947 5.5317378e-40
6.3713346 -4.5931225 -0.82173836 6.4536941e-40
6.3531961 -4.5669937 -0.83386868 5.5317378e-40
6.3407073 -4.5381532 -0.85045606 1.1985432e-39
6.3191538 -4.5827193 -0.83591408 1.8439126e-39
6.3229442 -4.5448208 -0.84425855 4.6097815e-40
6.3370256 -4.7107701 -0.79835057 2.7658689e-39
6.345449 -4.7760353 -0.80280274 4.6097815e-40
6.3451023 -4.742631 -0.80249423 2.3970864e-39
6.3230972 -4.7862806 -0.80376834 4.6097815e-40
6.3070717 -4.7597146 -0.80249423 3.6878252e-40
6.293263 -4.7990699 -0.80087143 3.6878252e-40
6.2717319 -4.8087416 -0.80087143 2.7658689e-40
6.2477722 -4.787591 -0.80834222 2.7658689e-40
6.2369061 -4.7924724 -0.80834222 1.8439126e-40
6.2147846 -4.7688074 -0.81311011 2.7658689e-40
6.1971936 -4.7407684 -0.81210804 2.7658689e-40
6.1835833 -4.7475138 -0.81508875 2.7658689e-40
6.4346652 -4.4854517 -0.80087626 4.6097815e-40
6.4494104 -4.5554771 -0.80958486 3.6878252e-40
6.442143 -4.5209761 -0.805233 4.6097815e-40
6.4195242 -4.4948769 -0.81327122 2.7658689e-40
6.4056926 -4.4637637 -0.82154572 1.8439126e-40
6.3966899 -4.5056591 -0.81575018 2.7658689e-40
6.3811836 -4.5848398 -0.8035081 5.5317378e-40
6.3856206 -4.5476656 -0.81136924 4.6097815e-40
6.3698921 -4.5899124 -0.8035081 1.0141519e-39
6.3457155 -4.5655918 -0.81136924 5.5317378e-40
6.3242474 -4.6091309 -0.79743129 4.6097815e-40
6.3249745 -4.5753422 -0.81341463 1.751717e-39
6.3277569 -4.675808 -0.78230071 7.3756504e-40
6.3213091 -4.6471252 -0.80190426 5.5317378e-40
6.3394156 -4.7722054 -0.77190191 1.1985432e-39
6.3191156 -4.7810183 -0.77045327 5.5317378e-40
6.3007135 -4.7600956 -0.79079831 3.6878252e-40
6.289711 -4.7940426 -0.76958424 2.7658689e-40
6.2744346 -4.7694244 -0.77910239 3.6878252e-40
6.2757397 -4.8032627 -0.7834897 2.7658689e-40
6.2508917 -4.7800007 -0.77910239 1.8439126e-40
6.2263947 -4.7579679 -0.78654295 2.7658689e-40
6.2345924 -4.7873225 -0.77910239 2.7658689e-40
6.2149577 -4.7618561 -0.78063917 2.7658689e-40
6.1953068 -4.7365689 -0.78826219 1.8439126e-40
6.1806951 -4.7435532 -0.79024935 1.8439126e-40
6.1637816 -4.7153416 -0.78986603 2.7658689e-40
6.1435909 -4.6902847 -0.79743129 2.7658689e-40
6.432704 -4.4810858 -0.77608639 1.1985432e-39
6.4269762 -4.4489021 -0.7965036 4.6097815e-40
6.418004 -4.4894381 -0.78434962 4.6097815e-40
6.403522 -4.5326109 -0.77823371 2.7658689e-40
6.3867073 -4.5755606 -0.77138799 4.6097815e-40
6.3618431 -4.5870972 -0.77312428 9.219563e-40
6.3351469 -4.599411 -0.77464342 5.5317378e-40
6.3258705 -4.671608 -0.75845492 5.5317378e-40
6.3240438 -4.6382532 -0.76578957 4.6097815e-40
6.3371239 -4.7671032 -0.74293232 6.4536941e-40
6.3155928 -4.7767754 -0.7429322 6.4536941e-40
6.2886791 -4.7888651 -0.74293232 1.0141519e-39
6.2653399 -4.768559 -0.7557106 2.7658689e-40
6.2613068 -4.7999344 -0.73713845 2.7658689e-40
6.2490406 -4.7758808 -0.7557106 2.7658689e-40
6.2268462 -4.7846131 -0.74986261 2.7658689e-40
6.201653 -4.7615852 -0.75112015 2.7658689e-40
6.1818719 -4.7362947 -0.75845486 2.7658689e-40
6.1575937 -4.7135348 -0.76819724 2.7658689e-40
6.4303346 -4.5150242 -0.75205249 4.6097815e-40
6.4158945 -4.556385 -0.74274045 2.7658689e-40
6.3938823 -4.599236 -0.72967494 5.5317378e-40
6.387763 -4.5692797 -0.74395579 3.6878252e-40
6.3603306 -4.6143084 -0.72967494 5.5317378e-40
6.3614812 -4.5812573 -0.74476606 4.6097815e-40
6.3435545 -4.6218443 -0.72967494 5.5317378e-40
6.3373375 -4.5929604 -0.74881721 5.5317378e-40
6.334589 -4.6613827 -0.72864759 1.1063476e-39
6.3348312 -4.7620006 -0.71396279 3.6878252e-40
6.338625 -4.7282114 -0.72062284 1.0141519e-39
6.3133006 -4.7716732 -0.71396267 6.4536941e-40
6.2874632 -4.7832794 -0.71396273 3.6878252e-40
6.2664938 -4.7614388 -0.72452146 1.8439126e-40
6.2558846 -4.7974653 -0.71396267 1.8439126e-40
6.2507725 -4.7652006 -0.70892692 1.8439126e-40
6.2379422 -4.8055248 -0.71396279 1.8439126e-40
6.2161522 -4.7826095 -0.71769881 2.7658689e-40
6.1997843 -4.7574263 -0.72750491 2.7658689e-40
6.1883478 -4.7613139 -0.72160107 2.7658689e-40
6.1599722 -4.7068605 -0.74171317 2.7658689e-40
6.4294653 -4.5412855 -0.70020312 4.6097815e-40
6.4244304 -4.5120487 -0.72546226 4.6097815e-40
6.4134903 -4.551034 -0.71235669 3.6878252e-40
6.3962603 -4.5925622 -0.70319086 5.5317378e-40
6.3975153 -4.5607824 -0.72451019 4.6097815e-40
6.3811331 -4.6316414 -0.68691736 6.4536941e-40
6.3700857 -4.6061039 -0.71161753 5.5317378e-40
6.3534412 -4.6440811 -0.68691736 4.6097815e-40
6.3421259 -4.6186643 -0.71161759 4.6097815e-40
6.3391209 -4.6860862 -0.68617821 4.6097815e-40
6.3331738 -4.6582327 -0.71076322 5.5317378e-40
6.3325396 -4.7568989 -0.68499315 5.5317378e-40
6.3363118 -4.7230616 -0.691383 4.6097815e-40
6.3110089 -4.766571 -0.68499309 6.4536941e-40
6.2840948 -4.7786608 -0.68499315 4.6097815e-40
6.2571812 -4.7907515 -0.68499309 1.8439126e-40
6.2356501 -4.8004231 -0.68499315 2.7658689e-40
6.2113538 -4.7791948 -0.691383 1.8439126e-40
6.1896219 -4.7889576 -0.691383 1.8439126e-40
6.4341493 -4.5366087 -0.68804961 4.6097815e-40
6.4346304 -4.602562 -0.66307151 6.4536941e-40
6.4158506 -4.5783262 -0.67750937 3.6878252e-40
6.4014001 -4.6174898 -0.66307151 6.4536941e-40
6.3956642 -4.5882435 -0.68152201 4.6097815e-40
6.3861489 -4.6587124 -0.65665919 4.6097815e-40
6.3801899 -4.6295414 -0.67499447 5.5317378e-40
6.3646765 -4.6696076 -0.66256297 6.4536941e-40
6.3414211 -4.6469574 -0.67499447 9.219563e-40
6.3439388 -4.7109709 -0.65044731 4.6097815e-40
6.3427372 -4.6794634 -0.66256297 4.6097815e-40
6.3356304 -4.7493787 -0.65602356 4.6097815e-40
6.3151245 -4.7883606 -0.63842428 3.6878252e-40
6.3088312 -4.761724 -0.65747201 5.5317378e-40
6.2818031 -4.7735591 -0.65602356 4.6097815e-40
6.2548895 -4.7856493 -0.65602356 1.8439126e-40
6.2333579 -4.7953205 -0.65602368 1.8439126e-40
6.2090402 -4.774045 -0.66214323 2.7658689e-40
6.1873083 -4.7838073 -0.66214323 1.8439126e-40
6.1612701 -4.7597322 -0.65665919 1.8439126e-40
6.1714721 -4.7921591 -0.66799116 1.8439126e-40
6.4332156 -4.5994124 -0.64518714 4.6097815e-40
6.4078331 -4.6110668 -0.64637941 4.6097815e-40
6.3964176 -4.682445 -0.62705547 4.6097815e-40
6.3903885 -4.6534758 -0.64091569 7.3756504e-40
6.372201 -4.6939421 -0.62997943 5.5317378e-40
6.3687601 -4.6640244 -0.64485157 7.3756504e-40
6.3460188 -4.7059107 -0.63095409 5.5317378e-40
6.3468208 -4.6738796 -0.64485157 4.6097815e-40
6.3355465 -4.7767568 -0.62694454 5.5317378e-40
6.3349795 -4.7431302 -0.62512279 4.6097815e-40
6.3142166 -4.7863388 -0.62694454 4.6097815e-40
6.3063331 -4.7561626 -0.62589526 3.6878252e-40
6.279511 -4.7684565 -0.62705404 4.6097815e-40
6.2525973 -4.7805471 -0.62705398 1.8439126e-40
6.2237363 -4.7931027 -0.62512279 2.7658689e-40
6.2086921 -4.768425 -0.63485277 1.8439126e-40
6.1849952 -4.7786579 -0.6329034 1.8439126e-40
6.160336 -4.7576523 -0.64485157 2.7658689e-40
6.1502852 -4.7252483 -0.63922566 2.7658689e-40
6.447001 -4.585649 -0.60941839 4.6097815e-40
6.4372606 -4.6257553 -0.6094287 4.6097815e-40
6.4290113 -4.5949922 -0.61537987 2.7658689e-40
6.4300461 -4.5600586 -0.62133092 3.6878252e-40
6.4193039 -4.6655626 -0.59586632 4.6097815e-40
6.4157887 -4.6366501 -0.61533254 4.6097815e-40
6.4151855 -4.6037264 -0.62730277 3.6878252e-40
6.4005637 -4.7067194 -0.59229058 4.6097815e-40
6.4029479 -4.6751795 -0.60658759 4.6097815e-40
6.3836141 -4.7150693 -0.5957669 4.6097815e-40
6.3846264 -4.6852665 -0.61535954 8.2976067e-40
6.359498 -4.7263937 -0.59808445 5.5317378e-40
6.3520288 -4.6999097 -0.61535954 6.4536941e-40
6.3532438 -4.7590876 -0.5810256 4.6097815e-40
6.3310466 -4.7391744 -0.59808445 4.6097815e-40
6.305593 -4.7509151 -0.5995329 3.6878252e-40
6.2892532 -4.7878332 -0.5810256 3.6878252e-40
6.2784791 -4.763279 -0.60040206 3.6878252e-40
6.2630444 -4.8008213 -0.58676547 2.7658689e-40
6.2512221 -4.7774849 -0.60967237 2.7658689e-40
6.2433405 -4.809268 -0.58485222 1.8439126e-40
6.2224984 -4.7884264 -0.60040206 1.8439126e-40
6.2018604 -4.7972069 -0.59808445 1.8439126e-40
6.177249 -4.7759485 -0.60366362 1.8439126e-40
6.1584678 -4.7534933 -0.62123632 2.7658689e-40
6.1659203 -4.7797999 -0.59781569 1.8439126e-40
6.1363788 -4.7239242 -0.60345691 1.8439126e-40
6.4455862 -4.582499 -0.59153402 5.5317378e-40
6.4451952 -4.6456795 -0.55687994 4.6097815e-40
6.4439111 -4.6161032 -0.57794172 4.6097815e-40
6.4296513 -4.6850681 -0.5517332 4.6097815e-40
6.4283195 -4.6565619 -0.57247448 4.6097815e-40
6.4088845 -4.6964412 -0.56138963 5.5317378e-40
6.4035821 -4.6693239 -0.58027178 7.3756504e-40
6.3907399 -4.7355614 -0.54945636 5.5317378e-40
6.3845291 -4.7094259 -0.57104629 6.4536941e-40
6.373579 -4.7751927 -0.54729879 7.3756504e-40
6.3698077 -4.7484069 -0.56571931 4.6097815e-40
6.3690395 -4.8062735 -0.53680754 6.4536941e-40
6.350832 -4.7858124 -0.54919475 5.5317378e-40
6.34167 -4.7618566 -0.56954587 8.2976067e-40
6.3260231 -4.796556 -0.54729879 5.5317378e-40
6.3150077 -4.7738342 -0.56954587 8.2976067e-40
6.3044372 -4.8050489 -0.54161119 3.6878252e-40
6.2862172 -4.7846413 -0.55950117 4.6097815e-40
6.2639651 -4.8280449 -0.56436169 2.7658689e-40
6.2616591 -4.7948837 -0.55577022 2.7658689e-40
6.253397 -4.8327923 -0.56436169 2.7658689e-40
6.2381959 -4.8054237 -0.55577022 1.8439126e-40
6.2152581 -4.7838297 -0.56332105 2.7658689e-40
6.2020307 -4.7903852 -0.56621796 1.8439126e-40
6.1786342 -4.7674046 -0.56623662 1.8439126e-40
6.1556654 -4.7472544 -0.58581346 2.7658689e-40
6.1631441 -4.7736201 -0.56272793 2.7658689e-40
6.4590797 -4.6009579 -0.53858298 5.5317378e-40
6.4481277 -4.5404696 -0.56715894 9.219563e-40
6.4472752 -4.6406193 -0.53738678 7.3756504e-40
6.4495115 -4.6090055 -0.55629444 9.219563e-40
6.4320173 -4.6807346 -0.53628284 5.5317378e-40
6.4324789 -4.646441 -0.53348809 4.6097815e-40
6.4165506 -4.7193098 -0.52745354 5.5317378e-40
6.4179692 -4.6878633 -0.54014534 4.6097815e-40
6.4030333 -4.7559423 -0.5188607 5.5317378e-40
6.3976035 -4.7294407 -0.53510672 5.5317378e-40
6.3823471 -4.7664385 -0.52454835 1.0141519e-39
6.3624644 -4.8056479 -0.51989603 5.5317378e-40
6.3362789 -4.8174105 -0.51989603 5.5317378e-40
6.314105 -4.7982979 -0.53023595 1.0141519e-39
6.3148842 -4.8258286 -0.51425886 7.3756504e-40
6.2961917 -4.805542 -0.52644426 4.6097815e-40
6.2749553 -4.7845368 -0.53510672 3.6878252e-40
6.2709332 -4.8152838 -0.51886076 2.7658689e-40
6.2589574 -4.7917233 -0.53510672 1.8439126e-40
6.2349558 -4.7700763 -0.54014534 1.8439126e-40
6.2497973 -4.8247786 -0.5188607 2.7658689e-40
6.2260542 -4.8040743 -0.52362698 1.8439126e-40
6.2188077 -4.7773304 -0.54014534 1.8439126e-40
6.1943541 -4.755887 -0.54518402 1.8439126e-40
6.2017426 -4.7825437 -0.52855754 1.8439126e-40
6.1792488 -4.7610216 -0.53738678 1.8439126e-40
6.1638322 -4.7360878 -0.5503906 1.8439126e-40
6.1612935 -4.7695003 -0.53933609 1.8439126e-40
6.4677572 -4.6261377 -0.51243538 4.6097815e-40
6.4578223 -4.661376 -0.49958798 4.6097815e-40
6.4457331 -4.6371861 -0.51789355 3.6878252e-40
6.4328556 -4.6730008 -0.5015192 5.5317378e-40
6.4315534 -4.644381 -0.52179217 4.6097815e-40
6.4170852 -4.7448139 -0.49611026 4.6097815e-40
6.4157548 -4.7127829 -0.49492764 4.6097815e-40
6.4156771 -4.6827612 -0.51117581 3.6878252e-40
6.4012332 -4.751935 -0.49611026 4.6097815e-40
6.3948784 -4.7233753 -0.50066751 5.5317378e-40
6.3800974 -4.7614298 -0.49611026 7.3756504e-40
6.3616552 -4.8003435 -0.49311945 5.5317378e-40
6.3555269 -4.8307643 -0.47613662 5.5317378e-40
6.3340487 -4.8124466 -0.49171016 5.5317378e-40
6.3243856 -4.8447533 -0.47613662 4.6097815e-40
6.3066654 -4.8250465 -0.49311945 4.6097815e-40
6.2776818 -4.8370857 -0.48848891 2.7658689e-40
6.2647495 -4.8156538 -0.50748551 1.8439126e-40
6.2498088 -4.8490958 -0.48607299 1.8439126e-40
6.2383294 -4.8275223 -0.50748557 1.8439126e-40
6.2340975 -4.8561535 -0.48607299 1.8439126e-40
6.2124705 -4.835928 -0.49231857 9.219563e-41
6.1946816 -4.8127003 -0.49779758 1.8439126e-40
6.1900601 -4.7853389 -0.51696974 1.8439126e-40
6.1707711 -4.761529 -0.52179217 1.8439126e-40
6.1753368 -4.8195682 -0.48918778 1.8439126e-40
6.1680708 -4.7939906 -0.51117581 1.8439126e-40
6.4614768 -4.6861687 -0.46622831 4.6097815e-40
6.4618301 -4.6558971 -0.48220623 3.6878252e-40
6.4440045 -4.694828 -0.47005489 3.6878252e-40
6.4456816 -4.6631508 -0.48220623 6.4536941e-40
6.4152851 -4.7408075 -0.47335976 4.6097815e-40
6.4246035 -4.703948 -0.47196817 6.4536941e-40
6.4094839 -4.7702079 -0.45224994 6.4536941e-40
6.3994331 -4.7479286 -0.47335976 4.6097815e-40
6.3837442 -4.7829638 -0.45788714 9.219563e-40
6.3636975 -4.8211813 -0.44820297 7.3756504e-40
6.3656373 -4.7916942 -0.4607057 4.6097815e-40
6.3433785 -4.8314915 -0.45378971 4.6097815e-40
6.3134241 -4.8446522 -0.45239303 5.5317378e-40
6.2956047 -4.8249435 -0.46916145 6.4536941e-40
6.2862854 -4.8571386 -0.45378968 3.6878252e-40
6.2740617 -4.8330307 -0.46164525 2.7658689e-40
6.2650824 -4.8654814 -0.44820297 1.8439126e-40
6.245183 -4.8458042 -0.4607057 1.8439126e-40
6.2318673 -4.8511896 -0.45788711 1.8439126e-40
6.2059693 -4.8021622 -0.47196817 1.8439126e-40
6.181469 -4.7806139 -0.47641233 1.8439126e-40
6.4587522 -4.6801033 -0.43178913 5.5317378e-40
6.4619026 -4.7126427 -0.43923411 4.6097815e-40
6.4427781 -4.6901951 -0.44556484 3.6878252e-40
6.4263759 -4.7277994 -0.43544239 4.6097815e-40
6.4170003 -4.7012892 -0.44326887 5.5317378e-40
6.4024625 -4.768589 -0.42970124 7.3756504e-40
6.3815141 -4.7779989 -0.42970124 5.5317378e-40
6.3619294 -4.8172455 -0.42585602 6.4536941e-40
6.3658028 -4.7850571 -0.42970124 4.6097815e-40
6.3463588 -4.8242407 -0.42585605 7.3756504e-40
6.3239059 -4.8038778 -0.42970124 5.5317378e-40
6.3100271 -4.8405614 -0.42585605 3.6878252e-40
6.2845178 -4.8532028 -0.43144277 4.6097815e-40
6.2763252 -4.8240585 -0.42406407 3.6878252e-40
6.2633147 -4.8615456 -0.42585602 1.8439126e-40
6.2401114 -4.8415198 -0.42970124 1.8439126e-40
6.2296371 -4.8462248 -0.42970124 1.8439126e-40
6.2117934 -4.8249969 -0.43923408 1.8439126e-40
6.1973 -4.7999825 -0.44326887 1.8439126e-40
6.1737938 -4.7779293 -0.44744283 1.8439126e-40
6.4567485 -4.6132584 -0.42822483 5.5317378e-40
6.4723935 -4.6982994 -0.39373311 6.4536941e-40
6.4676008 -4.6712685 -0.40882966 4.6097815e-40
6.4514046 -4.64709 -0.41847321 4.6097815e-40
6.4518571 -4.7091293 -0.40131667 5.5317378e-40
6.4430184 -4.6831217 -0.41265625 3.6878252e-40
6.4190722 -4.7250042 -0.40673339 5.5317378e-40
6.4142752 -4.6952238 -0.40882966 6.4536941e-40
6.4006786 -4.7646179 -0.40715256 7.3756504e-40
6.3938084 -4.7354069 -0.40226454 6.4536941e-40
6.3768888 -4.7747078 -0.40433398 6.4536941e-40
6.3777313 -4.7420273 -0.39942074 1.0141519e-39
6.3530989 -4.7847986 -0.40151539 5.5317378e-40
6.3327303 -4.82445 -0.3979224 4.6097815e-40
6.33215 -4.794209 -0.40151539 7.3756504e-40
6.307817 -4.8356419 -0.3979224 5.5317378e-40
6.2827268 -4.8464394 -0.3956877 3.6878252e-40
6.2629161 -4.8269005 -0.4090316 2.7658689e-40
6.2590799 -4.8567467 -0.39419791 2.7658689e-40
6.2405005 -4.8353796 -0.40151539 1.8439126e-40
6.2187614 -4.8122354 -0.39373311 2.7658689e-40
6.184175 -4.7332277 -0.41652891 1.8439126e-40
6.2278533 -4.8422537 -0.40715256 2.7658689e-40
6.1881084 -4.7665939 -0.42426711 1.8439126e-40
6.1683388 -4.7415795 -0.42237687 1.8439126e-40
6.4761138 -4.7223787 -0.36769235 1.0141519e-39
6.4604025 -4.7294364 -0.36769235 4.6097815e-40
6.4503574 -4.7057905 -0.38235795 4.6097815e-40
6.4346976 -4.6836195 -0.39734995 3.6878252e-40
6.4380054 -4.740293 -0.37145048 5.5317378e-40
6.4129195 -4.7214046 -0.37667027 4.6097815e-40
6.4240322 -4.6884108 -0.39734995 4.6097815e-40
6.3961082 -4.7591143 -0.37145048 5.5317378e-40
6.3975177 -4.7295275 -0.3823579 4.6097815e-40
6.3770542 -4.7680712 -0.37332952 5.5317378e-40
6.3561058 -4.7774816 -0.37332955 5.5317378e-40
6.3363066 -4.8157482 -0.36440203 5.5317378e-40
6.3051648 -4.8297377 -0.36440206 4.6097815e-40
6.2792134 -4.8413954 -0.36440203 4.6097815e-40
6.2636428 -4.8483906 -0.36440203 1.8439126e-40
6.2408886 -4.8292389 -0.37332952 1.8439126e-40
6.2251773 -4.836297 -0.37332952 1.8439126e-40
6.2063937 -4.8129759 -0.37098265 1.8439126e-40
6.1991577 -4.7869987 -0.38587025 3.6878252e-40
6.1838694 -4.7619572 -0.39336634 2.7658689e-40
6.1660256 -4.7364302 -0.3931371 2.7658689e-40
6.4752216 -4.7203932 -0.35641798 4.6097815e-40
6.4687939 -4.6902857 -0.34823215 7.3756504e-40
6.4621515 -4.6591377 -0.33995131 4.6097815e-40
6.4577494 -4.7263327 -0.34739849 4.6097815e-40
6.4472075 -4.6987786 -0.34254456 5.5317378e-40
6.4391184 -4.7334299 -0.34138548 5.5317378e-40
6.4147453 -4.7148666 -0.34965408 4.6097815e-40
6.394547 -4.7537699 -0.34288877 5.5317378e-40
6.3957176 -4.7255201 -0.3596074 5.5317378e-40
6.3748245 -4.7631068 -0.34514365 6.4536941e-40
6.3538756 -4.7725172 -0.34514365 5.5317378e-40
6.3340964 -4.8108287 -0.33646837 4.6097815e-40
6.3100886 -4.8522329 -0.33343029 5.5317378e-40
6.3062677 -4.8229361 -0.33460611 6.4536941e-40
6.3002396 -4.8578291 -0.33896658 8.2976067e-40
6.2770033 -4.8364758 -0.33646837 3.6878252e-40
6.2539244 -4.8162241 -0.33950645 1.8439126e-40
6.2386589 -4.824275 -0.34514365 1.8439126e-40
6.2147117 -4.8032198 -0.34254456 1.8439126e-40
6.2238393 -4.8333187 -0.35641798 2.7658689e-40
6.2050438 -4.8099709 -0.35391977 2.7658689e-40
6.1955247 -4.7789116 -0.33995131 2.7658689e-40
6.1781421 -4.7588077 -0.366328 1.8439126e-40
6.4592862 -4.589838 -0.32296157 5.5317378e-40
6.4548359 -4.625927 -0.32577062 5.5317378e-40
6.4507055 -4.7218609 -0.3113206 5.5317378e-40
6.4559755 -4.6900244 -0.31979409 5.5317378e-40
6.4313536 -4.7301559 -0.30944154 5.5317378e-40
6.4194374 -4.7076416 -0.32548171 4.6097815e-40
6.398334 -4.7453871 -0.3113206 6.4536941e-40
6.3721485 -4.7571497 -0.3113206 4.6097815e-40
6.3522058 -4.795599 -0.302948 4.6097815e-40
6.3540411 -4.7658806 -0.31413919 9.219563e-40
6.3336153 -4.8358054 -0.30574888 5.5317378e-40
6.3360386 -4.8040438 -0.30853474 5.5317378e-40
6.3130417 -4.845047 -0.30574888 4.6097815e-40
6.2933216 -4.8534369 -0.30353436 4.6097815e-40
6.2724195 -4.8332138 -0.31132808 3.6878252e-40
6.2525864 -4.8132458 -0.32259494 2.7658689e-40
6.2554679 -4.8394494 -0.30481026 2.7658689e-40
6.2349353 -4.8187885 -0.3113206 2.7658689e-40
6.2048273 -4.7710881 -0.32273173 1.8439126e-40
6.1856985 -4.7468286 -0.32577062 1.8439126e-40
6.166369 -4.7226596 -0.3288095 1.8439126e-40
6.4583607 -4.5877781 -0.31126565 9.219563e-40
6.4633937 -4.6782646 -0.27998078 4.6097815e-40
6.4653258 -4.6471829 -0.29020581 4.6097815e-40
6.4534607 -4.6228657 -0.30838886 3.6878252e-40
6.4484754 -4.716897 -0.28313476 4.6097815e-40
6.4537258 -4.6850157 -0.29135606 4.6097815e-40
6.4275265 -4.7263069 -0.28313473 5.5317378e-40
6.4229217 -4.7012615 -0.30273122 4.6097815e-40
6.3961039 -4.7404232 -0.28313473 6.4536941e-40
6.3699183 -4.7521858 -0.28313476 7.3756504e-40
6.3504376 -4.7916632 -0.28060108 4.6097815e-40
6.354207 -4.759244 -0.28313476 4.6097815e-40
6.3297834 -4.8300266 -0.27031663 4.6097815e-40
6.3367443 -4.7982087 -0.28246334 7.3756504e-40
6.3104138 -4.8391967 -0.27253118 4.6097815e-40
6.3011265 -4.8706846 -0.25916138 4.6097815e-40
6.2889867 -4.8492908 -0.2747457 4.6097815e-40
6.2673931 -4.828968 -0.28060108 4.6097815e-40
6.2570128 -4.8336315 -0.28060108 1.8439126e-40
6.2337527 -4.813354 -0.28313476 2.7658689e-40
6.2097616 -4.792201 -0.27998078 2.7658689e-40
6.203011 -4.7670441 -0.29977226 2.7658689e-40
6.1966467 -4.8288298 -0.27749756 2.7658689e-40
6.1861048 -4.7722092 -0.28829253 2.7658689e-40
6.1765351 -4.7456303 -0.30066374 2.7658689e-40
6.1649809 -4.7195702 -0.31126565 2.7658689e-40
6.1861725 -4.8335347 -0.27749756 2.7658689e-40
6.1679401 -4.812192 -0.2856684 1.8439126e-40
6.1260247 -4.7345939 -0.29956973 2.7658689e-40
6.0934024 -4.6484327 -0.32438821 1.8439126e-40
6.094851 -4.714592 -0.30243066 1.8439126e-40
6.0775042 -4.6891737 -0.31432614 1.8439126e-40
6.0716696 -4.6598945 -0.33241361 2.7658689e-40
6.4751863 -4.6053982 -0.27196997 4.6097815e-40
6.4606938 -4.6722546 -0.24585505 4.6097815e-40
6.4599543 -4.6447363 -0.26724634 6.4536941e-40
6.4486408 -4.7102599 -0.25213027 5.5317378e-40
6.4514756 -4.680007 -0.26291788 5.5317378e-40
6.4252968 -4.721343 -0.25494888 4.6097815e-40
6.3938742 -4.7354584 -0.25494888 4.6097815e-40
6.3718596 -4.7745504 -0.24521846 6.4536941e-40
6.3700285 -4.7477612 -0.26246512 5.5317378e-40
6.3534179 -4.7844119 -0.25266743 5.5317378e-40
6.3397417 -4.8475304 -0.23172316 4.6097815e-40
6.3340864 -4.8230944 -0.24669515 5.5317378e-40
6.3382888 -4.7923908 -0.25825414 5.5317378e-40
6.3358822 -4.8778238 -0.22423013 5.5317378e-40
6.3168697 -4.8589664 -0.23721072 4.6097815e-40
6.2951379 -4.8682642 -0.23501576 3.6878252e-40
6.275795 -4.8492799 -0.24669515 2.7658689e-40
6.2660675 -4.8260164 -0.26384088 3.6878252e-40
6.2409215 -4.8633833 -0.23931345 2.7658689e-40
6.2483974 -4.8311157 -0.25043276 2.7658689e-40
6.2338634 -4.8089294 -0.26246512 1.8439126e-40
6.2398748 -4.9209523 -0.22423013 2.7658689e-40
6.2377772 -4.8933344 -0.23172316 2.7658689e-40
6.2277899 -4.8708448 -0.24669515 2.7658689e-40
6.2089744 -4.8516636 -0.26384088 2.7658689e-40
6.2167034 -4.8174334 -0.26622322 3.6878252e-40
6.2169504 -4.9015288 -0.22623552 2.7658689e-40
6.206924 -4.8794365 -0.24300432 2.7658689e-40
6.1925192 -4.8566904 -0.25266743 3.6878252e-40
6.1767559 -4.8335886 -0.25776747 2.7658689e-40
6.1551218 -4.8119307 -0.25723031 1.8439126e-40
6.1394277 -4.7590299 -0.28521323 2.7658689e-40
6.1223631 -4.7642431 -0.27362534 1.8439126e-40
6.0879645 -4.7139363 -0.28471923 1.8439126e-40
6.0670738 -4.6881809 -0.28749955 1.8439126e-40
6.038671 -4.6662245 -0.29228625 1.8439126e-40
6.0251298 -4.6380296 -0.29913691 1.8439126e-40
6.4967351 -4.5569239 -0.24693808 9.219563e-40
6.4858694 -4.5618052 -0.24693808 4.6097815e-40
6.4814725 -4.5334167 -0.2670078 4.6097815e-40
6.4743991 -4.6293378 -0.22515401 4.6097815e-40
6.4761338 -4.598455 -0.24117951 4.6097815e-40
6.4627166 -4.6673326 -0.22689639 5.5317378e-40
6.4650965 -4.6371613 -0.24237362 4.6097815e-40
6.4498229 -4.7351923 -0.22473378 4.6097815e-40
6.4544897 -4.7022629 -0.226763 4.6097815e-40
6.4270368 -4.7446399 -0.2210093 5.5317378e-40
6.4235129 -4.7173719 -0.23240018 5.5317378e-40
6.4022264 -4.7542086 -0.21356034 5.5317378e-40
6.3973269 -4.7291346 -0.23240018 6.4536941e-40
6.3767171 -4.7668505 -0.21914707 4.6097815e-40
6.352324 -4.8086519 -0.21716835 6.4536941e-40
6.3533607 -4.7773423 -0.21914704 4.6097815e-40
6.338439 -4.8446307 -0.21526027 5.5317378e-40
6.3392467 -4.8139405 -0.21440017 4.6097815e-40
6.3176122 -4.8528252 -0.20977257 5.5317378e-40
6.2972193 -4.8619862 -0.20977263 3.6878252e-40
6.2768874 -4.8425388 -0.21716832 2.7658689e-40
6.2620893 -4.8171606 -0.21356034 2.7658689e-40
6.262558 -4.9038553 -0.19159614 2.7658689e-40
6.2610974 -4.8770514 -0.20428498 2.7658689e-40
6.2550378 -4.8535261 -0.2227046 1.8439126e-40
6.2418356 -4.9151783 -0.20111439 2.7658689e-40
6.2466712 -4.8858547 -0.21526027 2.7658689e-40
6.2221336 -4.9220142 -0.19159614 3.6878252e-40
6.2105494 -4.9009199 -0.20977263 2.7658689e-40
6.1988983 -4.8799171 -0.22824089 3.6878252e-40
6.1794868 -4.8554497 -0.21914704 2.7658689e-40
6.1612101 -4.8340096 -0.226763 2.7658689e-40
6.1340251 -4.7846699 -0.23663375 1.8439126e-40
6.1184292 -4.7602868 -0.24658722 1.8439126e-40
6.0707254 -4.6814933 -0.26365373 1.8439126e-40
6.0545816 -4.6900072 -0.26961517 2.7658689e-40
6.4969068 -4.5500388 -0.21477431 5.5317378e-40
6.4835558 -4.5566554 -0.21769825 5.5317378e-40
6.4764404 -4.6243711 -0.20602114 5.5317378e-40
6.4784231 -4.5920305 -0.21568628 4.6097815e-40
6.4622879 -4.6916008 -0.19293998 7.3756504e-40
6.4652448 -4.6611814 -0.20319791 6.4536941e-40
6.4523611 -4.7269573 -0.1912134 7.3756504e-40
6.4479146 -4.7016373 -0.20985149 4.6097815e-40
6.4264097 -4.738615 -0.19121343 5.5317378e-40
6.4236784 -4.7107348 -0.20139571 5.5317378e-40
6.4004583 -4.7502728 -0.19121343 6.4536941e-40
6.374507 -4.7619305 -0.19121343 5.5317378e-40
6.3536358 -4.8005629 -0.18173608 5.5317378e-40
6.354188 -4.7722406 -0.19680014 7.3756504e-40
6.3397388 -4.8366132 -0.18013938 4.6097815e-40
6.3402853 -4.8093724 -0.19502318 4.6097815e-40
6.3154411 -4.8479929 -0.18233433 4.6097815e-40
6.2885833 -4.859129 -0.1779443 2.7658689e-40
6.2729831 -4.8384337 -0.18948688 2.7658689e-40
6.2612672 -4.9009809 -0.17527916 1.8439126e-40
6.2644587 -4.8708944 -0.18233442 2.7658689e-40
6.241055 -4.9100609 -0.17527913 2.7658689e-40
6.2130427 -4.8928304 -0.1768468 1.8439126e-40
6.1958318 -4.8730917 -0.18948688 2.7658689e-40
6.1772766 -4.8505301 -0.19121343 2.7658689e-40
6.1594262 -4.8300381 -0.2042143 2.7658689e-40
6.5070524 -4.5693588 -0.16933499 4.6097815e-40
6.4995065 -4.5437136 -0.19040784 4.6097815e-40
6.490561 -4.5787296 -0.17860526 5.5317378e-40
6.4755297 -4.648736 -0.1662284 4.6097815e-40
6.4773469 -4.6187801 -0.18153103 4.6097815e-40
6.4652948 -4.6842842 -0.16475411 6.4536941e-40
6.4449606 -4.724369 -0.1632798 6.4536941e-40
6.4495835 -4.6913419 -0.16475411 7.3756504e-40
6.4237576 -4.7327113 -0.15769309 8.2976067e-40
6.4190526 -4.7074432 -0.17602846 4.6097815e-40
6.3970332 -4.7454262 -0.16104509 7.3756504e-40
6.3981042 -4.7168541 -0.17602846 5.5317378e-40
6.3722968 -4.7570109 -0.1632798 5.5317378e-40
6.3629498 -4.817359 -0.13843331 4.6097815e-40
6.3526497 -4.7956152 -0.15626919 4.6097815e-40
6.3408241 -4.8617887 -0.15896216 6.4536941e-40
6.3391733 -4.8298979 -0.1472135 6.4536941e-40
6.330718 -4.8663292 -0.15896216 6.4536941e-40
6.3114533 -4.842525 -0.14803661 4.6097815e-40
6.2838278 -4.8555574 -0.15097645 2.7658689e-40
6.2750607 -4.829298 -0.15073292 1.8439126e-40
6.2648349 -4.8927016 -0.14373298 1.8439126e-40
6.2622881 -4.8660622 -0.15489621 1.8439126e-40
6.2419138 -4.9042482 -0.14963821 1.8439126e-40
6.2206345 -4.8824511 -0.14392093 2.7658689e-40
6.2117405 -4.8899307 -0.16038385 3.6878252e-40
6.203053 -4.8616452 -0.15073292 2.7658689e-40
6.1826315 -4.8416214 -0.16048643 2.7658689e-40
6.5001984 -4.5355635 -0.15337074 3.226847e-39
6.4947042 -4.6032076 -0.14479592 5.5317378e-40
6.4875817 -4.5740175 -0.15002206 4.6097815e-40
6.477777 -4.6424294 -0.1412029 5.5317378e-40
6.4796147 -4.6124158 -0.15627566 6.4536941e-40
6.4573817 -4.6806798 -0.13093108 2.489282e-39
6.4627118 -4.6484752 -0.13779031 6.4536941e-40
6.4498496 -4.715416 -0.13135563 6.4536941e-40
6.4227347 -4.726963 -0.12836272 7.3756504e-40
6.4059024 -4.706192 -0.14220542 5.5317378e-40
6.395596 -4.7394495 -0.12975945 4.6097815e-40
6.3804436 -4.7749271 -0.11751517 4.6097815e-40
6.375277 -4.7497597 -0.13534616 4.6097815e-40
6.3667455 -4.8121691 -0.12197036 5.5317378e-40
6.3564787 -4.7903795 -0.13966034 4.6097815e-40
6.3533792 -4.8464785 -0.11327451 8.2976067e-40
6.3346014 -4.8269958 -0.12379958 4.6097815e-40
6.3210402 -4.8610063 -0.11327451 4.6097815e-40
6.3212957 -4.8337474 -0.12745802 3.6878252e-40
6.2929411 -4.9006252 -0.10367156 2.7658689e-40
6.2983284 -4.8719568 -0.1168099 3.6878252e-40
6.2712407 -4.9112868 -0.10798527 3.6878252e-40
6.2698116 -4.8862066 -0.12360867 1.8439126e-40
6.2487087 -4.9227781 -0.11445589 2.7658689e-40
6.2262154 -4.9040637 -0.11545016 2.7658689e-40
6.2082672 -4.8821993 -0.1164827 2.7658689e-40
6.1933665 -4.8607235 -0.12581961 1.8439126e-40
6.1780472 -4.8383589 -0.13534613 1.8439126e-40
6.1644206 -4.8719683 -0.11751517 3.6878252e-40
6.1624765 -4.8453541 -0.13534616 2.7658689e-40
6.5124021 -4.6177263 -0.097976923 6.4536941e-40
6.4924335 -4.5981531 -0.11609659 7.3756504e-40
6.4935365 -4.5680723 -0.13457154 1.751717e-39
6.4861288 -4.6606073 -0.097107984 3.6878252e-40
6.4786754 -4.6368895 -0.11693574 5.5317378e-40
6.4678178 -4.6712189 -0.10838233 5.5317378e-40
6.450479 -4.7088823 -0.10182568 5.5317378e-40
6.4193377 -4.7228718 -0.10182571 5.5317378e-40
6.3933864 -4.7345295 -0.10182571 4.6097815e-40
6.3786917 -4.7710266 -0.095370062 5.5317378e-40
6.3645749 -4.8073368 -0.094532058 4.6097815e-40
6.3449059 -4.8438387 -0.082816154 6.4536941e-40
6.3297558 -4.8253012 -0.10550741 3.6878252e-40
6.3196411 -4.8551879 -0.082816124 3.6878252e-40
6.2939529 -4.8961763 -0.084799014 2.7658689e-40
6.3002672 -4.86343 -0.080640592 3.6878252e-40
6.2711968 -4.905828 -0.08210291 2.7658689e-40
6.248867 -4.9164295 -0.084798984 2.7658689e-40
6.2275038 -4.8961172 -0.080640532 2.7658689e-40
6.2110009 -4.9039907 -0.082816154 3.6878252e-40
6.1965508 -4.8833971 -0.09727595 2.7658689e-40
6.1785369 -4.8621116 -0.10090633 1.8439126e-40
6.154634 -4.8417816 -0.10182571 2.7658689e-40
6.4969597 -4.5283537 -0.11243498 4.6097815e-40
6.4938693 -4.5918388 -0.089310519 5.5317378e-40
6.4843445 -4.6566362 -0.074559294 3.6878252e-40
6.4894662 -4.6232138 -0.075226501 4.6097815e-40
6.4737787 -4.6913214 -0.068305396 4.6097815e-40
6.4695253 -4.6656795 -0.085833661 5.5317378e-40
6.4482694 -4.7039628 -0.073892079 4.6097815e-40
6.4223542 -4.7443819 -0.062152337 4.6097815e-40
6.4188633 -4.7178478 -0.077084489 4.6097815e-40
6.4017806 -4.753624 -0.062152337 3.6878252e-40
6.3916183 -4.7305937 -0.079478815 8.2976067e-40
6.3763962 -4.7927341 -0.050630994 4.6097815e-40
6.3765016 -4.7661514 -0.067688629 1.2907388e-39
6.3607764 -4.801609 -0.059411261 4.6097815e-40
6.3615093 -4.7740583 -0.073224925 5.5317378e-40
6.3446894 -4.8379493 -0.054533362 4.6097815e-40
6.3396235 -4.8705244 -0.060534317 4.6097815e-40
6.3174891 -4.8503981 -0.055621143 6.4536941e-40
6.2886748 -4.8911285 -0.049749963 6.4536941e-40
6.2972775 -4.859478 -0.055621143 6.4536941e-40
6.2686367 -4.9001298 -0.049749963 2.7658689e-40
6.2490253 -4.9100809 -0.055142112 3.6878252e-40
6.2265348 -4.8912568 -0.055621143 1.8439126e-40
6.2118063 -4.899024 -0.061060168 2.7658689e-40
6.1960607 -4.8754864 -0.058862481 3.6878252e-40
6.175909 -4.8562613 -0.067688629 2.7658689e-40
6.1576142 -4.8345304 -0.073892079 2.7658689e-40
6.4982343 -4.61446 -0.052476022 4.6097815e-40
6.493679 -4.5866594 -0.064437784 3.6878252e-40
6.4821148 -4.6516719 -0.046373472 8.2976067e-40
6.4876661 -4.6192074 -0.052476082 5.5317378e-40
6.4715681 -4.6864014 -0.040371697 5.5317378e-40
6.4510245 -4.7256436 -0.034470934 4.6097815e-40
6.4476418 -4.697938 -0.04409615 4.6097815e-40
6.42766 -4.7355528 -0.031702761 5.5317378e-40
6.4219851 -4.7102518 -0.047820665 5.5317378e-40
6.4000287 -4.7497234 -0.04000717 5.5317378e-40
6.3801918 -4.7875443 -0.034168076 5.5317378e-40
6.380331 -4.7609158 -0.051079754 2.2126951e-39
6.3654375 -4.8219519 -0.022987165 6.4536941e-40
6.3602333 -4.7976713 -0.039655734 1.3829344e-39
6.3406029 -4.834259 -0.028426131 4.6097815e-40
6.3153377 -4.8456087 -0.028426249 6.4536941e-40
6.2865419 -4.8863802 -0.022789223 3.6878252e-40
6.2951255 -4.8546882 -0.028426249 6.4536941e-40
6.2633066 -4.8971987 -0.024586605 2.7658689e-40
6.2625494 -4.8677874 -0.021174215 4.6097815e-40
6.2294364 -4.8841972 -0.028426131 1.8439126e-40
6.2017546 -4.8677015 -0.034168076 1.8439126e-40
6.1786432 -4.848588 -0.037239052 1.8439126e-40
6.1653428 -4.8239632 -0.040371697 1.8439126e-40
6.488061 -4.581286 -0.027128695 5.5317378e-40
6.4798846 -4.6467075 -0.018187594 5.5317378e-40
6.4858661 -4.6152 -0.029725542 7.3756504e-40
6.4641681 -4.6838131 -0.012438116 5.5317378e-40
6.4689646 -4.6504202 -0.012550406 4.6097815e-40
6.445395 -4.6920099 -0.011320779 6.4536941e-40
6.4263463 -4.7326279 -0.015093941 4.6097815e-40
6.422204 -4.7014818 -0.006851376 7.3756504e-40
6.3987956 -4.7435393 -0.0081735617 4.6097815e-40
6.3831191 -4.7804213 -0.0067298985 4.6097815e-40
6.3683391 -4.8148918 0.004207788 4.6097815e-40
6.3545418 -4.8501272 0.0041715764 4.6097815e-40
6.3367577 -4.8290787 0.004207788 4.6097815e-40
6.3127556 -4.8398609 0.0042077298 4.6097815e-40
6.2894182 -4.8793817 0.0041715764 3.6878252e-40
6.2975969 -4.8466711 0.004207788 6.4536941e-40
6.2743897 -4.8861327 0.0041715764 3.6878252e-40
6.2521195 -4.8670998 0.004207788 1.8439126e-40
6.2282252 -4.8781214 0.0028480464 2.7658689e-40
6.1995835 -4.8628688 -0.0067298985 2.7658689e-40
6.1774378 -4.843153 -0.0090040732 1.8439126e-40
6.1527519 -4.8237071 -0.012438116 2.7658689e-40
6.5007796 -4.6012774 0.0044000889 4.6097815e-40
6.4833512 -4.5779347 -0.0012993356 6.4536941e-40
6.4776545 -4.6417437 0.0099982843 4.6097815e-40
6.462842 -4.6808615 0.0043221037 7.3756504e-40
6.4635406 -4.647686 0.011877365 5.5317378e-40
6.4400101 -4.6890488 0.014098912 4.6097815e-40
6.415246 -4.6998777 0.015495525 4.6097815e-40
6.3971801 -4.7378788 0.021999199 5.5317378e-40
6.3788147 -4.7753863 0.026195997 9.219563e-40
6.3611345 -4.8123722 0.0314028 4.6097815e-40
6.3358693 -4.8237219 0.031402741 7.3756504e-40
6.3106041 -4.8350716 0.0314028 5.5317378e-40
6.2857575 -4.8757 0.029334992 3.6878252e-40
6.2919331 -4.8430753 0.03321581 4.6097815e-40
6.2693253 -4.8815594 0.036524523 2.7658689e-40
6.2484269 -4.8633862 0.029589791 2.7658689e-40
6.2297559 -4.8713899 0.0314028 2.7658689e-40
6.2071748 -4.8524895 0.026195997 2.7658689e-40
6.1978469 -4.8590031 0.015220678 2.7658689e-40
6.1791873 -4.8360395 0.020891869 2.7658689e-40
6.1609225 -4.8141241 0.015495525 1.8439126e-40
6.1505423 -4.8187876 0.015495583 2.7658689e-40
6.4919343 -4.6004362 0.027150629 5.5317378e-40
6.476202 -4.5762863 0.021660132 6.4536941e-40
6.507051 -4.6852417 0.037500747 5.5317378e-40
6.4913316 -4.6609683 0.037842482 8.2976067e-40
6.4758706 -4.6377726 0.032546975 4.6097815e-40
6.4544764 -4.6461897 0.038184162 5.5317378e-40
6.4337969 -4.6856318 0.043429166 4.6097815e-40
6.4191751 -4.7235451 0.043037038 3.6878252e-40
6.4186678 -4.6936102 0.037842482 5.5317378e-40
6.4195633 -4.7524347 0.048146516 4.6097815e-40
6.3930206 -4.7341228 0.04857339 4.6097815e-40
6.3736792 -4.773047 0.048146516 6.4536941e-40
6.3664274 -4.7437248 0.059645917 3.6878252e-40
6.3598433 -4.8094988 0.047719818 3.6878252e-40
6.3449335 -4.7827077 0.063511997 4.6097815e-40
6.3340621 -4.8196983 0.054246627 7.3756504e-40
6.3162966 -4.7953396 0.06460949 4.6097815e-40
6.3042603 -4.8344674 0.047719818 5.5317378e-40
6.2994471 -4.8032961 0.062780388 4.6097815e-40
6.282032 -4.8424382 0.057238068 3.6878252e-40
6.2514987 -4.8555789 0.059957612 4.6097815e-40
6.2303457 -4.8659444 0.055878326 1.8439126e-40
6.2113676 -4.843637 0.059121832 1.8439126e-40
6.1966949 -4.819972 0.059645917 1.8439126e-40
6.1877222 -4.827518 0.043037038 2.7658689e-40
6.1695352 -4.8055253 0.037842482 2.7658689e-40
6.4474554 -4.6445713 0.060732853 4.6097815e-40
6.4294548 -4.5863519 0.073318966 4.6097815e-40
6.4324708 -4.6826797 0.060189441 4.6097815e-40
6.4203773 -4.6543484 0.072007224 4.6097815e-40
6.4249263 -4.6209064 0.072651587 5.5317378e-40
6.4056354 -4.6923695 0.071362861 4.6097815e-40
6.4090114 -4.6570683 0.083281539 5.5317378e-40
6.3809814 -4.7348433 0.070718497 4.6097815e-40
6.380825 -4.7019386 0.078811891 4.6097815e-40
6.363822 -4.7406769 0.079576544 4.6097815e-40
6.3431969 -4.778842 0.085462458 6.4536941e-40
6.3492451 -4.7467566 0.081791028 5.5317378e-40
6.3319964 -4.8151007 0.080353796 1.0141519e-39
6.3178139 -4.7896247 0.088389233 5.5317378e-40
6.2969332 -4.7999725 0.083816178 5.5317378e-40
6.2815046 -4.7748432 0.092863612 4.6097815e-40
6.2637224 -4.8146977 0.084730849 5.5317378e-40
6.260931 -4.7840853 0.092863612 3.6878252e-40
6.2511482 -4.851419 0.080353796 3.6878252e-40
6.2376528 -4.8248606 0.092047669 3.6878252e-40
6.2227921 -4.8326974 0.086560011 2.7658689e-40
6.2000861 -4.8137608 0.081791081 2.7658689e-40
6.1781478 -4.7969265 0.060189441 1.8439126e-40
6.4134583 -4.6236506 0.084026858 4.6097815e-40
6.3966522 -4.6908865 0.097434275 5.5317378e-40
6.3774738 -4.6991081 0.099296503 5.5317378e-40
6.3573418 -4.7372599 0.10947248 4.6097815e-40
6.3614612 -4.7051187 0.1048833 4.6097815e-40
6.3438463 -4.7748327 0.10302299 4.6097815e-40
6.3363299 -4.7455273 0.11500884 5.5317378e-40
6.3234539 -4.7839937 0.10302299 8.2976067e-40
6.3056889 -4.7598782 0.11224066 4.6097815e-40
