# .PCD v0.7 - Point Cloud Data file format
VERSION 0.7
FIELDS x y z rgb
SIZE 4 4 4 4
TYPE F F F F
COUNT 1 1 1 1
WIDTH 1025
HEIGHT 1
VIEWPOINT 0 0 0 1 0 0 0
POINTS 1025
DATA ascii
6.4539175 -2.5470011 -1.0619298 2.7658689e-40
6.4382133 -2.5167222 -1.058732 2.7658689e-40
6.4205036 -2.5224211 -1.0648088 2.7658689e-40
6.4013171 -2.4946866 -1.0752264 2.7658689e-40
6.3910837 -2.5322978 -1.0769624 2.7658689e-40
6.3191981 -2.4087377 -1.0878223 6.4536941e-40
6.2905402 -2.4162519 -1.089087 4.6097815e-40
6.2655683 -2.4225805 -1.089087 3.6878252e-40
6.2343531 -2.4304914 -1.089087 4.6097815e-40
6.2061543 -2.4020391 -1.1002573 2.7658689e-40
6.1855373 -2.3693902 -1.1052824 2.7658689e-40
6.1733603 -2.3348854 -1.1170048 2.7658689e-40
6.1509366 -2.3755875 -1.0923723 2.7658689e-40
6.1559796 -2.338424 -1.1126556 2.7658689e-40
6.1394157 -2.3836503 -1.1181927 2.7658689e-40
6.5547051 -2.4826005 -1.0356404 4.6097815e-40
6.5249548 -2.4894948 -1.0323994 4.6097815e-40
6.5334296 -2.4563165 -1.0506816 6.4536941e-40
6.5030532 -2.4954488 -1.034425 1.0141519e-39
6.4738255 -2.5357213 -1.0306305 2.7658689e-40
6.4730568 -2.5030508 -1.034425 2.7658689e-40
6.4565692 -2.5424926 -1.0426687 2.7658689e-40
6.4430599 -2.5106528 -1.034425 2.7658689e-40
6.4190626 -2.5167346 -1.034425 2.7658689e-40
6.4001532 -2.4900928 -1.0506816 3.6878252e-40
6.3980346 -2.4532926 -1.0425775 1.8439126e-40
6.3205557 -2.4036071 -1.0637927 6.4536941e-40
6.2893405 -2.4115179 -1.0637927 3.6878252e-40
6.2604795 -2.4522457 -1.0469246 3.6878252e-40
6.2665496 -2.4177136 -1.0659006 5.5317378e-40
6.2331533 -2.4257574 -1.0637927 3.6878252e-40
6.2016387 -2.4324846 -1.0574691 1.8439126e-40
6.1989384 -2.4000504 -1.0810919 2.7658689e-40
6.1667972 -2.4056509 -1.068315 1.8439126e-40
6.1375785 -2.3764014 -1.0794621 2.7658689e-40
6.5498948 -2.4787364 -1.010118 4.6097815e-40
6.5439925 -2.5131435 -1.006554 4.6097815e-40
6.5258975 -2.484818 -1.010118 9.219563e-40
6.5019002 -2.4908996 -1.010118 3.6878252e-40
6.4723978 -2.5300889 -1.0005349 2.7658689e-40
6.4759994 -2.4978671 -1.0121436 2.7658689e-40
6.4542851 -2.5334802 -0.99451584 2.7658689e-40
6.4400034 -2.5069895 -1.0121436 2.7658689e-40
6.4200053 -2.5120575 -1.0121436 2.7658689e-40
6.4049191 -2.4461992 -1.0157218 1.8439126e-40
6.3958621 -2.4154418 -1.0344036 2.7658689e-40
6.3210993 -2.431895 -1.0218825 3.6878252e-40
6.3171749 -2.3990059 -1.0363905 5.5317378e-40
6.2903218 -2.4066508 -1.0406063 4.6097815e-40
6.2694187 -2.4459901 -1.0268909 4.6097815e-40
6.2469306 -2.4506917 -1.0218825 5.5317378e-40
6.2281723 -2.4210823 -1.0339816 3.6878252e-40
6.2004385 -2.4277506 -1.0321748 2.7658689e-40
6.1754665 -2.4340792 -1.0321748 1.8439126e-40
6.1504946 -2.440408 -1.0321748 1.8439126e-40
6.5427427 -2.4757073 -0.98581094 5.5317378e-40
6.5484018 -2.4390776 -0.98318321 6.4536941e-40
6.5244565 -2.4791312 -0.97973418 5.5317378e-40
6.5004592 -2.4852128 -0.97973418 5.5317378e-40
6.4709706 -2.524456 -0.97043943 2.7658689e-40
6.482461 -2.489774 -0.97973412 3.6878252e-40
6.4590855 -2.527468 -0.97043943 2.7658689e-40
6.4404659 -2.5004168 -0.97973412 2.7658689e-40
6.4224677 -2.5049782 -0.97973418 1.8439126e-40
6.4087763 -2.4732406 -0.97704697 2.7658689e-40
6.3998599 -2.4433663 -0.99506354 2.7658689e-40
6.3260922 -2.4256415 -0.99684042 4.6097815e-40
6.3000145 -2.431752 -0.99433613 9.219563e-40
6.2720108 -2.4393475 -0.99684042 8.2976067e-40
6.2554259 -2.408777 -1.0068805 5.5317378e-40
6.2426524 -2.4467881 -0.99684036 4.6097815e-40
6.2236114 -2.4143209 -0.99423337 4.6097815e-40
6.2210197 -2.4522703 -0.99684036 4.6097815e-40
6.1989388 -2.421833 -1.0005569 2.7658689e-40
6.1739669 -2.4281616 -1.0005569 2.7658689e-40
6.1511526 -2.3968914 -1.0044307 2.7658689e-40
6.1555381 -2.4340916 -1.0068805 2.7658689e-40
6.1391449 -2.4024794 -1.0172075 2.7658689e-40
6.1281438 -2.3659353 -1.0149112 2.7658689e-40
6.1297669 -2.3251436 -1.0126278 3.6878252e-40
6.1126137 -2.2916822 -1.0232546 2.7658689e-40
6.5410132 -2.4688835 -0.94935036 3.6878252e-40
6.5230155 -2.4734447 -0.94935036 4.6097815e-40
6.4990182 -2.4795263 -0.94935036 3.6878252e-40
6.469543 -2.5188234 -0.9403438 2.7658689e-40
6.4729247 -2.4857357 -0.94732475 3.6878252e-40
6.4579439 -2.5229619 -0.94636291 2.7658689e-40
6.4390249 -2.4947302 -0.94935036 1.8439126e-40
6.4200191 -2.4667246 -0.95863837 2.7658689e-40
6.4004788 -2.4372432 -0.96510917 2.7658689e-40
6.3867121 -2.4052911 -0.9717983 2.7658689e-40
6.3202033 -2.4545012 -0.94961554 5.5317378e-40
6.3187237 -2.4225214 -0.9717983 4.6097815e-40
6.3018479 -2.4591529 -0.94961554 6.4536941e-40
6.3001814 -2.4272206 -0.9717983 4.6097815e-40
6.268981 -2.4338806 -0.96553785 4.6097815e-40
6.2380772 -2.4417129 -0.96553779 3.6878252e-40
6.2195349 -2.4464118 -0.96553779 2.7658689e-40
6.1977391 -2.417099 -0.97526264 2.7658689e-40
6.1790104 -2.4218454 -0.97526264 2.7658689e-40
6.1587543 -2.3915715 -0.98739487 1.8439126e-40
6.1460376 -2.3562574 -0.98909074 1.8439126e-40
6.128839 -2.3214808 -0.99305719 2.7658689e-40
6.1116757 -2.287981 -1.0034786 2.7658689e-40
6.5424275 -2.4618678 -0.91592818 4.6097815e-40
6.5518408 -2.4272065 -0.9279573 3.6878252e-40
6.521574 -2.4677582 -0.91896653 4.6097815e-40
6.4975767 -2.4738398 -0.91896653 5.5317378e-40
6.468401 -2.5143173 -0.91626734 1.8439126e-40
6.4737234 -2.4804897 -0.92200494 3.6878252e-40
6.4562306 -2.5162027 -0.91024828 1.8439126e-40
6.4364991 -2.4898028 -0.92139727 1.8439126e-40
6.4191461 -2.4632795 -0.94022971 1.8439126e-40
6.4097562 -2.4951279 -0.91410518 2.7658689e-40
6.4003897 -2.4655886 -0.9279573 2.7658689e-40
6.3193216 -2.4510212 -0.93102312 1.3829344e-39
6.3009663 -2.455673 -0.93102312 9.219563e-40
6.2677932 -2.4291935 -0.94049573 8.2976067e-40
6.2368894 -2.4370258 -0.94049567 4.6097815e-40
6.2089276 -2.4434886 -0.93736541 2.7658689e-40
6.1985207 -2.411443 -0.94786048 2.7658689e-40
6.1712675 -2.41751 -0.94364476 1.8439126e-40
6.1493349 -2.3897173 -0.96610004 1.8439126e-40
6.1522388 -2.421073 -0.93732113 2.7658689e-40
6.1355085 -2.3881314 -0.94054633 2.7658689e-40
6.1279106 -2.3178182 -0.97348654 2.7658689e-40
6.5420346 -2.4561174 -0.88655716 4.6097815e-40
6.5506763 -2.4226127 -0.90341246 6.4536941e-40
6.520133 -2.4620714 -0.88858277 3.6878252e-40
6.4961357 -2.468153 -0.88858277 4.6097815e-40
6.4669733 -2.5086844 -0.88617188 2.7658689e-40
6.4702349 -2.4751208 -0.89060831 2.7658689e-40
6.4513173 -2.5134513 -0.89018458 2.7658689e-40
6.4361424 -2.483357 -0.88858277 2.7658689e-40
6.4142408 -2.4893112 -0.89060831 2.7658689e-40
6.3989348 -2.4598463 -0.89727622 2.7658689e-40
6.3154573 -2.4096324 -0.90293252 1.2907388e-39
6.3062029 -2.4506431 -0.9124307 5.5317378e-40
6.295857 -2.4153481 -0.90668887 8.2976067e-40
6.2811408 -2.4545252 -0.90003574 5.5317378e-40
6.2684674 -2.4232035 -0.91127998 1.9361082e-39
6.2566667 -2.4607277 -0.90003574 5.5317378e-40
6.2342873 -2.4319494 -0.91169727 4.6097815e-40
6.2062669 -2.4385514 -0.9091931 6.4536941e-40
6.1881971 -2.4056623 -0.90570325 1.8439126e-40
6.1697679 -2.4115922 -0.91202682 1.8439126e-40
6.1472135 -2.3813479 -0.921381 1.8439126e-40
6.1305366 -2.3486147 -0.93099487 2.7658689e-40
6.5366898 -2.4518237 -0.85819894 4.6097815e-40
6.5495124 -2.4180188 -0.87886757 5.5317378e-40
6.518692 -2.4563849 -0.85819894 3.6878252e-40
6.4946947 -2.4624665 -0.85819894 4.6097815e-40
6.4655461 -2.503052 -0.85607624 2.7658689e-40
6.4646978 -2.4700685 -0.85819894 1.8439126e-40
6.4347014 -2.4776704 -0.85819894 2.7658689e-40
6.4156537 -2.4494982 -0.86659515 2.7658689e-40
6.4041281 -2.4829981 -0.84604543 2.7658689e-40
6.3963842 -2.4548709 -0.86904961 1.8439126e-40
6.3142695 -2.4049456 -0.87789041 5.5317378e-40
6.292202 -2.4467847 -0.87524587 5.5317378e-40
6.2976885 -2.4087324 -0.87580359 6.4536941e-40
6.2674341 -2.451827 -0.86904842 3.6878252e-40
6.277185 -2.4143438 -0.87789041 4.6097815e-40
6.2454467 -2.4901891 -0.85432273 5.5317378e-40
6.247333 -2.4581556 -0.87524593 1.0141519e-39
6.2280359 -2.4280465 -0.88415092 4.6097815e-40
6.2181921 -2.4630721 -0.86285096 5.5317378e-40
6.200603 -2.4340014 -0.87914252 2.7658689e-40
6.1685681 -2.4068582 -0.88673252 2.7658689e-40
6.1460018 -2.3765652 -0.89582723 2.7658689e-40
6.1296182 -2.3449903 -0.91162962 2.7658689e-40
6.5412478 -2.4446166 -0.82781512 4.6097815e-40
6.5172505 -2.4506981 -0.82781512 4.6097815e-40
6.4932532 -2.4567797 -0.82781512 3.6878252e-40
6.4641185 -2.4974191 -0.82598078 2.7658689e-40
6.4673524 -2.4637475 -0.82984072 2.7658689e-40
6.451663 -2.4981782 -0.81394249 2.7658689e-40
6.43326 -2.4719837 -0.82781512 1.8439126e-40
6.4057207 -2.4792054 -0.82903045 2.7658689e-40
6.3896751 -2.4487486 -0.8297779 2.7658689e-40
6.3760972 -2.4181166 -0.83806109 2.7658689e-40
6.3781409 -2.4541161 -0.84205031 2.7658689e-40
6.3638601 -2.4212177 -0.83806109 5.5317378e-40
6.3130817 -2.4002588 -0.85284835 7.3756504e-40
6.2945395 -2.404958 -0.85284835 5.5317378e-40
6.2660489 -2.4119289 -0.85159624 5.5317378e-40
6.2481966 -2.4529991 -0.85045606 4.6097815e-40
6.2305727 -2.4207537 -0.85076147 1.1063476e-39
6.2080092 -2.4268873 -0.85284835 3.6878252e-40
6.1887689 -2.3948114 -0.85195285 2.7658689e-40
6.168437 -2.401098 -0.85764408 2.7658689e-40
6.1486912 -2.3695209 -0.86388505 1.8439126e-40
6.5402527 -2.4069211 -0.81136924 4.6097815e-40
6.5160203 -2.4130623 -0.81136924 4.6097815e-40
6.4921002 -2.4522305 -0.8035081 3.6878252e-40
6.4626913 -2.4917867 -0.79588515 1.8439126e-40
6.4741025 -2.4567916 -0.8035081 2.7658689e-40
6.4467497 -2.4954269 -0.79387885 1.8439126e-40
6.4302034 -2.4683204 -0.80553365 1.8439126e-40
6.4141092 -2.4719958 -0.8035081 1.8439126e-40
6.3969765 -2.4436388 -0.81341463 1.8439126e-40
6.3796988 -2.4117725 -0.81079221 2.7658689e-40
6.3501534 -2.4185195 -0.80707377 3.6878252e-40
6.355011 -2.3840213 -0.82467598 4.6097815e-40
6.3288856 -2.4245267 -0.8101725 5.5317378e-40
6.3183718 -2.3951771 -0.83406675 5.5317378e-40
6.2956748 -2.4347947 -0.81946868 6.4536941e-40
6.2998295 -2.3998764 -0.83406675 7.3756504e-40
6.2915826 -2.4687192 -0.805233 4.6097815e-40
6.2709069 -2.4398375 -0.81327122 6.4536941e-40
6.2543058 -2.4105823 -0.82989311 4.6097815e-40
6.2519636 -2.4421692 -0.80087626 7.3756504e-40
6.2312474 -2.414763 -0.82154578 4.6097815e-40
6.2042661 -2.4207695 -0.81737208 7.3756504e-40
6.1845975 -2.3914602 -0.82982028 2.7658689e-40
6.1655688 -2.3950231 -0.8234967 1.8439126e-40
6.5383658 -2.4332435 -0.76704752 7.3756504e-40
6.5393796 -2.4034758 -0.79296058 4.6097815e-40
6.5162721 -2.4384389 -0.76502192 3.6878252e-40
6.5129342 -2.409363 -0.7888698 3.6878252e-40
6.4906592 -2.4465439 -0.77312428 4.6097815e-40
6.4612637 -2.4861538 -0.76578963 1.8439126e-40
6.4726615 -2.4511051 -0.77312428 1.8439126e-40
6.4408083 -2.4909959 -0.7640698 1.8439126e-40
6.4249549 -2.4644055 -0.77920103 2.7658689e-40
6.4077535 -2.4670706 -0.7706936 1.8439126e-40
6.3913856 -2.4385374 -0.78068817 2.7658689e-40
6.3737454 -2.4088373 -0.78848135 2.7658689e-40
6.3586879 -2.4451942 -0.77250654 3.6878252e-40
6.3612146 -2.4107785 -0.78228384 4.6097815e-40
6.3341002 -2.4837999 -0.76097077 4.6097815e-40
6.3309994 -2.4546559 -0.78477895 7.3756504e-40
6.3082952 -2.4911463 -0.76502192 5.5317378e-40
6.3109999 -2.4605391 -0.7888698 4.6097815e-40
6.2882977 -2.4962144 -0.76502192 4.6097815e-40
6.2785931 -2.4683444 -0.78682441 1.0141519e-39
6.2681079 -2.5005245 -0.76097077 3.6878252e-40
6.2474298 -2.4725754 -0.76841575 3.6878252e-40
6.2359324 -2.4431462 -0.78538263 6.4536941e-40
6.2140765 -2.4468334 -0.77608639 3.6878252e-40
6.1964459 -2.4175975 -0.7914952 3.6878252e-40
6.1643691 -2.3902891 -0.7982024 1.8439126e-40
6.5372128 -2.428694 -0.74274045 5.5317378e-40
6.5132155 -2.4347756 -0.74274045 5.5317378e-40
6.4892182 -2.4408572 -0.74274045 4.6097815e-40
6.459836 -2.4805214 -0.73569405 1.8439126e-40
6.47122 -2.4454184 -0.74274045 1.8439126e-40
6.4383864 -2.4857178 -0.73449022 1.8439126e-40
6.4235139 -2.4587188 -0.74881721 1.8439126e-40
6.4015703 -2.4628277 -0.74152511 1.8439126e-40
6.3861823 -2.4349673 -0.75614327 1.8439126e-40
6.3692317 -2.4712653 -0.74274045 2.7658689e-40
6.3392348 -2.4788673 -0.74274045 4.6097815e-40
6.3092384 -2.4864693 -0.74274045 3.6878252e-40
6.2852411 -2.4925511 -0.74274045 4.6097815e-40
6.2580996 -2.4988244 -0.73970211 3.6878252e-40
6.2468481 -2.4702787 -0.75614327 5.5317378e-40
6.2283831 -2.473736 -0.75000709 4.6097815e-40
6.2090178 -2.4440007 -0.75542814 2.7658689e-40
6.1895289 -2.4145291 -0.76728785 2.7658689e-40
6.1628695 -2.3843715 -0.76658452 1.8439126e-40
6.5357718 -2.4230072 -0.71235669 5.5317378e-40
6.5117741 -2.4290891 -0.71235669 4.6097815e-40
6.4818926 -2.4677382 -0.69957936 4.6097815e-40
6.4909205 -2.434979 -0.71539503 4.6097815e-40
6.4643512 -2.4733832 -0.70559841 2.7658689e-40
6.4361248 -2.4805365 -0.70559841 1.8439126e-40
6.4217844 -2.451895 -0.71235669 2.7658689e-40
6.404356 -2.4861896 -0.69356024 1.8439126e-40
6.3962379 -2.4590614 -0.71582901 1.8439126e-40
6.3627591 -2.4967315 -0.69356024 2.7658689e-40
6.3691053 -2.4657295 -0.71478736 2.7658689e-40
6.3449316 -2.5012496 -0.69356024 4.6097815e-40
6.3405395 -2.4739373 -0.71964878 4.6097815e-40
6.3154483 -2.5096803 -0.69837552 3.6878252e-40
6.3101811 -2.4817924 -0.72045898 3.6878252e-40
6.2876787 -2.5165577 -0.69757307 5.5317378e-40
6.2821841 -2.4888875 -0.72045898 3.6878252e-40
6.2676802 -2.5208273 -0.69356024 5.5317378e-40
6.2538033 -2.4944668 -0.71235663 7.3756504e-40
6.2396259 -2.4672201 -0.73159844 3.6878252e-40
6.2254219 -2.5000451 -0.70425433 2.7658689e-40
6.2125049 -2.4721379 -0.72178048 2.7658689e-40
6.2000761 -2.442975 -0.73890162 1.8439126e-40
6.1841216 -2.4104958 -0.74015892 1.8439126e-40
6.1866632 -2.4414368 -0.71411175 2.7658689e-40
6.1646886 -2.4116795 -0.72137737 2.7658689e-40
6.1616697 -2.3796375 -0.74129021 2.7658689e-40
6.1426406 -2.3832004 -0.73496664 1.8439126e-40
6.5442319 -2.4475436 -0.67750937 5.5317378e-40
6.5520401 -2.411622 -0.67589611 5.5317378e-40
6.5282903 -2.4511845 -0.6755029 4.6097815e-40
6.5163326 -2.4218822 -0.68197286 6.4536941e-40
6.4926929 -2.4604456 -0.67670673 4.6097815e-40
6.4920468 -2.4268262 -0.67589611 4.6097815e-40
6.4573402 -2.5003102 -0.66307151 1.8439126e-40
6.4649997 -2.4676235 -0.67750937 2.7658689e-40
6.4332118 -2.4752803 -0.67550284 1.8439126e-40
6.4034996 -2.48281 -0.6755029 1.8439126e-40
6.3737874 -2.4903402 -0.67550284 2.7658689e-40
6.3440752 -2.49787 -0.6755029 4.6097815e-40
6.3143635 -2.5053999 -0.67550284 4.6097815e-40
6.2846513 -2.5129297 -0.6755029 4.6097815e-40
6.2668238 -2.5174477 -0.6755029 4.6097815e-40
6.2463627 -2.4903004 -0.68197286 3.6878252e-40
6.2223654 -2.496382 -0.68197286 2.7658689e-40
6.2015314 -2.4695411 -0.69478118 2.7658689e-40
6.2040792 -2.4998057 -0.67589611 2.7658689e-40
6.185781 -2.437957 -0.69551933 2.7658689e-40
6.1637979 -2.4081643 -0.70259577 1.8439126e-40
6.1414409 -2.3784664 -0.70967227 2.7658689e-40
6.5511503 -2.3736041 -0.65796387 5.5317378e-40
6.5432725 -2.4106166 -0.65969139 5.5317378e-40
6.5212059 -2.448184 -0.65142649 8.2976067e-40
6.4914937 -2.4557142 -0.65142643 4.6097815e-40
6.4564919 -2.496963 -0.64518714 3.6878252e-40
6.4677238 -2.4617379 -0.65142649 4.6097815e-40
6.4388356 -2.5014377 -0.64518714 1.8439126e-40
6.4204702 -2.4749124 -0.65744561 1.8439126e-40
6.4069972 -2.5092692 -0.64399487 2.7658689e-40
6.3799806 -2.5163534 -0.64518714 2.7658689e-40
6.3564386 -2.5223196 -0.64518714 4.6097815e-40
6.3369908 -2.4948695 -0.65142649 5.5317378e-40
6.3190694 -2.5313942 -0.64319998 5.5317378e-40
6.3093548 -2.5022728 -0.65343291 6.4536941e-40
6.2835093 -2.5084233 -0.65142649 4.6097815e-40
6.2512093 -2.4842308 -0.65766579 5.5317378e-40
6.2212124 -2.4918327 -0.65766579 2.7658689e-40
6.2032142 -2.4963939 -0.65766579 1.8439126e-40
6.1879597 -2.4668696 -0.66410011 2.7658689e-40
6.1626101 -2.4034774 -0.67755365 1.8439126e-40
6.1402411 -2.3737323 -0.68437797 1.8439126e-40
6.5607343 -2.4634206 -0.60941839 5.5317378e-40
6.5432625 -2.4354012 -0.6153118 5.5317378e-40
6.5443115 -2.4063189 -0.63943553 4.6097815e-40
6.5136504 -2.4753532 -0.60941839 4.6097815e-40
6.5228925 -2.4423618 -0.62434047 4.6097815e-40
6.4959941 -2.4798279 -0.60941839 4.6097815e-40
6.4906373 -2.4523342 -0.63336921 3.6878252e-40
6.4667549 -2.4880292 -0.61339271 4.6097815e-40
6.4668674 -2.4583583 -0.63336915 2.7658689e-40
6.440753 -2.5256867 -0.600573 2.7658689e-40
6.4397607 -2.4968498 -0.62332845 1.8439126e-40
6.4126287 -2.5330107 -0.60155696 2.7658689e-40
6.4113612 -2.5042446 -0.62432206 1.8439126e-40
6.3877974 -2.5394602 -0.60234416 3.6878252e-40
6.3769817 -2.5127597 -0.62332845 2.7658689e-40
6.3560987 -2.5465529 -0.59762108 6.4536941e-40
6.349422 -2.5193481 -0.62134129 4.6097815e-40
6.3269558 -2.5539386 -0.59762108 5.5317378e-40
6.3199944 -2.5268059 -0.62134129 4.6097815e-40
6.3004799 -2.5005257 -0.63336915 4.6097815e-40
6.2977548 -2.5296717 -0.60743123 7.3756504e-40
6.2810073 -2.5035424 -0.62373859 5.5317378e-40
6.2595005 -2.5085135 -0.62133092 4.6097815e-40
6.2407689 -2.4808247 -0.62728202 4.6097815e-40
6.2197714 -2.4861462 -0.62728202 2.7658689e-40
6.2017732 -2.4907074 -0.62728202 1.8439126e-40
6.1865048 -2.4611273 -0.63341904 1.8439126e-40
6.1708984 -2.430619 -0.63974202 1.8439126e-40
6.1549444 -2.3991854 -0.64625108 2.7658689e-40
6.5537181 -2.4604492 -0.58557254 1.0141519e-39
6.5364637 -2.4335275 -0.59725446 5.5317378e-40
6.5242906 -2.4679072 -0.58557254 5.5317378e-40
6.4985857 -2.5066795 -0.57872891 7.3756504e-40
6.4718304 -2.5136952 -0.57990968 4.6097815e-40
6.4486752 -2.5487118 -0.56272793 3.6878252e-40
6.4429674 -2.5221863 -0.58581346 3.6878252e-40
6.4197526 -2.5558088 -0.56155825 3.6878252e-40
6.4155807 -2.528343 -0.58187759 3.6878252e-40
6.3899527 -2.5642927 -0.56623662 4.6097815e-40
6.3846817 -2.5369575 -0.58581346 4.6097815e-40
6.3621926 -2.5711284 -0.56523418 5.5317378e-40
6.34971 -2.5458202 -0.58581346 4.6097815e-40
6.3350382 -2.5771224 -0.56077862 5.5317378e-40
6.3238401 -2.5514355 -0.58109045 4.6097815e-40
6.3098354 -2.5827329 -0.55687994 4.6097815e-40
6.2966928 -2.5569046 -0.57400584 4.6097815e-40
6.2860689 -2.528873 -0.58855325 5.5317378e-40
6.2650456 -2.5324199 -0.57961106 4.6097815e-40
6.2549987 -2.5040593 -0.59324181 3.6878252e-40
6.2390571 -2.5077 -0.5912354 3.6878252e-40
6.2183299 -2.4804595 -0.5968982 2.7658689e-40
6.1943326 -2.486541 -0.5968982 1.8439126e-40
6.1726422 -2.4573071 -0.59660172 3.6878252e-40
6.1697226 -2.4259791 -0.61495221 1.8439126e-40
6.15346 -2.3933268 -0.61494845 2.7658689e-40
6.5557294 -2.4857688 -0.54645479 4.6097815e-40
6.5469842 -2.4585934 -0.56768817 4.6097815e-40
6.5274382 -2.4932525 -0.54802912 4.6097815e-40
6.535213 -2.4615765 -0.56768817 5.5317378e-40
6.503283 -2.529825 -0.53738678 1.0141519e-39
6.4999089 -2.502111 -0.55747521 7.3756504e-40
6.4819288 -2.5344603 -0.53348809 1.1063476e-39
6.4693766 -2.5089078 -0.55275214 5.5317378e-40
6.4533391 -2.5428708 -0.53933609 6.4536941e-40
6.4338346 -2.5777636 -0.5314545 5.5317378e-40
6.4189763 -2.5527442 -0.54518402 3.6878252e-40
6.3937941 -2.5879111 -0.5314545 4.6097815e-40
6.3958821 -2.5585968 -0.54518402 1.2907388e-39
6.3679161 -2.5938923 -0.52855754 4.6097815e-40
6.3582163 -2.56756 -0.54226005 5.5317378e-40
6.3320971 -2.573597 -0.53933609 3.6878252e-40
6.3090034 -2.5794497 -0.53933609 5.5317378e-40
6.2897444 -2.553962 -0.5503906 6.4536941e-40
6.2751203 -2.522742 -0.54384232 3.6878252e-40
6.278367 -2.5580208 -0.55629444 6.4536941e-40
6.2641973 -2.5290725 -0.56172669 3.6878252e-40
6.2523432 -2.4977391 -0.55813026 3.6878252e-40
6.2376299 -2.5020671 -0.56113988 3.6878252e-40
6.2168889 -2.4747729 -0.56651437 1.8439126e-40
6.1928916 -2.4808545 -0.56651437 1.8439126e-40
6.17206 -2.4550102 -0.58432931 2.7658689e-40
6.5786905 -2.5041142 -0.50424832 4.6097815e-40
6.556459 -2.4804885 -0.52087164 4.6097815e-40
6.5264525 -2.5161879 -0.49840036 3.6878252e-40
6.5273161 -2.4878745 -0.52087158 9.219563e-40
6.5026479 -2.5240848 -0.50775701 4.6097815e-40
6.5101104 -2.4934111 -0.52677536 4.6097815e-40
6.4750462 -2.5315454 -0.51009625 5.5317378e-40
6.4523435 -2.566726 -0.49958798 4.6097815e-40
6.4464564 -2.5399556 -0.51594424 3.6878252e-40
6.428308 -2.5739715 -0.50538182 5.5317378e-40
6.3954172 -2.5823069 -0.50538182 4.6097815e-40
6.3679609 -2.5892649 -0.50538188 3.6878252e-40
6.3520641 -2.5634892 -0.51399493 4.6097815e-40
6.3342199 -2.5970466 -0.50151926 5.5317378e-40
6.337038 -2.56885 -0.52179217 3.6878252e-40
6.3050628 -2.5742915 -0.50842541 4.6097815e-40
6.2883439 -2.5484369 -0.52087158 4.6097815e-40
6.2766871 -2.5513911 -0.52087158 5.5317378e-40
6.2625008 -2.5223782 -0.52595794 4.6097815e-40
6.2480869 -2.4934227 -0.53104424 3.6878252e-40
6.2302599 -2.4979405 -0.53104424 2.7658689e-40
6.2094483 -2.4706068 -0.53613061 1.8439126e-40
6.1879086 -2.4763074 -0.53734595 1.8439126e-40
6.5768113 -2.529412 -0.47061843 3.6878252e-40
6.5637803 -2.5034668 -0.48202598 4.6097815e-40
6.5556188 -2.4771743 -0.50316018 5.5317378e-40
6.5313935 -2.5114412 -0.48085648 3.6878252e-40
6.5025263 -2.5187571 -0.48085648 4.6097815e-40
6.473659 -2.526073 -0.48085648 4.6097815e-40
6.4519229 -2.5928512 -0.47196817 4.6097815e-40
6.429256 -2.5985956 -0.47196817 4.6097815e-40
6.4322686 -2.5675817 -0.47834367 5.5317378e-40
6.406589 -2.6043401 -0.47196817 4.6097815e-40
6.3939881 -2.5766678 -0.47525352 4.6097815e-40
6.3654428 -2.5841329 -0.47641233 5.5317378e-40
6.3368425 -2.5913813 -0.47641227 4.6097815e-40
6.300456 -2.5699677 -0.48085648 3.6878252e-40
6.2734208 -2.576431 -0.47890717 4.6097815e-40
6.2678885 -2.5493093 -0.49922428 3.6878252e-40
6.2493162 -2.5197828 -0.49615064 3.6878252e-40
6.2263675 -2.4932754 -0.50266838 2.7658689e-40
6.2077188 -2.4637825 -0.49967003 1.8439126e-40
6.1962919 -2.5011542 -0.50395828 1.8439126e-40
6.5757742 -2.5580339 -0.4547486 4.6097815e-40
6.5629978 -2.4976079 -0.45161667 4.6097815e-40
6.5314503 -2.5056031 -0.45161667 4.6097815e-40
6.512516 -2.5399358 -0.44164887 4.6097815e-40
6.5000958 -2.5140154 -0.4539558 5.5317378e-40
6.4722724 -2.5206006 -0.4516167 4.6097815e-40
6.4511061 -2.5896285 -0.4547486 3.6878252e-40
6.449595 -2.555882 -0.44164887 4.6097815e-40
6.4323192 -2.5916457 -0.44097292 4.6097815e-40
6.4389796 -2.5620344 -0.4590306 3.6878252e-40
6.4051499 -2.5986617 -0.44162896 4.6097815e-40
6.3926692 -2.5714626 -0.44744277 4.6097815e-40
6.376894 -2.6061494 -0.44326887 5.5317378e-40
6.3630347 -2.5794346 -0.44976035 4.6097815e-40
6.3354683 -2.5859592 -0.44744271 4.6097815e-40
6.3120384 -2.5895889 -0.43585494 8.2976067e-40
6.2976952 -2.5651345 -0.45307869 3.6878252e-40
6.2765298 -2.5725369 -0.4633126 3.6878252e-40
6.2680578 -2.5418189 -0.46183348 4.6097815e-40
6.2517319 -2.5128376 -0.46435621 3.6878252e-40
6.2214627 -2.4881816 -0.47085309 2.7658689e-40
6.1976929 -2.4942052 -0.47085315 1.8439126e-40
6.5752926 -2.4569008 -0.42641065 5.5317378e-40
6.5517135 -2.4946437 -0.42237687 5.5317378e-40
6.5639157 -2.4609604 -0.43231446 4.6097815e-40
6.5286198 -2.5004961 -0.42237687 4.6097815e-40
6.5054221 -2.5359635 -0.41267928 6.4536941e-40
6.50003 -2.5089066 -0.42822483 4.6097815e-40
6.4939818 -2.5388629 -0.41267928 5.5317378e-40
6.4708853 -2.5151279 -0.42237687 4.6097815e-40
6.4484959 -2.5515444 -0.41847321 4.6097815e-40
6.426806 -2.5889273 -0.42030939 1.1063476e-39
6.4331508 -2.5550485 -0.41654196 4.6097815e-40
6.4038663 -2.5935977 -0.41456953 4.6097815e-40
6.3720784 -2.6014247 -0.41342157 8.2976067e-40
6.3572493 -2.5758228 -0.42426711 4.6097815e-40
6.3340945 -2.5805373 -0.41847315 6.4536941e-40
6.3109393 -2.5852513 -0.41267928 5.5317378e-40
6.2954283 -2.5598271 -0.4235464 5.5317378e-40
6.2743111 -2.563781 -0.41652891 9.219563e-40
6.2686009 -2.5358019 -0.43231446 4.6097815e-40
6.2547126 -2.5081239 -0.44448468 3.6878252e-40
6.2435193 -2.4753983 -0.43473849 2.7658689e-40
6.2201066 -2.4828305 -0.44226232 1.8439126e-40
6.1968365 -2.4908257 -0.4527958 1.8439126e-40
6.5741725 -2.452481 -0.4027954 4.6097815e-40
6.572866 -2.4811294 -0.38144118 4.6097815e-40
6.5566869 -2.4569125 -0.4027954 7.3756504e-40
6.5304527 -2.4938753 -0.39146623 4.6097815e-40
6.5090089 -2.5309 -0.39182124 5.5317378e-40
6.4920378 -2.5016136 -0.38144118 5.5317378e-40
6.4931574 -2.5356097 -0.39529756 4.6097815e-40
6.4708724 -2.509016 -0.39167508 5.5317378e-40
6.4478393 -2.5767372 -0.38587025 4.6097815e-40
6.4591117 -2.5453918 -0.40109149 5.5317378e-40
6.4367623 -2.6070483 -0.37098265 3.6878252e-40
6.4298143 -2.5817626 -0.38816619 4.6097815e-40
6.4030714 -2.6155865 -0.37098265 6.4536941e-40
6.4025731 -2.5884945 -0.38730526 4.6097815e-40
6.3749957 -2.6227016 -0.37098265 7.3756504e-40
6.3687773 -2.5979171 -0.39161009 4.6097815e-40
6.3581505 -2.6269708 -0.37098265 4.6097815e-40
6.3401713 -2.6040232 -0.38587022 4.6097815e-40
6.32128 -2.5780141 -0.38950372 6.4536941e-40
6.3068423 -2.5810964 -0.38660669 4.6097815e-40
6.2894783 -2.5557439 -0.39547619 3.6878252e-40
6.2732015 -2.5594029 -0.3931371 3.6878252e-40
6.2632217 -2.5308936 -0.40082747 3.6878252e-40
6.2450747 -2.5030465 -0.40672874 3.6878252e-40
6.2245502 -2.47541 -0.41066206 2.7658689e-40
6.2079716 -2.447984 -0.42067212 1.8439126e-40
6.5604868 -2.4807725 -0.36389726 3.6878252e-40
6.5558467 -2.4535978 -0.38508397 4.6097815e-40
6.525846 -2.4895513 -0.36389726 5.5317378e-40
6.4969788 -2.4968672 -0.36389726 4.6097815e-40
6.4681115 -2.5041831 -0.36389723 4.6097815e-40
6.4356833 -2.6027908 -0.34823215 6.4536941e-40
6.4033289 -2.610707 -0.34681025 4.6097815e-40
6.3900828 -2.5868013 -0.36291075 3.6878252e-40
6.3737822 -2.6179116 -0.34538835 6.4536941e-40
6.364038 -2.5911155 -0.35143104 5.5317378e-40
6.3576107 -2.6248417 -0.3596074 5.5317378e-40
6.3415074 -2.5973966 -0.35430098 5.5317378e-40
6.3236275 -2.5712645 -0.35860282 5.5317378e-40
6.3047438 -2.5768194 -0.36246544 4.6097815e-40
6.287118 -2.5496638 -0.36194792 4.6097815e-40
6.2718143 -2.5539305 -0.36389726 4.6097815e-40
6.258029 -2.526722 -0.37327635 3.6878252e-40
6.2439437 -2.4985836 -0.38288292 3.6878252e-40
6.2403789 -2.4630065 -0.36852828 3.6878252e-40
6.2321725 -2.5015666 -0.38288292 1.8439126e-40
6.2211418 -2.4702792 -0.38056657 1.8439126e-40
6.5753512 -2.4408157 -0.34572524 5.5317378e-40
6.5522828 -2.4774935 -0.33699659 5.5317378e-40
6.5244551 -2.5149839 -0.33156452 6.4536941e-40
6.5282159 -2.4827387 -0.33270815 4.6097815e-40
6.5075693 -2.520417 -0.33735844 4.6097815e-40
6.4925666 -2.4915791 -0.33173349 4.6097815e-40
6.4708843 -2.5277905 -0.32770196 5.5317378e-40
6.4669466 -2.4995863 -0.33933577 5.5317378e-40
6.4451165 -2.5659945 -0.32847157 4.6097815e-40
6.4552641 -2.5302105 -0.31997669 4.6097815e-40
6.4313922 -2.5976472 -0.31695029 4.6097815e-40
6.4337831 -2.5688667 -0.32847157 4.6097815e-40
6.4029436 -2.6056497 -0.32093158 4.6097815e-40
6.3845067 -2.6367037 -0.30568343 5.5317378e-40
6.3707862 -2.6139503 -0.32169002 6.4536941e-40
6.3544488 -2.5889723 -0.32847157 4.6097815e-40
6.3554525 -2.6163261 -0.31410646 3.6878252e-40
6.3389745 -2.5913694 -0.32081842 4.6097815e-40
6.3232179 -2.5664446 -0.33388209 3.6878252e-40
6.3013716 -2.5715196 -0.33156452 3.6878252e-40
6.291872 -2.5430231 -0.33465746 3.6878252e-40
6.2709823 -2.550647 -0.34635338 3.6878252e-40
6.2604213 -2.5198441 -0.34178934 3.6878252e-40
6.2395225 -2.4596269 -0.35047093 2.7658689e-40
6.2247987 -2.4304054 -0.35382774 1.8439126e-40
6.5727463 -2.4346159 -0.31128636 7.3756504e-40
6.5519395 -2.4712906 -0.30541769 4.6097815e-40
6.5588751 -2.441071 -0.3260459 4.6097815e-40
6.5285263 -2.5070279 -0.29680106 4.6097815e-40
6.5203242 -2.4798851 -0.30834168 3.6878252e-40
6.494205 -2.4859221 -0.30541769 4.6097815e-40
6.4658799 -2.5240583 -0.30259499 5.5317378e-40
6.4768848 -2.4903116 -0.30541769 7.3756504e-40
6.4545441 -2.5556026 -0.28829253 4.6097815e-40
6.4547148 -2.5280418 -0.30838886 3.6878252e-40
6.4332581 -2.6187348 -0.27749756 4.6097815e-40
6.4369092 -2.5919068 -0.29514775 4.6097815e-40
6.4112105 -2.6252205 -0.28200728 4.6097815e-40
6.4071412 -2.6002052 -0.29893953 4.6097815e-40
6.377872 -2.633894 -0.28313473 5.5317378e-40
6.3661437 -2.611351 -0.30273122 4.6097815e-40
6.3543735 -2.6120677 -0.29135606 4.6097815e-40
6.3368397 -2.5861182 -0.29173648 4.6097815e-40
6.321063 -2.5611436 -0.30452636 4.6097815e-40
6.312604 -2.590431 -0.28255269 4.6097815e-40
6.3018126 -2.5652528 -0.30066374 5.5317378e-40
6.2845292 -2.5394487 -0.307367 3.6878252e-40
6.26299 -2.543354 -0.29956973 2.7658689e-40
6.2613373 -2.5153 -0.32014206 2.7658689e-40
6.2386656 -2.4562471 -0.33241361 2.7658689e-40
6.2275496 -2.4244635 -0.32749516 1.8439126e-40
6.2057366 -2.3625383 -0.34226364 2.7658689e-40
6.2398963 -2.5492065 -0.29956973 2.7658689e-40
6.219697 -2.522325 -0.30243066 2.7658689e-40
6.2083001 -2.3944929 -0.32660833 1.8439126e-40
6.1839561 -2.3319783 -0.34574592 2.7658689e-40
6.1873617 -2.4338412 -0.32344395 1.8439126e-40
6.165894 -2.4052398 -0.32660833 1.8439126e-40
6.1438751 -2.4116352 -0.33069915 1.8439126e-40
6.1194897 -2.3819268 -0.3298687 2.7658689e-40
6.5796971 -2.4595966 -0.28202581 4.6097815e-40
6.5563264 -2.464355 -0.27617785 7.3756504e-40
6.5274272 -2.5026906 -0.27362531 5.5317378e-40
6.5102668 -2.5070391 -0.27362546 4.6097815e-40
6.4958434 -2.4802654 -0.27910185 3.6878252e-40
6.4758501 -2.5444868 -0.25959319 4.6097815e-40
6.478344 -2.5155909 -0.27594298 4.6097815e-40
6.453558 -2.5790019 -0.25154266 4.6097815e-40
6.4611015 -2.5497487 -0.26724634 7.3756504e-40
6.4365339 -2.6129644 -0.25269401 5.5317378e-40
6.4431367 -2.5850413 -0.2686055 3.6878252e-40
6.4099274 -2.6201563 -0.25494888 4.6097815e-40
6.3779263 -2.6282663 -0.25494888 4.6097815e-40
6.3639851 -2.6028349 -0.25723025 4.6097815e-40
6.3503852 -2.6344974 -0.25119075 5.5317378e-40
6.3417945 -2.6095917 -0.26291788 5.5317378e-40
6.3221693 -2.6691353 -0.24149397 3.6878252e-40
6.3235307 -2.6414902 -0.25213027 3.6878252e-40
6.3139887 -2.6177714 -0.2686055 3.6878252e-40
6.2934532 -2.5642941 -0.28521323 4.6097815e-40
6.3111382 -2.671931 -0.24149397 3.6878252e-40
6.2945538 -2.6478984 -0.24743266 3.6878252e-40
6.297143 -2.6220405 -0.2686055 3.6878252e-40
6.2758069 -2.5959456 -0.26341978 2.7658689e-40
6.2731581 -2.5682836 -0.27941933 2.7658689e-40
6.2566619 -2.5426283 -0.2878738 2.7658689e-40
6.2758241 -2.6518962 -0.24367453 2.7658689e-40
6.262373 -2.6263208 -0.24585505 2.7658689e-40
6.2605143 -2.5990591 -0.25959319 2.7658689e-40
6.2468681 -2.572638 -0.26783147 1.8439126e-40
6.2297935 -2.5474405 -0.27784878 2.7658689e-40
6.1987839 -2.4285257 -0.31129044 1.8439126e-40
6.1895432 -2.3280687 -0.33322489 2.7658689e-40
6.2099195 -2.5521445 -0.27617788 2.7658689e-40
6.2069201 -2.5208595 -0.27881539 2.7658689e-40
6.1894135 -2.4615355 -0.29629901 1.8439126e-40
6.1698265 -2.4318299 -0.29103452 1.8439126e-40
6.1630988 -2.4026892 -0.3102451 1.8439126e-40
6.1458287 -2.4379115 -0.29103452 1.8439126e-40
6.1388664 -2.4088304 -0.3102451 1.8439126e-40
6.1226149 -2.4125419 -0.3081997 1.8439126e-40
6.1018248 -2.3453112 -0.30818281 1.8439126e-40
6.5788293 -2.4219034 -0.25520018 4.6097815e-40
6.5549393 -2.4588823 -0.24693808 4.6097815e-40
6.5202985 -2.4676611 -0.24693808 6.4536941e-40
6.4914312 -2.474977 -0.24693808 4.6097815e-40
6.4777441 -2.5068183 -0.23113677 4.6097815e-40
6.4743886 -2.4804611 -0.25278604 4.6097815e-40
6.4527483 -2.5758085 -0.23447981 4.6097815e-40
6.4604578 -2.5432427 -0.2337638 4.6097815e-40
6.4364171 -2.6078289 -0.22676302 4.6097815e-40
6.4051576 -2.6445429 -0.22361648 7.3756504e-40
6.4138885 -2.6124156 -0.22112584 4.6097815e-40
6.3872957 -2.6481793 -0.21914704 5.5317378e-40
6.3753319 -2.6238711 -0.22958159 4.6097815e-40
6.3524752 -2.6563683 -0.21595466 4.6097815e-40
6.3532043 -2.6300402 -0.23240018 3.6878252e-40
6.3278818 -2.6900558 -0.20609576 3.6878252e-40
6.32689 -2.6646008 -0.22473378 4.6097815e-40
6.3120098 -2.6962836 -0.21716832 3.6878252e-40
6.2935319 -2.6719418 -0.21914707 3.6878252e-40
6.275022 -2.6487312 -0.226763 2.7658689e-40
6.2579103 -2.6244307 -0.23068811 1.8439126e-40
6.2443142 -2.5985913 -0.23663372 1.8439126e-40
6.2340536 -2.5701156 -0.23886193 1.8439126e-40
6.2203569 -2.5448401 -0.25278604 3.6878252e-40
6.2184339 -2.572535 -0.23113677 1.8439126e-40
6.2045913 -2.5472827 -0.24498877 2.7658689e-40
6.1912045 -2.4882011 -0.26365373 2.7658689e-40
6.1761012 -2.458915 -0.26620337 2.7658689e-40
6.1610584 -2.430824 -0.27482983 2.7658689e-40
6.1639309 -2.4608006 -0.26018426 1.8439126e-40
6.1427722 -2.434248 -0.26875308 1.8439126e-40
6.1171384 -2.3726475 -0.28028896 2.7658689e-40
6.124486 -2.4376721 -0.26267633 2.7658689e-40
6.1217418 -2.4090965 -0.28979105 1.8439126e-40
6.100934 -2.3417959 -0.2894012 1.8439126e-40
6.0799251 -2.3105078 -0.29020816 1.8439126e-40
6.5760913 -2.4453683 -0.20600235 5.5317378e-40
6.5774288 -2.4163785 -0.22568116 4.6097815e-40
6.5535522 -2.4534099 -0.21769828 4.6097815e-40
6.5189118 -2.4621887 -0.21769834 4.6097815e-40
6.4958034 -2.4980102 -0.20989236 3.6878252e-40
6.4963727 -2.4702306 -0.2293942 4.6097815e-40
6.4733996 -2.5348184 -0.20793444 6.4536941e-40
6.4843636 -2.5009096 -0.20989236 4.6097815e-40
6.4511299 -2.5694213 -0.20035417 5.5317378e-40
6.4620662 -2.5376906 -0.20793444 7.3756504e-40
6.4350801 -2.6025536 -0.19857715 6.4536941e-40
6.4042678 -2.6379435 -0.18935119 5.5317378e-40
6.4118128 -2.6088994 -0.20083198 3.6878252e-40
6.3804555 -2.6443493 -0.19121343 5.5317378e-40
6.3799615 -2.618768 -0.20985149 3.6878252e-40
6.3528776 -2.6513383 -0.19121343 5.5317378e-40
6.3248348 -2.6856821 -0.18025979 4.6097815e-40
6.3255649 -2.6593728 -0.19680014 3.6878252e-40
6.3101716 -2.6890306 -0.17841436 4.6097815e-40
6.3014874 -2.6647327 -0.19307566 4.6097815e-40
6.2845483 -2.63958 -0.19293998 2.7658689e-40
6.2717152 -2.6160233 -0.20604169 1.8439126e-40
6.2543769 -2.5907059 -0.2098477 1.8439126e-40
6.2364016 -2.5633655 -0.20796111 2.7658689e-40
6.2130027 -2.6019537 -0.21367428 1.8439126e-40
6.2215142 -2.5686774 -0.21568628 2.7658689e-40
6.1961536 -2.546315 -0.2293942 1.8439126e-40
6.1749592 -2.4544091 -0.24212694 1.8439126e-40
6.2016692 -2.604826 -0.21367428 1.8439126e-40
6.1630745 -2.4574211 -0.24212694 1.8439126e-40
6.1437154 -2.4295712 -0.24647164 1.8439126e-40
6.1315293 -2.3968382 -0.24070135 2.7658689e-40
6.1239095 -2.4353974 -0.25052282 1.8439126e-40
6.1078792 -2.4052763 -0.25297379 2.7658689e-40
6.0875335 -2.3408279 -0.26748937 1.8439126e-40
6.5874062 -2.4067945 -0.19025828 4.6097815e-40
6.5755367 -2.4431791 -0.19430646 4.6097815e-40
6.5754685 -2.4086437 -0.18435448 4.6097815e-40
6.5545306 -2.4475713 -0.18962802 3.6878252e-40
6.5272512 -2.4839821 -0.17947432 4.6097815e-40
6.5062551 -2.460737 -0.19430646 3.6878252e-40
6.4988956 -2.4909949 -0.17860526 4.6097815e-40
6.4759979 -2.5292056 -0.18306167 4.6097815e-40
6.4789925 -2.4957309 -0.17706028 3.6878252e-40
6.4553962 -2.5626757 -0.17191604 8.2976067e-40
6.4612494 -2.5344677 -0.19071484 9.219563e-40
6.433476 -2.5962234 -0.16475411 6.4536941e-40
6.4028544 -2.6323669 -0.15955532 6.4536941e-40
6.4134259 -2.6028016 -0.17227033 5.5317378e-40
6.3791304 -2.6391213 -0.16327977 5.5317378e-40
6.3529978 -2.6460221 -0.16467647 4.6097815e-40
6.3287454 -2.6796918 -0.15516192 4.6097815e-40
6.3300204 -2.6537926 -0.17445324 4.6097815e-40
6.3091211 -2.6848857 -0.15626919 3.6878252e-40
6.2963972 -2.6600883 -0.1632798 2.7658689e-40
6.2832117 -2.6343048 -0.16475411 2.7658689e-40
6.2700963 -2.6096363 -0.17191601 2.7658689e-40
6.2685809 -2.5832956 -0.19071484 2.7658689e-40
6.2541857 -2.5534732 -0.18092282 1.8439126e-40
6.2567029 -2.5840192 -0.1792351 1.8439126e-40
6.2432952 -2.5585413 -0.19251065 3.6878252e-40
6.1467543 -2.4247665 -0.22621576 1.8439126e-40
6.5823936 -2.4338706 -0.15629473 4.6097815e-40
6.5746288 -2.405329 -0.16664305 3.6878252e-40
6.5499811 -2.4715855 -0.14615937 4.6097815e-40
6.5578175 -2.4411471 -0.16155781 7.3756504e-40
6.5273762 -2.4784687 -0.15195319 1.1985432e-39
6.4925275 -2.5151083 -0.13331619 4.6097815e-40
6.4987755 -2.4857166 -0.15195328 4.6097815e-40
6.4738197 -2.5206115 -0.13714278 4.6097815e-40
6.4778934 -2.4913931 -0.15388463 4.6097815e-40
6.4511051 -2.557533 -0.14063413 1.0141519e-39
6.4593439 -2.5269477 -0.15053579 5.5317378e-40
6.4271803 -2.6202672 -0.12975939 9.219563e-40
6.4377041 -2.5895379 -0.13656823 4.6097815e-40
6.4051185 -2.6258585 -0.12975939 8.2976067e-40
6.3783379 -2.6596253 -0.11751517 4.6097815e-40
6.3778057 -2.6338933 -0.13534616 4.6097815e-40
6.3633642 -2.691582 -0.1164827 4.6097815e-40
6.3569999 -2.6672382 -0.12858775 3.6878252e-40
6.350493 -2.6419277 -0.14093287 5.5317378e-40
6.3416934 -2.6970742 -0.1164827 4.6097815e-40
6.3283706 -2.6747696 -0.12997188 4.6097815e-40
6.3078084 -2.6797049 -0.12858775 3.6878252e-40
6.2902889 -2.6545146 -0.12752469 2.7658689e-40
6.2821422 -2.6300845 -0.14220542 3.6878252e-40
6.2692871 -2.6064432 -0.15485315 2.7658689e-40
6.2722154 -2.6573145 -0.11858591 2.7658689e-40
6.2622623 -2.6334383 -0.13374966 2.7658689e-40
6.2519021 -2.6085832 -0.14347795 2.7658689e-40
6.2556138 -2.5797222 -0.15627566 2.7658689e-40
6.2395673 -2.5236645 -0.17091462 2.7658689e-40
6.5846057 -2.395745 -0.13122018 4.6097815e-40
6.5722079 -2.4300454 -0.1241309 3.6878252e-40
6.5732284 -2.3998044 -0.13712403 2.7658689e-40
6.548882 -2.4672477 -0.12298375 4.6097815e-40
6.5609388 -2.4340663 -0.1299789 5.5317378e-40
6.5311055 -2.5007582 -0.11035673 4.6097815e-40
6.5286198 -2.4737682 -0.1299364 4.6097815e-40
6.5030441 -2.5090134 -0.11609656 5.5317378e-40
6.5036712 -2.481014 -0.13457154 1.8439126e-39
6.4690042 -2.5456328 -0.10366456 5.5317378e-40
6.4766903 -2.516073 -0.11800985 4.6097815e-40
6.4511976 -2.5508254 -0.10707714 5.5317378e-40
6.4579825 -2.5215764 -0.12183643 5.5317378e-40
6.4313712 -2.6136415 -0.10182571 4.6097815e-40
6.436902 -2.5863726 -0.11965667 8.2976067e-40
6.4037933 -2.6206305 -0.10182574 7.3756504e-40
6.3772874 -2.6554809 -0.095370091 3.6878252e-40
6.3594842 -2.6876469 -0.091788322 1.4751301e-39
6.3502212 -2.6634426 -0.10090633 5.5317378e-40
6.3328385 -2.6946342 -0.09296415 3.6878252e-40
6.3174267 -2.6717536 -0.10090633 4.6097815e-40
6.3062329 -2.6734881 -0.095370062 4.6097815e-40
6.2879672 -2.6499841 -0.10182571 2.7658689e-40
6.2714205 -2.6541777 -0.10182571 2.7658689e-40
6.2527108 -2.6308064 -0.10838233 2.7658689e-40
6.2324829 -2.6366813 -0.11214043 2.7658689e-40
6.2257714 -2.6076527 -0.1055605 2.7658689e-40
6.5834856 -2.3913252 -0.10760496 4.6097815e-40
6.5718284 -2.3942795 -0.10760496 4.6097815e-40
6.5475082 -2.4618261 -0.094014145 3.6878252e-40
6.5595517 -2.4285936 -0.10073906 4.6097815e-40
6.5302887 -2.4975357 -0.093137093 4.6097815e-40
6.501955 -2.5047164 -0.093137093 4.6097815e-40
6.4679251 -2.5413749 -0.08091408 5.5317378e-40
6.4790158 -2.5093863 -0.087397255 3.6878252e-40
6.4458938 -2.5751114 -0.074559294 6.4536941e-40
6.4530416 -2.5455246 -0.082810014 4.6097815e-40
6.4300461 -2.6084135 -0.073892079 4.6097815e-40
6.4056959 -2.6149023 -0.075488314 7.3756504e-40
6.3814402 -2.6489148 -0.067688629 6.4536941e-40
6.3541117 -2.6558406 -0.067688629 6.4536941e-40
6.3341937 -2.6902306 -0.072581574 3.6878252e-40
6.3239188 -2.6629407 -0.064920515 3.6878252e-40
6.3011885 -2.668885 -0.065843202 3.6878252e-40
6.285645 -2.6454542 -0.076126806 3.6878252e-40
6.2700953 -2.6489496 -0.073892139 2.7658689e-40
6.252327 -2.6246161 -0.076814152 2.7658689e-40
6.2293801 -2.6322279 -0.085833661 2.7658689e-40
6.2262044 -2.6015012 -0.075226501 2.7658689e-40
6.5851398 -2.3856142 -0.08103779 7.3756504e-40
6.5944238 -2.3492041 -0.078848451 4.6097815e-40
6.5704284 -2.3887548 -0.078085907 4.6097815e-40
6.5466838 -2.4585729 -0.076632403 5.5317378e-40
6.5542235 -2.4237316 -0.069549926 4.6097815e-40
6.5247526 -2.4621117 -0.066493034 4.6097815e-40
6.4887156 -2.5000687 -0.052958053 3.6878252e-40
6.4959073 -2.4695947 -0.067362174 4.6097815e-40
6.4665761 -2.5360522 -0.052476082 3.6878252e-40
6.4776545 -2.504015 -0.05869795 6.4536941e-40
6.4497309 -2.5403218 -0.052476022 4.6097815e-40
6.4284563 -2.6021397 -0.040371697 4.6097815e-40
6.4008784 -2.609129 -0.040371757 4.6097815e-40
6.3691959 -2.6465042 -0.040007226 6.4536941e-40
6.3788161 -2.6147199 -0.040371697 4.6097815e-40
6.3527985 -2.6506598 -0.040007226 4.6097815e-40
6.32547 -2.6575856 -0.04000717 3.6878252e-40
6.3038692 -2.6641624 -0.045543518 2.7658689e-40
6.2887292 -2.6375508 -0.040371757 3.6878252e-40
6.2690353 -2.6447673 -0.051545177 3.6878252e-40
6.2589564 -2.6164985 -0.04449439 2.7658689e-40
6.2419705 -2.5929739 -0.052476082 2.7658689e-40
6.2312799 -2.5979493 -0.063851237 3.6878252e-40
6.5806851 -2.3802755 -0.048566855 1.1985432e-39
6.5680475 -2.4136279 -0.036411528 3.6878252e-40
6.5693083 -2.3843348 -0.054470677 5.5317378e-40
6.5510044 -2.419112 -0.042259458 8.2976067e-40
6.5218797 -2.4567811 -0.036074944 7.3756504e-40
6.5111451 -2.4315426 -0.05395538 1.6595213e-39
6.4920511 -2.4941928 -0.027702695 4.6097815e-40
6.4992743 -2.4636638 -0.041868918 5.5317378e-40
6.4652276 -2.53073 -0.024037967 9.219563e-40
6.4762936 -2.4986436 -0.029998643 4.6097815e-40
6.4483819 -2.5349991 -0.024037967 4.6097815e-40
6.4271312 -2.5969117 -0.012438116 7.3756504e-40
6.4017067 -2.6031325 -0.011320779 4.6097815e-40
6.3787618 -2.6383457 -0.011218554 6.4536941e-40
6.3561792 -2.6708143 -0.0030713994 5.5317378e-40
6.3569512 -2.6440938 -0.012325766 4.6097815e-40
6.3322577 -2.6780422 -0.0089249499 4.6097815e-40
6.3155642 -2.6529284 -0.0040213573 3.6878252e-40
6.2966852 -2.6303415 -0.014300343 3.6878252e-40
6.2789087 -2.6056406 -0.015368971 2.7658689e-40
6.2628126 -2.5808952 -0.018350331 2.7658689e-40
6.2656636 -2.6118045 -0.029461909 2.7658689e-40
6.251852 -2.5848057 -0.024037967 2.7658689e-40
6.2341499 -2.5584853 -0.022345487 2.7658689e-40
6.579565 -2.3758557 -0.024951629 4.6097815e-40
6.567348 -2.3766 -0.013144044 5.5317378e-40
6.5438442 -2.4151025 -0.013019743 7.3756504e-40
6.5135312 -2.4526646 -0.0047878334 3.6878252e-40
6.5210276 -2.4220498 -0.018867675 4.6097815e-40
6.4939117 -2.4888432 -0.0032125956 4.6097815e-40
6.4714556 -2.5238655 0.0025042701 5.5317378e-40
6.4470334 -2.5296769 0.0044001485 5.5317378e-40
6.4258065 -2.5916836 0.015495525 3.6878252e-40
6.3982286 -2.5986726 0.015495583 4.6097815e-40
6.3660445 -2.6340699 0.026428163 7.3756504e-40
6.3759012 -2.6032183 0.021082323 4.6097815e-40
6.3542786 -2.6671057 0.017964508 4.6097815e-40
6.355113 -2.6368403 0.026428163 5.5317378e-40
6.3354468 -2.6724248 0.015220678 3.6878252e-40
6.3203425 -2.6465344 0.021999199 2.7658689e-40
6.2946424 -2.6253695 0.013260852 2.7658689e-40
6.2749228 -2.601598 0.0099982843 2.7658689e-40
6.2622728 -2.5787663 -0.0069750627 2.7658689e-40
6.2599926 -2.6050079 0.011877365 1.8439126e-40
6.250773 -2.5805478 -0.0012874278 1.8439126e-40
6.2342262 -2.5227566 -0.0013115203 1.8439126e-40
6.5792594 -2.3387983 -0.00731096 5.5317378e-40
6.5545707 -2.3751345 0.010471242 3.6878252e-40
6.5669227 -2.3395498 0.0046119755 4.6097815e-40
6.5397091 -2.4109087 0.013296124 3.6878252e-40
6.5191317 -2.4459374 0.021864137 4.6097815e-40
6.4849043 -2.4850287 0.02739997 5.5317378e-40
6.4962511 -2.4517357 0.021864077 3.6878252e-40
6.4627995 -2.5211494 0.027150629 7.3756504e-40
6.4706016 -2.4880817 0.030269919 3.6878252e-40
6.4456844 -2.5243542 0.032838263 5.5317378e-40
6.4244814 -2.5864558 0.043429166 4.6097815e-40
6.3977885 -2.6216145 0.04857333 4.6097815e-40
6.3969569 -2.5936539 0.042311829 4.6097815e-40
6.3707228 -2.6295764 0.043037038 5.5317378e-40
6.3488598 -2.6351171 0.043037038 6.4536941e-40
6.3237696 -2.6416962 0.04192977 3.6878252e-40
6.3083901 -2.6147637 0.049015906 3.6878252e-40
6.2976241 -2.6186051 0.043429166 3.6878252e-40
6.279151 -2.5949128 0.038184222 2.7658689e-40
6.2571573 -2.6016092 0.032546975 1.8439126e-40
6.5334649 -2.4064729 0.043510612 4.6097815e-40
6.5143104 -2.4429274 0.043108389 6.4536941e-40
6.5003791 -2.413305 0.051307853 5.5317378e-40
6.4872503 -2.4482465 0.050833527 4.6097815e-40
6.4634371 -2.4836097 0.061839174 6.4536941e-40
6.4719968 -2.4521124 0.050833646 4.6097815e-40
6.4433203 -2.5197423 0.059001327 5.5317378e-40
6.4487257 -2.4850514 0.073318966 4.6097815e-40
6.4212399 -2.5526154 0.069752365 4.6097815e-40
6.3936906 -2.5900304 0.064658791 4.6097815e-40
6.396801 -2.5566757 0.080462977 4.6097815e-40
6.3682661 -2.5962512 0.065776125 5.5317378e-40
6.3578434 -2.5665486 0.080462977 3.6878252e-40
6.3409534 -2.604286 0.060189441 3.6878252e-40
6.3329329 -2.5734229 0.077644415 5.5317378e-40
6.3133755 -2.611275 0.060189441 3.6878252e-40
6.3027248 -2.582763 0.069188602 5.5317378e-40
6.2780819 -2.5906925 0.060732853 1.8439126e-40
6.2673235 -2.5633256 0.064120166 2.7658689e-40
6.2455406 -2.5399742 0.056099337 2.7658689e-40
6.5052013 -2.4080892 0.071358047 4.6097815e-40
6.4816375 -2.4721375 0.096278436 4.6097815e-40
6.4857845 -2.4424632 0.081734501 4.6097815e-40
6.4668889 -2.4773993 0.088625282 7.3756504e-40
6.4587245 -2.447782 0.089459702 4.6097815e-40
6.4376411 -2.516197 0.084026858 5.5317378e-40
6.4422426 -2.4832647 0.090538539 6.4536941e-40
6.4182048 -2.5181022 0.099193767 4.6097815e-40
6.3933496 -2.5547433 0.094555974 6.4536941e-40
6.3860259 -2.5247464 0.10677728 3.6878252e-40
6.3655229 -2.5617955 0.094555914 5.5317378e-40
6.3472595 -2.5368366 0.095402069 3.6878252e-40
6.3250685 -2.5435934 0.089714497 5.5317378e-40
6.3173022 -2.5137846 0.096278436 3.6878252e-40
6.2981958 -2.4869263 0.097184956 3.6878252e-40
6.2972627 -2.5517731 0.084026858 7.3756504e-40
6.2781796 -2.5259862 0.084798701 2.7658689e-40
6.2810354 -2.4912753 0.097184956 2.7658689e-40
6.2589793 -2.5003271 0.079803273 2.7658689e-40
6.2429433 -2.4723344 0.082497053 2.7658689e-40
6.2183895 -2.5083058 0.091391101 2.7658689e-40
6.2273626 -2.4755063 0.086395614 2.7658689e-40
6.2066741 -2.5101206 0.097184956 2.7658689e-40
6.4360228 -2.50981 0.11815255 3.6878252e-40
6.4357591 -2.481478 0.10775811 4.6097815e-40
6.4111004 -2.5152199 0.12270266 4.6097815e-40
6.3854861 -2.5226173 0.11815255 3.6878252e-40
6.3755774 -2.4938715 0.12210774 3.6878252e-40
6.3463216 -2.5025105 0.11595788 4.6097815e-40
6.3224244 -2.5102003 0.10775811 6.4536941e-40
6.3088112 -2.4807737 0.1145667 3.6878252e-40
6.2696924 -2.4607019 0.10686349 2.7658689e-40
6.2458677 -2.4677107 0.10199016 1.8439126e-40
6.229238 -2.4375927 0.11083598 1.8439126e-40
6.214891 -2.4747844 0.10588884 2.7658689e-40
6.400125 -2.483649 0.14219731 9.219563e-40
6.3885193 -2.4854469 0.14793715 5.5317378e-40
6.364481 -2.4602361 0.14684714 4.6097815e-40
6.3360376 -2.4681039 0.14353627 6.4536941e-40
6.3074374 -2.475352 0.14353633 5.5317378e-40
6.2949796 -2.4513817 0.12148338 3.6878252e-40
6.279871 -2.4818766 0.14585382 5.5317378e-40
6.2693548 -2.4569442 0.12616177 2.7658689e-40
6.2556815 -2.4873142 0.14933018 1.8439126e-40
6.2414203 -2.4630916 0.13084023 1.8439126e-40
6.2251434 -2.4667504 0.13317925 1.8439126e-40
6.2109122 -2.4387095 0.12854744 2.7658689e-40
6.196084 -2.408596 0.12980267 2.7658689e-40
6.3861446 -2.449635 0.17250584 5.5317378e-40
6.3654037 -2.5141127 0.18640399 4.6097815e-40
6.3701582 -2.4843838 0.17663652 5.5317378e-40
6.374979 -2.4536185 0.16671193 4.6097815e-40
6.3445487 -2.5491459 0.18475068 4.6097815e-40
6.3507895 -2.5193264 0.17882042 3.6878252e-40
6.3423691 -2.4937131 0.16515678 6.4536941e-40
6.3319826 -2.5237153 0.18071635 6.4536941e-40
6.3122482 -2.4986024 0.17893246 4.6097815e-40
6.3023415 -2.4712577 0.1705745 5.5317378e-40
6.277463 -2.4771781 0.17250584 6.4536941e-40
6.2527671 -2.4838212 0.1705745 1.8439126e-40
6.2353039 -2.4583519 0.16241908 1.8439126e-40
6.2237568 -2.461278 0.16241908 1.8439126e-40
6.2064581 -2.4333706 0.16101837 2.7658689e-40
6.1946702 -2.4030173 0.15960996 2.7658689e-40
6.1858287 -2.3725278 0.15513436 2.7658689e-40
6.3847704 -2.4442129 0.20147535 4.6097815e-40
6.3645945 -2.5109191 0.20346683 4.6097815e-40
6.3744636 -2.4775767 0.20533583 1.4751301e-39
6.3474789 -2.5141239 0.20915447 5.5317378e-40
6.3288574 -2.4879911 0.21107572 3.6878252e-40
6.3311729 -2.5205219 0.19777921 9.219563e-40
6.3121295 -2.4933739 0.20533583 5.5317378e-40
6.2932487 -2.467407 0.20147535 3.6878252e-40
6.2778568 -2.500916 0.21107572 3.6878252e-40
6.2763634 -2.4728405 0.1956815 2.7658689e-40
6.2575655 -2.4492157 0.17996299 1.8439126e-40
6.2488494 -2.4783711 0.20292394 2.7658689e-40
6.2341943 -2.453974 0.18581098 1.8439126e-40
6.2193446 -2.4559898 0.19458288 1.8439126e-40
6.2022834 -2.429137 0.18758549 2.7658689e-40
6.1817684 -2.4015372 0.18345577 2.7658689e-40
6.1790295 -2.3706546 0.17319171 2.7658689e-40
6.3836713 -2.4398756 0.22465101 7.3756504e-40
6.3716173 -2.4722955 0.23547007 5.5317378e-40
6.3443484 -2.5096304 0.23569658 4.6097815e-40
6.3332992 -2.4817207 0.23690508 3.6878252e-40
6.3190789 -2.5421269 0.25239676 3.6878252e-40
6.3107681 -2.4880023 0.23403519 4.6097815e-40
6.2825899 -2.4957967 0.23075517 3.6878252e-40
