# .PCD v0.7 - Point Cloud Data file format
VERSION 0.7
FIELDS x y z rgb
SIZE 4 4 4 4
TYPE F F F F
COUNT 1 1 1 1
WIDTH 869
HEIGHT 1
VIEWPOINT 0 0 0 1 0 0 0
POINTS 869
DATA ascii
3.9113867 -0.42560002 -1.4210787 1.2812674e-38
3.8669841 -0.40554494 -1.3969935 8.6638893e-39
3.9107563 -0.40026668 -1.4235324 8.9400698e-39
3.9113867 -0.37240002 -1.4210787 7.9259431e-39
3.8669841 -0.33795413 -1.3969935 6.0823822e-39
3.9094951 -0.34200001 -1.4284395 6.4543891e-39
3.9113867 -0.31160003 -1.4210787 5.5288315e-39
3.9586027 -0.29228622 -1.438233 5.527384e-39
4.0087013 -0.21798898 -1.4481903 6.6344602e-39
4.0087013 -0.19463304 -1.4481903 7.3724078e-39
4.0087013 -0.16349176 -1.4481903 6.3614858e-39
3.872592 -0.42056513 -1.3751723 1.621559e-38
3.872592 -0.39803484 -1.3751723 1.1156041e-38
3.872592 -0.36799449 -1.3751723 6.5437541e-39
3.8732152 -0.34045753 -1.3727477 5.8065478e-39
3.9170618 -0.33440003 -1.3989962 4.5183117e-39
3.9189534 -0.31920004 -1.3916354 6.1752911e-39
3.9662607 -0.3076697 -1.4084343 6.4515179e-39
3.9643462 -0.29228622 -1.415884 6.0838242e-39
4.0666223 -0.2995376 -1.435742 5.5321119e-39
4.0685844 -0.25224221 -1.4281075 1.2910936e-38
4.0145144 -0.21798898 -1.4255695 6.1735101e-39
4.0685844 -0.23647708 -1.4281075 7.0929987e-39
4.0145144 -0.19463304 -1.4255694 6.2664456e-39
3.9681752 -0.16921835 -1.4009846 6.2689497e-39
4.0138683 -0.16089664 -1.4280829 5.6224999e-39
4.0145144 -0.14013578 -1.4255695 5.8072457e-39
4.0685844 -0.1261211 -1.4281075 6.0813341e-39
4.0705462 -0.11035596 -1.420473 5.987363e-39
4.1177392 -0.11174311 -1.453789 7.0079539e-39
3.8327191 -0.41563302 -1.3374798 1.778504e-38
3.8800693 -0.39803487 -1.3460773 1.3553458e-38
3.8800693 -0.36799449 -1.3460773 5.5310512e-39
3.8800693 -0.33795416 -1.3460773 6.5426864e-39
3.9271507 -0.31413338 -1.3597386 5.9887671e-39
3.9720042 -0.3076697 -1.3860853 5.9898293e-39
3.9284117 -0.2888 -1.3548313 4.1491537e-39
4.020328 -0.2958422 -1.4029486 5.43848e-39
4.0744705 -0.25224221 -1.4052041 1.5478739e-38
4.0222654 -0.21798898 -1.3954083 5.8951421e-39
4.0744705 -0.23647708 -1.4052041 1.0975184e-38
3.9720042 -0.18460183 -1.3860853 8.1988782e-39
4.0229115 -0.19722813 -1.3928949 6.8238933e-39
3.9720042 -0.16152659 -1.3860853 6.9114408e-39
4.0242033 -0.16349176 -1.3878679 5.8976617e-39
4.0229115 -0.13494557 -1.3928949 6.8210487e-39
4.0764322 -0.11035596 -1.3975695 7.6432465e-39
3.8382611 -0.41563302 -1.3159145 1.7692489e-38
3.8856771 -0.39803487 -1.3242562 1.4284545e-38
3.8875463 -0.36799449 -1.3169824 6.7324726e-39
3.8875463 -0.33795416 -1.3169824 6.2682477e-39
3.8881695 -0.31041715 -1.3145578 5.8083163e-39
3.9321949 -0.30399999 -1.3401097 4.980013e-39
3.8875463 -0.28538346 -1.3169824 4.3314037e-39
3.9359784 -0.24320002 -1.3253881 1.6314589e-38
4.028079 -0.24913028 -1.3727874 1.5750282e-38
3.9834912 -0.22306055 -1.3413873 5.532849e-39
4.028079 -0.22577432 -1.3727874 8.3919449e-39
3.9796622 -0.18460183 -1.3562866 4.4260769e-39
4.0306625 -0.19722813 -1.3627336 5.0671821e-39
4.0300169 -0.16349176 -1.365247 6.2696728e-39
4.0300169 -0.13235046 -1.365247 7.4693034e-39
4.0319548 -0.10899449 -1.3577067 9.7630047e-39
3.8027925 -0.39613208 -1.2651 1.5109586e-38
3.8438032 -0.40078899 -1.2943492 1.5851476e-38
3.8027925 -0.38146055 -1.2651 1.1242152e-38
3.8456507 -0.37852293 -1.2871608 9.3128712e-39
3.8474979 -0.3562569 -1.2799723 6.1767499e-39
3.8944004 -0.33545077 -1.2903121 6.4526305e-39
3.8950233 -0.30791378 -1.2878875 6.0831179e-39
3.8950233 -0.24032293 -1.2878875 1.6495763e-38
3.9416535 -0.22800002 -1.3033056 1.0698622e-38
3.9892347 -0.21536879 -1.3190383 5.7114557e-39
3.9911492 -0.18460183 -1.3115885 6.913603e-39
4.0371218 -0.19722813 -1.3375993 7.0983516e-39
3.9911492 -0.16152659 -1.3115885 7.0987118e-39
4.03583 -0.16349176 -1.3426261 7.1905515e-39
4.0377679 -0.13235046 -1.3350859 7.837353e-39
4.03583 -0.10899449 -1.3426261 1.0212868e-38
3.7215889 -0.4014532 -1.215475 1.3819227e-38
3.7644532 -0.39157429 -1.2294745 1.4279112e-38
3.7662582 -0.37707156 -1.2224513 1.1985428e-38
3.8076615 -0.37167951 -1.2461535 8.6714409e-39
3.8082702 -0.35211742 -1.2437853 5.8076086e-39
3.85304 -0.34141284 -1.258407 6.6352183e-39
3.8548875 -0.32656881 -1.2512186 6.7266951e-39
3.9025006 -0.30791378 -1.2587924 5.9919985e-39
3.9025006 -0.28538346 -1.2587924 4.7956203e-39
3.9511118 -0.27360001 -1.2665015 7.7285786e-39
3.9498506 -0.24826668 -1.2714088 1.575604e-38
3.9473283 -0.22800002 -1.2812232 1.2452849e-38
3.9975307 -0.22049664 -1.2867564 9.0304914e-39
3.9975307 -0.18972965 -1.2867564 6.6384371e-39
4.0435815 -0.20241834 -1.312465 7.0979901e-39
3.9511118 -0.1596 -1.2665015 7.2816597e-39
3.9949782 -0.16152659 -1.2966893 6.5466198e-39
3.9968927 -0.13845137 -1.2892395 7.2834856e-39
4.0435815 -0.12456514 -1.312465 7.3781769e-39
3.7716727 -0.40607706 -1.2013819 1.4280572e-38
3.8155739 -0.39613208 -1.2153655 1.4463134e-38
3.7716727 -0.3625688 -1.2013819 9.0344907e-39
3.8155739 -0.38146055 -1.2153655 1.318069e-38
3.7734778 -0.34806606 -1.1943587 7.0061476e-39
3.8149652 -0.34233639 -1.2177339 6.8221235e-39
3.8173997 -0.32277432 -1.2082607 7.005454e-39
3.8604295 -0.31914681 -1.2296532 6.7292146e-39
3.9099777 -0.30040365 -1.2296975 6.4519088e-39
3.9099777 -0.28538346 -1.2296975 5.6224705e-39
3.9567866 -0.27360001 -1.2444191 7.2633027e-39
3.9567866 -0.25840002 -1.2444191 1.3173471e-38
4.002636 -0.24613577 -1.2668905 1.7137182e-38
4.0552082 -0.24913028 -1.267223 1.6124838e-38
4.0039124 -0.22049664 -1.2619241 9.0308431e-39
4.0552082 -0.23355964 -1.267223 1.2448155e-38
4.0045505 -0.19229357 -1.2594409 6.2700245e-39
3.9567866 -0.1596 -1.2444191 7.0983404e-39
4.002636 -0.13075963 -1.2668905 7.8333957e-39
4.0552082 -0.14013578 -1.267223 7.5614864e-39
3.737648 -0.4014532 -1.1529862 1.3359315e-38
3.7782907 -0.39640856 -1.1756303 1.3542609e-38
3.779494 -0.36740303 -1.1709481 1.0600693e-38
3.8210516 -0.38146055 -1.1940508 1.2809374e-38
3.7788923 -0.34806606 -1.1732892 7.1905739e-39
3.8228774 -0.33744588 -1.1869459 7.0990691e-39
3.8228774 -0.32277432 -1.1869459 6.731374e-39
3.8678188 -0.31172478 -1.2008995 6.4526137e-39
3.917455 -0.30040365 -1.2006025 5.7161557e-39
3.9180779 -0.28037676 -1.1981779 5.5270743e-39
3.9624617 -0.27360001 -1.2223366 6.537992e-39
3.9649839 -0.25333336 -1.2125223 1.2357702e-38
4.010294 -0.24613577 -1.2370919 1.5479871e-38
4.0128469 -0.22049664 -1.227159 6.7216532e-39
4.0590835 -0.23355964 -1.2521424 1.0602476e-38
3.9662449 -0.19760001 -1.207615 6.1778205e-39
4.0115705 -0.18972965 -1.2321254 6.5426695e-39
4.0122085 -0.16152659 -1.2296422 7.1901941e-39
4.010294 -0.13845137 -1.2370919 6.7331747e-39
4.0629592 -0.14013578 -1.2370619 6.727072e-39
3.7447853 -0.4014532 -1.1252135 1.4186181e-38
3.7855103 -0.39640856 -1.1475376 1.4462048e-38
3.7855103 -0.37223729 -1.1475376 1.2168719e-38
3.8320069 -0.36678898 -1.1514214 9.9571981e-39
3.8307896 -0.34722689 -1.156158 7.4689418e-39
3.8733611 -0.34141284 -1.1793342 7.1894823e-39
3.8307896 -0.31788382 -1.156158 6.7284971e-39
3.8733611 -0.31172478 -1.1793342 6.5451821e-39
3.8770556 -0.29688072 -1.1649573 5.351315e-39
3.924932 -0.28538346 -1.1715076 5.8072653e-39
3.97192 -0.27360001 -1.1855326 5.713248e-39
3.97192 -0.25080001 -1.1855326 1.014794e-38
3.9738116 -0.21280001 -1.1781718 5.6235887e-39
4.0192285 -0.22562446 -1.2023268 5.8947694e-39
3.97192 -0.19 -1.1855326 6.7281384e-39
3.9700284 -0.16720001 -1.1928934 7.0043609e-39
4.020505 -0.15896268 -1.1973603 7.0065189e-39
4.017952 -0.13845137 -1.2072932 7.7340213e-39
3.8374846 -0.39613208 -1.1301066 1.4923034e-38
3.8844452 -0.41563302 -1.1362035 1.4463852e-38
3.7915266 -0.37707156 -1.124127 1.4557159e-38
3.8380933 -0.37167951 -1.1277384 1.2634403e-38
3.8374846 -0.34478164 -1.1301066 7.3756868e-39
3.8374846 -0.31543854 -1.1301066 7.1912647e-39
3.8832135 -0.2919327 -1.1409959 6.7292118e-39
3.9794867 -0.27360001 -1.1560893 6.268242e-39
3.9794867 -0.25080001 -1.1560893 6.1782058e-39
3.9794867 -0.22040001 -1.1560893 5.5299469e-39
3.9794867 -0.19 -1.1560893 6.17821e-39
4.0275245 -0.16152659 -1.1700448 6.8224892e-39
3.7572756 -0.40862203 -1.0766112 1.4556033e-38
3.7987461 -0.40607706 -1.0960344 1.5291094e-38
3.8447883 -0.39613208 -1.101687 1.5197114e-38
3.8447883 -0.37412477 -1.101687 1.3183256e-38
3.802356 -0.3335633 -1.0819881 7.2856604e-39
3.8441796 -0.34722689 -1.1040553 7.9285075e-39
3.802356 -0.31180918 -1.0819881 7.0980167e-39
3.8429623 -0.31543854 -1.1087919 7.192013e-39
3.8447883 -0.29343116 -1.101687 6.8210683e-39
3.8899872 -0.28203669 -1.1146383 6.729223e-39
3.9398863 -0.2703633 -1.1133177 6.3611621e-39
3.9870532 -0.25080001 -1.126646 5.4399275e-39
3.9870532 -0.22040001 -1.126646 4.886374e-39
3.9870532 -0.19760001 -1.126646 6.1738954e-39
4.0351825 -0.18460183 -1.1402462 6.7292216e-39
4.0351825 -0.16152659 -1.1402462 7.5557509e-39
4.037097 -0.13845137 -1.1327965 9.766948e-39
4.0823369 -0.14013578 -1.1616588 1.1701607e-38
3.7626286 -0.4014532 -1.0557815 1.4921242e-38
3.8083723 -0.39640856 -1.0585775 1.5199984e-38
3.8095756 -0.3625688 -1.0538955 1.1160744e-38
3.8514831 -0.37657002 -1.0756357 1.2817013e-38
3.8083723 -0.33839753 -1.0585775 8.5764006e-39
3.850266 -0.35211742 -1.0803722 9.1349442e-39
3.8077705 -0.31180918 -1.0609186 7.2856436e-39
3.8059657 -0.29005504 -1.0679418 7.1916445e-39
3.8527005 -0.28365013 -1.070899 7.3760385e-39
3.9473634 -0.2703633 -1.0842228 7.0997936e-39
3.9473634 -0.25534311 -1.0842228 6.1778415e-39
3.9946198 -0.24320002 -1.0972028 4.7970664e-39
3.9946198 -0.22040001 -1.0972028 4.7963195e-39
3.9946198 -0.19760001 -1.0972028 6.1771184e-39
4.0428405 -0.18460183 -1.1104474 6.7295789e-39
4.040926 -0.16152659 -1.1178972 6.730295e-39
4.0939636 -0.16349176 -1.1164169 6.6370007e-39
3.8167951 -0.42057982 -1.0258027 1.6399941e-38
3.81499 -0.39882568 -1.0328259 1.4929923e-38
3.81499 -0.36982018 -1.0328259 1.1802525e-38
3.81499 -0.34081468 -1.0328259 8.946272e-39
3.8155918 -0.3142263 -1.0304849 7.1012607e-39
3.8575695 -0.30810276 -1.0519526 7.3749441e-39
3.8593953 -0.28609538 -1.0448477 7.6515492e-39
3.9548404 -0.2703633 -1.0551279 7.0990901e-39
4.0021863 -0.25080001 -1.0677595 5.6239488e-39
4.0021863 -0.22040001 -1.0677595 5.5317308e-39
4.0498605 -0.19485748 -1.083132 6.7284985e-39
4.1017151 -0.18684772 -1.0862558 7.0050882e-39
4.0997772 -0.17127708 -1.093796 6.4544494e-39
4.1509881 -0.15765136 -1.1074588 5.5291804e-39
3.7786877 -0.41579086 -0.99329275 1.6212662e-38
3.8222096 -0.39882568 -1.0047333 1.38301e-38
3.8222096 -0.36982018 -1.0047333 1.0969535e-38
3.8222096 -0.34081468 -1.0047333 9.0366641e-39
3.8222096 -0.31180918 -1.0047333 7.6547946e-39
3.8240147 -0.29005504 -0.99771011 8.295132e-39
3.8660903 -0.28365013 -1.0187963 7.8355986e-39
3.9604483 -0.2703633 -1.0333066 7.6540548e-39
4.0078616 -0.25080001 -1.0456771 5.9923432e-39
4.0078616 -0.22040001 -1.0456771 5.4373603e-39
4.056242 -0.19229357 -1.0582998 6.5455338e-39
4.056242 -0.16921835 -1.0582998 5.9048713e-39
3.831234 -0.4278312 -0.96961749 5.7978864e-39
3.831234 -0.39882568 -0.96961749 1.2537922e-38
3.831234 -0.36982021 -0.96961749 1.1528113e-38
3.7893937 -0.34410277 -0.95163363 9.7745781e-39
3.8276243 -0.34806606 -0.9836638 8.7586381e-39
3.7876096 -0.32976514 -0.95857686 8.1143491e-39
3.831234 -0.31180918 -0.96961749 7.2860079e-39
3.8336406 -0.28522077 -0.96025324 7.8377496e-39
3.873394 -0.28365013 -0.99037671 7.9299494e-39
3.9641869 -0.2703633 -1.0187591 7.7444679e-39
3.8794801 -0.26408806 -0.96669364 8.0217667e-39
3.9213924 -0.26719266 -0.99243486 7.8381013e-39
3.9679255 -0.25534311 -1.0042117 6.8235948e-39
4.0129061 -0.24826668 -1.0260482 5.5324511e-39
4.0135365 -0.22040001 -1.0235946 5.1633014e-39
4.0619855 -0.19229357 -1.0359508 6.4536941e-39
4.0619855 -0.16921835 -1.0359508 9.3077495e-39
3.8396568 -0.42541406 -0.93684268 3.0420985e-39
3.8402586 -0.39882568 -0.93450165 1.1620988e-38
3.8396568 -0.37223729 -0.93684268 1.2545144e-38
3.7983153 -0.35844037 -0.91691762 1.1805428e-38
3.8402586 -0.34806606 -0.93450165 1.0419241e-38
3.796531 -0.32976514 -0.92386085 9.0352166e-39
3.8402586 -0.31180918 -0.93450165 7.836672e-39
3.8402586 -0.28280365 -0.93450165 7.8370447e-39
3.8420634 -0.26104954 -0.92747849 7.6533429e-39
3.883132 -0.26408806 -0.95248383 8.2961942e-39
3.9735334 -0.25534311 -0.98239046 6.9125479e-39
4.0211034 -0.24320002 -0.99415135 5.6203503e-39
4.0211034 -0.22040001 -0.99415135 5.6214237e-39
4.0690055 -0.19485748 -1.0086353 6.7299026e-39
4.1210928 -0.18684772 -1.0108527 6.0838186e-39
4.1172171 -0.17127708 -1.0259333 5.9966508e-39
3.8036685 -0.40862203 -0.89608806 3.6820434e-39
3.8036685 -0.37994677 -0.89608806 1.2727733e-38
3.8036685 -0.35127157 -0.89608806 1.1158974e-38
3.8456731 -0.3335633 -0.91343218 9.2195966e-39
3.8045607 -0.31184313 -0.89261645 8.4831134e-39
3.8456731 -0.31906056 -0.91343218 8.2980173e-39
3.8036685 -0.28675228 -0.89608806 7.837395e-39
3.8474782 -0.27555227 -0.90640897 7.9281473e-39
3.8474782 -0.26104954 -0.90640897 7.7412337e-39
3.9803874 -0.25033638 -0.95572007 6.0863521e-39
4.0305614 -0.24320002 -0.95734727 5.6192601e-39
4.0286698 -0.22040001 -0.96470809 5.8998e-39
4.1249685 -0.20241834 -0.99577206 6.0895541e-39
4.1764941 -0.18918166 -1.0082104 4.9796206e-39
3.8108058 -0.40862203 -0.86831528 4.0443562e-39
3.8108058 -0.37994677 -0.86831528 1.300685e-38
3.8108058 -0.35127157 -0.86831528 1.1067127e-38
3.811698 -0.31901193 -0.86484367 9.3136013e-39
3.8528926 -0.31180918 -0.8853395 8.7582625e-39
3.8108058 -0.28675228 -0.86831528 8.2079782e-39
3.8546977 -0.27555227 -0.87831634 7.9299438e-39
3.8546977 -0.26104954 -0.87831634 7.651901e-39
3.9454081 -0.25234863 -0.89898521 6.9150408e-39
3.9878645 -0.24532966 -0.92662513 5.5321147e-39
3.9472554 -0.23750459 -0.89179677 6.6363043e-39
3.9903569 -0.22530276 -0.9169268 6.6334008e-39
4.0356059 -0.21786667 -0.93771845 6.5440947e-39
3.7741585 -0.4041248 -0.83815843 4.7876441e-39
3.8197274 -0.40862203 -0.83359933 4.0443604e-39
3.8179431 -0.37994677 -0.8405425 1.4114259e-38
3.8179431 -0.35127157 -0.8405425 1.1066769e-38
3.8179429 -0.31542751 -0.84054244 9.3132524e-39
3.8185382 -0.28197309 -0.83822817 8.6671557e-39
3.8601122 -0.27555227 -0.85724682 8.3902059e-39
3.8619173 -0.26104954 -0.85022366 8.2958354e-39
3.9086945 -0.2494165 -0.85301512 7.8337307e-39
3.9509501 -0.25234863 -0.87741989 8.2021797e-39
3.9527974 -0.23750459 -0.87023145 7.5589795e-39
3.9959648 -0.22530276 -0.8951056 6.8177767e-39
4.0438032 -0.21280001 -0.90582156 7.0968803e-39
3.8673317 -0.42057982 -0.82915419 8.3226759e-40
3.8256755 -0.40623245 -0.81045538 4.9616573e-39
3.8250804 -0.3799468 -0.81276971 1.3836959e-38
3.7835703 -0.34504223 -0.80153561 1.106533e-38
3.8232961 -0.35844037 -0.81971294 1.1527392e-38
3.8250802 -0.31542751 -0.81276965 9.3139615e-39
3.8250804 -0.27958348 -0.81276971 9.0366627e-39
3.8250804 -0.25807706 -0.81276971 7.7433511e-39
3.8691368 -0.24654678 -0.82213104 7.2805737e-39
3.9141722 -0.23474495 -0.83170038 7.5589641e-39
3.9620342 -0.22266056 -0.83428925 7.4649762e-39
4.004065 -0.22029603 -0.86358607 6.8199543e-39
4.0494781 -0.21280001 -0.88373911 6.8235234e-39
4.0532613 -0.19760001 -0.86901748 5.4384491e-39
3.7900407 -0.39703485 -0.77635741 9.0283488e-39
3.7900407 -0.36867523 -0.77635741 1.4944013e-38
3.8322177 -0.3871156 -0.78499693 1.7247095e-38
3.7900407 -0.34740549 -0.77635741 1.1988742e-38
3.8318608 -0.31829506 -0.7863856 9.8678527e-39
3.7918055 -0.29777616 -0.7694906 9.8667387e-39
3.8322177 -0.27958348 -0.78499693 9.3161419e-39
3.8328128 -0.25329784 -0.7826826 7.7397554e-39
3.8745513 -0.24654678 -0.80106151 7.6525988e-39
3.8769579 -0.22720979 -0.79169732 7.8348335e-39
3.9196498 -0.2200734 -0.81038564 7.9291745e-39
4.0090499 -0.21028256 -0.84418947 7.0975963e-39
3.9233017 -0.19806606 -0.79617578 6.3636593e-39
3.965729 -0.20781651 -0.81991237 7.8333607e-39
4.0570445 -0.19760001 -0.85429585 5.8122651e-39
3.7970996 -0.39703485 -0.74889028 8.2050271e-39
3.7965114 -0.37812844 -0.75117922 1.6325122e-38
3.8411396 -0.37277797 -0.75028098 1.5218078e-38
3.7953348 -0.35449541 -0.75575703 1.337095e-38
3.8399501 -0.34888196 -0.75490987 1.2635179e-38
3.7976878 -0.31668261 -0.7466014 1.0144817e-38
3.8375707 -0.32976514 -0.76416737 1.0786939e-38
3.7970996 -0.29068625 -0.74889028 9.7745837e-39
3.7970996 -0.26941651 -0.74889028 8.8558728e-39
3.8393552 -0.25090826 -0.75722414 7.7412057e-39
3.839355 -0.22940184 -0.7572242 7.2827415e-39
3.8835759 -0.21754128 -0.76594573 7.3731379e-39
3.8411396 -0.18638898 -0.75028098 6.5462583e-39
3.8829741 -0.19820428 -0.76828676 6.9128842e-39
3.7554257 -0.16359021 -0.73829287 8.2925312e-39
3.715297 -0.13867889 -0.7257005 8.9278056e-39
3.8023937 -0.39703485 -0.72828996 7.927308e-39
3.8482769 -0.4014532 -0.72250819 7.2611181e-39
3.8047466 -0.37812844 -0.71913427 1.5680478e-38
3.8447082 -0.37277797 -0.73639458 1.493791e-38
3.8066287 -0.34598753 -0.71180964 1.281885e-38
3.8447082 -0.35844037 -0.73639458 1.3647893e-38
3.7653146 -0.32250643 -0.69981414 1.152631e-38
3.8050408 -0.31550094 -0.7179898 1.0696547e-38
3.8050408 -0.29423121 -0.7179898 9.5919777e-39
3.8482769 -0.28675228 -0.72250819 9.5898365e-39
3.8041584 -0.26941651 -0.72142315 8.9484328e-39
3.8464925 -0.25090826 -0.72945142 7.6529828e-39
3.8470874 -0.22462262 -0.72713709 7.7440952e-39
3.8889904 -0.21754128 -0.74487621 7.3735106e-39
3.8464925 -0.18638898 -0.72945142 6.911445e-39
3.8907955 -0.20303853 -0.73785305 7.0061518e-39
3.7256525 -0.15254679 -0.68540615 1.5843937e-38
3.7647328 -0.16359021 -0.70207763 1.1976749e-38
3.8023937 -0.16306791 -0.72828996 1.1145899e-38
3.7245018 -0.12943363 -0.68988329 1.2986257e-38
3.7635694 -0.14022018 -0.70660454 1.1234901e-38
3.8023937 -0.14179817 -0.72828996 1.1046534e-38
3.685231 -0.09602201 -0.67796987 1.0689999e-38
3.7256525 -0.11094312 -0.68540615 1.2440302e-38
3.9452124 -0.42547524 -0.71091688 4.638424e-40
3.8518455 -0.4014532 -0.7086218 3.673794e-39
3.8998199 -0.40607706 -0.70273727 1.7452346e-39
3.8536298 -0.37994677 -0.70167863 1.4202421e-38
3.7705495 -0.33652845 -0.67944306 1.3004296e-38
3.8153348 -0.34976879 -0.67793357 1.4108487e-38
3.7705495 -0.32250643 -0.67944306 1.1990516e-38
3.8153348 -0.31668258 -0.67793357 1.1435181e-38
3.8147466 -0.29068625 -0.68022251 1.0973483e-38
3.8530352 -0.27719387 -0.70399308 1.0514668e-38
3.8536298 -0.25090826 -0.70167863 8.1121617e-39
3.8554142 -0.22223303 -0.69473547 8.387301e-39
3.89621 -0.22479266 -0.71678358 8.0203234e-39
3.8542249 -0.19116819 -0.6993643 7.4638888e-39
3.89621 -0.20303853 -0.71678358 7.4649832e-39
3.729104 -0.15254679 -0.67197472 1.6493646e-38
3.7728765 -0.16359021 -0.67038924 1.3629822e-38
3.73083 -0.13174495 -0.66525894 1.5475884e-38
3.73083 -0.10400918 -0.66525894 1.4370237e-38
4.14048 -0.46150458 -0.73051417 5.629327e-39
4.042697 -0.43558532 -0.71326214 1.4733154e-39
3.9052346 -0.39157429 -0.68166775 1.059494e-38
3.9488642 -0.41080365 -0.69670701 2.5721128e-39
3.9989815 -0.41563302 -0.69052052 7.731817e-39
3.8607671 -0.37277797 -0.67390585 1.6235815e-38
3.8218055 -0.34740549 -0.65275538 1.3002849e-38
3.8218055 -0.3190459 -0.65275538 1.0974553e-38
3.8223937 -0.29304954 -0.65046644 1.0326662e-38
3.8613622 -0.27719387 -0.67159152 1.0511775e-38
3.82357 -0.26941651 -0.64588863 9.9593309e-39
3.8625512 -0.25090826 -0.66696262 8.7582569e-39
3.8625512 -0.22223306 -0.66696256 8.2976319e-39
3.8625512 -0.1935578 -0.66696262 7.1012341e-39
3.7792749 -0.15424222 -0.64549124 8.4762064e-39
3.8218055 -0.17015781 -0.65275538 7.1808517e-39
3.7377336 -0.13174495 -0.63839608 7.8290307e-39
3.7360077 -0.11094312 -0.6451118 1.2064258e-38
3.7798567 -0.10282814 -0.64322782 3.2210681e-39
3.7792749 -0.084132113 -0.64549124 2.946656e-39
4.2432017 -0.48871928 -0.74863768 1.2718322e-38
4.3005114 -0.49486238 -0.74258697 1.28098e-38
4.1966667 -0.46711928 -0.71678078 9.4871619e-39
4.0967698 -0.43320003 -0.69971871 7.5528292e-39
4.148138 -0.4461211 -0.70071548 9.9448807e-39
3.914259 -0.39157429 -0.64655191 7.8301391e-39
3.9561679 -0.39613208 -0.6682874 1.0869354e-38
4.006371 -0.41563302 -0.66176677 7.7289514e-39
3.8714731 -0.37277797 -0.63224667 1.0697239e-38
3.9106491 -0.37707156 -0.66059828 1.3467756e-38
3.8294523 -0.34504223 -0.62299937 1.0048637e-38
3.8696887 -0.35844037 -0.63918984 1.429712e-38
3.7868369 -0.31315842 -0.61606634 1.1987995e-38
3.8270996 -0.32613578 -0.63215506 1.226782e-38
3.7880003 -0.29446241 -0.61153942 1.3183615e-38
3.8282759 -0.28832296 -0.62757719 1.0143691e-38
3.8294523 -0.26468989 -0.62299937 9.4029033e-39
3.8708787 -0.24851866 -0.63456112 8.2083061e-39
3.8714731 -0.22223304 -0.63224667 7.6533135e-39
3.8714731 -0.1935578 -0.63224667 6.5440848e-39
3.744637 -0.15254679 -0.61153322 3.6892461e-39
3.7862551 -0.16826423 -0.61832982 4.7012527e-39
3.744637 -0.13174495 -0.61153322 2.4878359e-39
3.7091312 -0.10973945 -0.58496982 1.8431699e-39
3.744637 -0.10400918 -0.61153322 2.210872e-39
3.7463629 -0.076273397 -0.60481745 2.4871044e-39
3.7845101 -0.084132113 -0.62512016 1.3818498e-39
4.2549739 -0.48871928 -0.70283073 1.1329365e-38
4.3044848 -0.49486238 -0.72712606 1.4369593e-38
4.1062279 -0.47120002 -0.66291457 1.5949464e-38
4.1557956 -0.46150458 -0.6709168 8.383369e-39
4.2024798 -0.46711928 -0.69415987 6.3399395e-39
4.1062279 -0.44080004 -0.66291457 4.9677992e-39
4.1519666 -0.4461211 -0.68581617 6.1688648e-39
3.9196737 -0.39157429 -0.62548244 7.2730221e-39
4.0119133 -0.41563302 -0.64020151 5.5263246e-39
3.8786106 -0.37277797 -0.60447395 7.0043497e-39
3.8376877 -0.34031561 -0.59095436 4.7923833e-39
3.878016 -0.35366118 -0.6067884 8.757482e-39
3.835923 -0.3190459 -0.59782118 7.1927011e-39
3.7926538 -0.28511438 -0.59343183 5.4337926e-39
3.8376877 -0.29777616 -0.59095436 3.7764265e-39
3.7926538 -0.26174435 -0.59343183 5.6164113e-39
3.8365111 -0.24578349 -0.59553224 4.7952574e-39
3.8786106 -0.22223303 -0.60447395 2.0261431e-39
3.8786106 -0.1935578 -0.60447395 1.9343174e-39
3.7498147 -0.15254679 -0.59138602 2.1169136e-39
3.7949805 -0.15424222 -0.584378 2.2094553e-39
3.835923 -0.17015781 -0.59782118 1.6587885e-39
3.7125454 -0.12345687 -0.57168412 2.5771546e-39
3.7532663 -0.13313174 -0.57795459 2.854466e-39
3.7136836 -0.10516697 -0.5672555 2.3952717e-39
3.7532663 -0.097075231 -0.57795459 2.3956276e-39
3.7524035 -0.079740368 -0.58131248 2.0272249e-39
3.7949805 -0.07011009 -0.584378 2.6707936e-39
4.1100111 -0.48640004 -0.648193 1.6773452e-38
4.1100111 -0.47120002 -0.648193 1.6764492e-38
4.1621776 -0.4666324 -0.64608461 1.5478062e-38
4.0651283 -0.42056513 -0.62597734 7.1876326e-39
4.1100111 -0.44080004 -0.648193 6.6323695e-39
4.1634536 -0.4461211 -0.64111817 1.1524493e-38
3.9250882 -0.39157429 -0.60441297 6.5368668e-39
3.9744267 -0.39613208 -0.5972383 4.9720396e-39
3.9286981 -0.37707156 -0.5903666 4.7891085e-39
3.8857479 -0.35127157 -0.5767011 4.0540714e-39
3.8423936 -0.3214092 -0.57264298 3.9629589e-39
3.8875322 -0.31542754 -0.56975794 3.0402712e-39
3.8429818 -0.29068625 -0.57035404 3.0384999e-39
3.8429818 -0.25523672 -0.57035398 2.4856723e-39
3.8447464 -0.21269725 -0.56348723 1.5662271e-39
3.8851533 -0.22462265 -0.57901555 1.7509757e-39
3.8447464 -0.19851743 -0.56348723 1.5662285e-39
3.8851533 -0.19116819 -0.57901555 1.5669614e-39
3.8002157 -0.15424222 -0.56400692 2.4867429e-39
3.8429818 -0.17015781 -0.57035404 1.7506212e-39
3.7618959 -0.13174495 -0.5443759 3.1321221e-39
3.7618959 -0.10400918 -0.5443759 2.7644031e-39
3.76017 -0.083207339 -0.55109167 2.4867821e-39
3.8019607 -0.07011009 -0.55721653 5.1438654e-39
3.8839636 -0.071688071 -0.58364433 2.1179715e-39
4.2179823 -0.45154864 -0.63383746 1.7332724e-38
4.2706695 -0.47295415 -0.64175481 1.731502e-38
4.1691971 -0.43073758 -0.61876911 9.2169958e-39
3.9780786 -0.39613208 -0.58302844 2.9412554e-39
4.0285392 -0.40078899 -0.57550555 3.6834854e-39
3.9359176 -0.37707153 -0.56227398 3.6838567e-39
3.8928852 -0.35127157 -0.54892832 2.8544674e-39
3.8500404 -0.31195599 -0.54288691 2.2123154e-39
3.8928852 -0.32976514 -0.54892832 2.5793084e-39
3.8098135 -0.28394589 -0.52665991 2.3960032e-39
3.8500404 -0.29777616 -0.54288691 2.1212113e-39
3.8098135 -0.26291284 -0.52665991 2.0261417e-39
3.8500404 -0.24814679 -0.54288691 1.7499177e-39
3.8500404 -0.21978715 -0.54288691 1.6584255e-39
3.8500404 -0.19851743 -0.54288691 1.3818498e-39
3.8928852 -0.18638898 -0.54892832 1.1982027e-39
3.8089409 -0.15424222 -0.53005511 2.3931277e-39
3.8500404 -0.17015781 -0.54288691 1.288578e-39
3.7687993 -0.13174495 -0.51751304 3.3186769e-39
3.7687993 -0.10400918 -0.51751304 2.8576918e-39
3.8096387 -0.078523301 -0.52733892 3.0381328e-39
3.8482759 -0.070899084 -0.54975373 4.7758059e-39
4.2257333 -0.45154864 -0.6036762 6.4464354e-40
4.2745938 -0.45718899 -0.62648582 1.4191192e-38
4.1289277 -0.42560002 -0.57458478 3.1317451e-39
4.1749406 -0.43073758 -0.59642011 2.301274e-39
4.0322342 -0.40078899 -0.56112868 3.6827609e-39
3.944942 -0.37707156 -0.52715814 3.1360962e-39
3.9000225 -0.35127157 -0.5211556 2.4914414e-39
3.8570993 -0.31195599 -0.51541984 2.1215883e-39
3.9000225 -0.32976514 -0.5211556 2.2148629e-39
3.8588641 -0.29068625 -0.50855303 2.1201239e-39
3.8576875 -0.25523672 -0.5131309 1.9350348e-39
3.8159213 -0.23837432 -0.50289363 1.9350306e-39
3.8570993 -0.21978717 -0.51541984 1.6584283e-39
3.8553345 -0.19851743 -0.52228659 1.3807722e-39
3.9006176 -0.19116819 -0.51884127 1.7492044e-39
3.7757027 -0.15254679 -0.49065015 2.3974409e-39
3.8570993 -0.17015781 -0.51541984 1.3814841e-39
3.7757027 -0.13174495 -0.49065015 3.2268498e-39
3.7757027 -0.10400918 -0.49065015 2.7647801e-39
3.7774286 -0.076273397 -0.48393443 2.3041873e-39
3.8159213 -0.077121101 -0.50289363 3.0402838e-39
3.773977 -0.055471562 -0.49736589 5.9876502e-39
4.229609 -0.45154864 -0.58859563 2.0239696e-39
4.1327109 -0.42560002 -0.55986315 3.1313948e-39
4.0856905 -0.40554494 -0.54596621 3.1342619e-39
3.9077549 -0.38233638 -0.49106845 3.7807075e-39
3.9503567 -0.37707156 -0.50608867 4.0576881e-39
3.9071598 -0.35127157 -0.49338278 4.2424353e-39
3.86357 -0.3214092 -0.49024162 3.3183448e-39
3.9089441 -0.31542754 -0.48643962 3.686721e-39
3.8641582 -0.29068625 -0.48795271 3.4076328e-39
3.8246465 -0.25239635 -0.46894184 3.1299641e-39
3.8632758 -0.25878164 -0.49138609 3.5913108e-39
3.8229015 -0.23136331 -0.47573224 2.8562484e-39
3.86357 -0.21742386 -0.49024162 2.3041579e-39
3.8659229 -0.18433762 -0.48108596 1.6573619e-39
3.9065654 -0.19594739 -0.49569726 1.7516988e-39
3.7831817 -0.15716942 -0.46154872 2.5811021e-39
3.8229015 -0.16826423 -0.47573224 1.8446146e-39
3.8623934 -0.17015781 -0.49481949 1.5665886e-39
3.7826064 -0.13174495 -0.46378726 3.0424516e-39
3.7826064 -0.10400917 -0.46378726 3.3150784e-39
3.7826064 -0.083207339 -0.46378726 3.5880612e-39
3.8246465 -0.07011009 -0.46894184 2.2116161e-39
3.8765111 -0.39703485 -0.43988529 2.6700551e-39
3.9160817 -0.4014532 -0.45866689 2.1168897e-39
3.9142971 -0.37994677 -0.46561009 3.3139854e-39
3.9142971 -0.35127157 -0.46561009 3.5956001e-39
3.8736873 -0.32046387 -0.45087212 3.8707549e-39
3.9125128 -0.31542754 -0.47255325 4.0572705e-39
3.8736873 -0.29210424 -0.45087206 3.8693144e-39
3.9125128 -0.28675228 -0.47255325 3.3154497e-39
3.8316267 -0.25239635 -0.44178042 3.2243331e-39
3.8720992 -0.2623266 -0.45705223 3.1321165e-39
3.8316267 -0.23136333 -0.44178042 2.4888952e-39
3.8720992 -0.21624221 -0.45705223 2.211958e-39
3.8736873 -0.19000955 -0.45087206 1.9342963e-39
3.9125128 -0.2007266 -0.47255325 2.0257675e-39
3.7895098 -0.15948074 -0.4369244 3.2228884e-39
3.7501028 -0.12345687 -0.42554116 2.8551779e-39
3.7889345 -0.13405627 -0.439163 3.2239604e-39
3.7895098 -0.10400918 -0.43692446 3.3157819e-39
3.7895098 -0.083207339 -0.4369244 3.221452e-39
3.8298817 -0.07011009 -0.44857076 2.5775358e-39
3.8765111 -0.070899084 -0.43988529 1.9343342e-39
3.8729815 -0.056719266 -0.45361885 6.720853e-39
3.8835697 -0.38285506 -0.41241816 3.5931016e-39
3.9214346 -0.37994677 -0.4378373 3.407281e-39
3.9214346 -0.35127157 -0.4378373 3.7764167e-39
3.8818052 -0.3190459 -0.41928494 3.3172378e-39
3.8368618 -0.29446241 -0.42140931 3.5041164e-39
3.8823934 -0.28832296 -0.416996 3.3157791e-39
3.8368618 -0.25239635 -0.42140931 4.143428e-39
3.8823934 -0.26468989 -0.416996 3.3154525e-39
3.7981393 -0.22188625 -0.40334579 2.6708048e-39
3.8380253 -0.23370032 -0.4168824 3.2235946e-39
3.8818052 -0.21269725 -0.41928494 2.4874617e-39
3.8818052 -0.19142753 -0.41928494 1.9368187e-39
3.7981393 -0.15948074 -0.40334573 2.8580365e-39
3.7981393 -0.13174495 -0.40334573 3.3175979e-39
3.7981393 -0.10400918 -0.40334573 2.672932e-39
3.7981393 -0.083207339 -0.40334579 2.9477238e-39
3.8403521 -0.07011009 -0.40782863 1.9379075e-39
3.8800404 -0.070899084 -0.42615172 2.5779001e-39
3.8835697 -0.056719266 -0.41241816 6.3466965e-39
3.9214346 -0.05735046 -0.4378373 5.7877901e-39
3.846169 -0.37392047 -0.38519409 3.6867546e-39
3.8870993 -0.36867523 -0.39868465 5.0711198e-39
3.9267876 -0.37277797 -0.41700771 4.1516914e-39
3.8473322 -0.35055047 -0.38066712 4.1498753e-39
3.8882756 -0.3450422 -0.39410675 3.320486e-39
3.9267876 -0.35127157 -0.41700771 3.5934674e-39
3.8473322 -0.31549543 -0.38066712 3.3197363e-39
3.8870993 -0.3190459 -0.39868465 3.3175965e-39
3.8455873 -0.28044036 -0.38745752 3.0420774e-39
3.8888638 -0.29777616 -0.39181787 3.1321053e-39
3.8888638 -0.25523672 -0.39181787 2.3978151e-39
3.8473322 -0.21033029 -0.38066712 1.6587899e-39
3.8882756 -0.22215044 -0.39410675 1.8435595e-39
3.8084946 -0.18721652 -0.36305138 2.2108734e-39
3.8455873 -0.18929726 -0.38745752 1.9353669e-39
3.8870993 -0.19851743 -0.39868465 1.2932345e-39
3.7654672 -0.1714679 -0.36575538 2.4881848e-39
3.8061934 -0.15716942 -0.3720057 3.0395523e-39
3.8067687 -0.13174495 -0.3697671 3.3157861e-39
3.8067687 -0.10400918 -0.3697671 2.4892624e-39
3.8067687 -0.076273397 -0.3697671 2.1204925e-39
3.843842 -0.07011009 -0.39424792 1.6623912e-39
3.8067687 -0.055471562 -0.3697671 5.7024286e-39
3.843842 -0.056088075 -0.39424792 6.5307277e-39
3.8508224 -0.37158349 -0.36708641 3.9622513e-39
3.8508224 -0.34353948 -0.36708641 4.3321114e-39
3.8976874 -0.34031561 -0.35748389 4.0555287e-39
3.8508224 -0.32250643 -0.36708641 3.5927527e-39
3.8965108 -0.31668261 -0.36206174 3.6863608e-39
3.8525674 -0.28745139 -0.36029607 2.8598372e-39
3.8959227 -0.29068625 -0.36435068 2.8612665e-39
3.8519857 -0.25707033 -0.3625595 2.3974577e-39
3.8976874 -0.26941651 -0.35748389 2.4006555e-39
3.8525672 -0.22435229 -0.36029595 2.0283011e-39
3.8136721 -0.18721652 -0.34290427 2.0272038e-39
3.774003 -0.15089175 -0.33254108 2.4896365e-39
3.8130968 -0.16179205 -0.34514281 2.5814748e-39
3.774003 -0.13717431 -0.33254108 2.8576974e-39
3.8130968 -0.12943363 -0.34514281 2.8559135e-39
3.8136721 -0.10400917 -0.34290427 2.8569631e-39
3.8136721 -0.076273397 -0.34290427 2.3041649e-39
3.8543124 -0.056088075 -0.35350564 5.3311601e-39
3.9439173 -0.37851304 -0.350353 3.873643e-39
3.8647828 -0.33652845 -0.31276348 4.884911e-39
3.9029815 -0.34740549 -0.3368836 4.6090542e-39
3.9410622 -0.35844037 -0.36146209 4.5168614e-39
3.8647828 -0.30848444 -0.31276348 3.8696857e-39
3.9029815 -0.3190459 -0.3368836 3.6867392e-39
3.8223016 -0.27735779 -0.30932564 3.3183126e-39
3.8605945 -0.28885359 -0.32906035 3.3186769e-39
3.8612926 -0.25940734 -0.32634413 2.67296e-39
3.8205757 -0.23575413 -0.31604132 2.3041691e-39
3.8607936 -0.220346 -0.32828423 2.0300919e-39
3.8188498 -0.18721652 -0.3227571 2.0261403e-39
3.8647828 -0.18929726 -0.31276348 2.6715083e-39
3.7825387 -0.15089175 -0.29932681 2.7658549e-39
3.8200004 -0.16179205 -0.31827989 2.6743823e-39
3.7815142 -0.13168734 -0.30331245 3.1317745e-39
3.8188498 -0.12481101 -0.3227571 3.405507e-39
3.7801485 -0.10425247 -0.30862674 2.9491545e-39
3.7825387 -0.068587154 -0.29932681 1.7560246e-39
3.8200004 -0.078584708 -0.31827989 2.2126951e-39
3.993674 -0.39157429 -0.3375327 3.3150784e-39
3.9535527 -0.37277797 -0.31285977 5.0685806e-39
3.871763 -0.33652845 -0.28560209 4.6086899e-39
3.9106286 -0.34976879 -0.30712759 5.3451703e-39
3.829205 -0.30509359 -0.28246275 2.3985227e-39
3.8694363 -0.31783244 -0.29465595 3.595624e-39
3.9082756 -0.32613578 -0.31628326 4.2374074e-39
3.8280544 -0.28198043 -0.28693995 2.7647871e-39
3.868273 -0.29446241 -0.2991828 3.3186517e-39
3.8274791 -0.25655597 -0.28917852 2.671867e-39
3.8280544 -0.23113151 -0.28693995 2.5811119e-39
3.868273 -0.2173413 -0.2991828 2.4878261e-39
3.7910745 -0.19204402 -0.26611248 2.7629822e-39
3.8278244 -0.19137689 -0.28783539 2.3952759e-39
3.7897086 -0.16186571 -0.27142671 2.8569855e-39
3.8257532 -0.16641468 -0.29589421 2.9491812e-39
3.7893674 -0.13031559 -0.27275532 3.1317591e-39
3.7910745 -0.10973945 -0.26611248 2.67472e-39
3.8280544 -0.10169786 -0.28693995 2.8573232e-39
3.7876601 -0.068587154 -0.27939817 2.6722061e-39
3.8274791 -0.083207339 -0.28917852 2.3970822e-39
3.96069 -0.37277797 -0.28508702 5.4348268e-39
3.8769982 -0.33652845 -0.26523098 4.8842006e-39
3.917099 -0.35449541 -0.28194934 5.8090267e-39
3.8349581 -0.30971619 -0.26007703 3.2254107e-39
3.8752532 -0.32250643 -0.27202135 3.6885497e-39
3.8343828 -0.28429174 -0.26231557 2.7647787e-39
3.8343828 -0.25655597 -0.26231563 3.0399306e-39
3.7979031 -0.23319632 -0.23954101 2.3959878e-39
3.8343828 -0.22882019 -0.26231557 2.8548205e-39
3.7606399 -0.1967743 -0.22383419 2.2126713e-39
3.796196 -0.19890273 -0.24618387 2.214109e-39
3.8326569 -0.20801836 -0.26903135 2.3949102e-39
3.7606399 -0.17641835 -0.22383419 2.8562484e-39
3.7961957 -0.16460919 -0.24618375 3.2239758e-39
3.796196 -0.13031559 -0.24618387 3.1317535e-39
3.7979031 -0.10973945 -0.23954101 2.8562456e-39
3.8349581 -0.10169786 -0.26007703 2.5814538e-39
3.8343828 -0.083207339 -0.26231557 2.9463085e-39
4.011723 -0.39157429 -0.26730108 3.5873563e-39
3.9684224 -0.37755716 -0.25499994 4.882739e-39
3.8464639 -0.33282936 -0.21530557 5.3455557e-39
3.8845601 -0.34120247 -0.23580611 5.4391806e-39
3.9241579 -0.35449541 -0.25448227 6.2671462e-39
3.8430121 -0.31202751 -0.22873698 3.8718563e-39
3.8047318 -0.27434862 -0.2129696 3.4072993e-39
3.8423216 -0.28567854 -0.23142327 3.13355e-39
3.8047318 -0.25377247 -0.2129696 2.3949116e-39
3.8412862 -0.25655597 -0.23545274 2.5800203e-39
3.8030245 -0.22633761 -0.21961246 1.6605891e-39
3.8395603 -0.22188625 -0.24216846 2.0279311e-39
3.7657065 -0.1967743 -0.20411888 2.3041551e-39
3.8033657 -0.16186568 -0.21828383 3.2239632e-39
3.8030245 -0.13717431 -0.21961246 2.7654863e-39
3.844738 -0.12481101 -0.22202127 2.5800203e-39
3.8030245 -0.10973945 -0.21961246 3.039216e-39
3.8430121 -0.097075231 -0.22873698 3.1317675e-39
3.8430121 -0.083207339 -0.22873698 3.2243373e-39
3.9329813 -0.36867523 -0.22014837 5.3447766e-39
3.8499155 -0.33282936 -0.20187409 5.6232272e-39
3.8909588 -0.35055047 -0.21090814 6.1735171e-39
3.8510661 -0.30971619 -0.19739693 4.5186677e-39
3.8098531 -0.27434862 -0.19304106 2.854494e-39
3.8516414 -0.2912257 -0.19515839 3.7846619e-39
3.8098531 -0.25377247 -0.19304106 2.2130384e-39
3.8098531 -0.22633761 -0.19304106 2.7644298e-39
3.7724621 -0.1967743 -0.17783172 2.3045152e-39
3.8098531 -0.16460918 -0.19304094 2.766599e-39
3.8104222 -0.13260183 -0.19082674 2.2134182e-39
3.8499155 -0.12481101 -0.20187409 2.7626333e-39
3.808146 -0.10973945 -0.1996839 2.3048613e-39
3.8522167 -0.10169786 -0.19291984 2.5796616e-39
3.8499155 -0.083207339 -0.20187409 3.8639712e-39
3.899684 -0.3645725 -0.17695634 4.4203231e-39
3.9400401 -0.36867523 -0.1926813 5.0671289e-39
3.896194 -0.34353948 -0.19053704 5.8990826e-39
3.9435694 -0.34740549 -0.17894773 6.0834822e-39
3.860271 -0.30509359 -0.16157968 5.5292449e-39
3.8985207 -0.31783244 -0.18148325 5.7150571e-39
3.8183889 -0.27434862 -0.15982673 4.977513e-39
3.8585451 -0.2912257 -0.16829546 5.7150178e-39
3.8175354 -0.25720182 -0.16314815 3.5001983e-39
3.860271 -0.24962202 -0.16157968 3.408723e-39
3.8183887 -0.2263376 -0.15982656 3.5009102e-39
3.7792177 -0.1967743 -0.15154457 2.8559065e-39
3.8183885 -0.16460918 -0.15982655 2.6729544e-39
3.8183887 -0.13168733 -0.15982661 2.6718754e-39
3.860271 -0.12481101 -0.16157968 2.2123336e-39
3.8585451 -0.10400918 -0.16829546 2.2130384e-39
3.8568192 -0.083207339 -0.17501122 3.4090831e-39
3.9910238 -0.37277797 -0.16705264 3.6773687e-39
3.947099 -0.34031561 -0.16521411 6.6348315e-39
3.9910238 -0.35844037 -0.16705264 6.0870612e-39
3.9049191 -0.31549543 -0.15658517 5.5328392e-39
3.9506283 -0.32613578 -0.15148054 5.5310554e-39
3.8252175 -0.27434862 -0.13325526 5.5267141e-39
3.8654485 -0.2912257 -0.14143251 5.7150402e-39
3.8269248 -0.25377247 -0.12661241 4.7019771e-39
3.8637226 -0.24962202 -0.14814827 4.3310422e-39
3.787662 -0.21713027 -0.11868574 3.4130446e-39
3.8263557 -0.22862385 -0.12882666 4.0555301e-39
3.787662 -0.1967743 -0.11868574 3.0410138e-39
3.8252175 -0.19890274 -0.13325526 3.2221765e-39
3.787662 -0.16963303 -0.11868574 3.1325032e-39
3.8260713 -0.16117981 -0.12993377 2.9473735e-39
3.8263557 -0.12802935 -0.12882666 3.1324878e-39
3.8660238 -0.1063205 -0.13919397 2.3052509e-39
3.9066644 -0.098154128 -0.14979482 3.0399348e-39
3.9049191 -0.084132113 -0.15658517 3.5869976e-39
3.9171348 -0.33652845 -0.10905267 2.5800259e-39
3.9559224 -0.34031561 -0.13088025 4.6079528e-39
3.9945924 -0.35127157 -0.15316628 6.8174039e-39
3.9145172 -0.31198993 -0.11923822 5.161851e-39
3.9559224 -0.32613578 -0.13088025 5.0653646e-39
3.8723521 -0.28429174 -0.11456963 6.0805858e-39
3.8320463 -0.25377247 -0.1066838 4.7923777e-39
3.7910399 -0.21713027 -0.10554217 3.7807453e-39
3.8343225 -0.22862385 -0.097826697 4.3306793e-39
3.7927287 -0.1967743 -0.098970383 3.4097978e-39
3.7910399 -0.17641835 -0.10554217 3.7760874e-39
3.8340945 -0.16186568 -0.09871237 3.2250394e-39
3.8337533 -0.13717431 -0.10004094 2.8584106e-39
3.8723521 -0.13174495 -0.11456969 2.583616e-39
3.8717768 -0.1063205 -0.11680824 3.5927457e-39
3.8792555 -0.33282936 -0.087706745 2.6711299e-39
3.8809814 -0.31202751 -0.080991045 3.038123e-39
3.9206247 -0.31549543 -0.095471911 3.3150658e-39
3.8798308 -0.28198043 -0.085468195 3.7760439e-39
3.9206247 -0.29446241 -0.095471911 4.0554979e-39
3.8792555 -0.25655597 -0.087706804 4.1437517e-39
3.8388748 -0.22633761 -0.080112383 3.3172476e-39
3.8388748 -0.19890274 -0.080112383 3.9579269e-39
3.8388748 -0.16460918 -0.080112383 3.2243107e-39
3.8388748 -0.13717431 -0.080112383 3.4973327e-39
3.8775296 -0.12481101 -0.094422512 3.1299851e-39
3.8844333 -0.33282936 -0.06755963 2.4863785e-39
3.8871946 -0.31064072 -0.056814454 4.059116e-39
3.8878849 -0.28429174 -0.054128159 2.3034432e-39
3.8871946 -0.25794277 -0.056814454 2.3960004e-39
3.8855836 -0.23113151 -0.063082471 3.6827889e-39
3.9310951 -0.2243523 -0.054729756 2.858391e-39
3.8868985 -0.1961316 -0.057965677 3.1353507e-39
3.8861589 -0.16641468 -0.060843922 3.3193818e-39
3.8559463 -0.30864221 -0.01368369 5.5274162e-39
3.8947885 -0.31202751 -0.027265277 9.303058e-39
3.8559463 -0.28806606 -0.01368369 5.9808469e-39
3.8959391 -0.28198043 -0.02278812 9.6664805e-39
3.8970895 -0.25886729 -0.018311022 1.0502708e-38
3.9363303 -0.25239635 -0.034358706 2.4932617e-39
3.9345853 -0.23136331 -0.041149057 2.0275724e-39
3.8661892 -0.34293577 0.026173366 1.446788e-38
3.9016919 -0.33282936 -0.00040239497 9.5882923e-39
3.8632014 -0.31378627 0.014548581 1.0962609e-38
3.8627748 -0.28806606 0.012887662 9.209447e-39
3.9034178 -0.27735779 0.0063133687 7.9190753e-39
3.8661892 -0.26063117 0.026173366 9.39529e-39
3.9034178 -0.25655597 0.0063133687 9.2022836e-39
3.9823928 -0.24105689 -0.027878581 1.5702446e-39
3.9051437 -0.23575413 0.013029075 9.6686581e-39
3.9433105 -0.23136333 -0.0071972525 8.1052953e-39
3.9823928 -0.21978715 -0.027878581 2.2105413e-39
3.8298843 -0.33926606 0.045608729 1.2446354e-38
3.831573 -0.32569543 0.052180462 1.2713938e-38
3.8713107 -0.30864221 0.04610198 1.0035661e-38
3.8718798 -0.28349355 0.048316345 1.1696937e-38
3.9103212 -0.27735779 0.03317631 1.0776044e-38
3.8713107 -0.25377247 0.04610198 1.0497687e-38
3.9085956 -0.24962202 0.026460487 9.024718e-39
3.8730178 -0.23319632 0.052744836 9.9445149e-39
3.9103212 -0.23575413 0.03317631 9.4831654e-39
3.9520359 -0.2243523 0.02675461 9.7622046e-39
3.8400176 -0.34605139 0.08503934 1.4461039e-38
3.8764322 -0.34293577 0.06603054 1.5300117e-38
3.8383286 -0.32569543 0.078467496 1.5856894e-38
3.8781393 -0.30864221 0.072673388 1.1231309e-38
3.8781393 -0.28120732 0.072673388 1.2156113e-38
3.8781393 -0.25377247 0.072673388 1.1050148e-38
3.8781393 -0.23319632 0.072673388 9.2962645e-39
3.9189508 -0.22188625 0.06675484 1.0768879e-38
3.9590161 -0.2173413 0.053916007 9.7629977e-39
4.0000401 -0.22687706 0.040789243 7.4616761e-39
3.8467731 -0.33926606 0.11132649 8.2954263e-39
3.8866751 -0.35665321 0.10588765 1.585179e-38
3.8467731 -0.31891009 0.11132638 1.0131441e-38
3.8841143 -0.31207156 0.095923431 1.1604762e-38
3.884968 -0.28120732 0.099244915 9.6675833e-39
3.884968 -0.25377247 0.099244803 9.9441492e-39
3.8832607 -0.23319632 0.092602067 5.3473283e-39
3.9241283 -0.22188625 0.086901955 7.3587591e-39
3.9625063 -0.21033029 0.067496821 1.0777127e-38
3.9224024 -0.20801836 0.080186248 1.0583388e-38
4.0516911 -0.2007266 0.06901598 9.7604796e-39
3.8518398 -0.33926606 0.13104169 1.68649e-38
3.8529656 -0.31664833 0.13542284 1.4923058e-38
3.8917966 -0.3017835 0.12581633 1.1423253e-38
3.8552175 -0.27141282 0.14418538 1.2246506e-38
3.8917966 -0.28120732 0.12581633 1.0222544e-38
3.8552175 -0.25784218 0.14418538 1.0593096e-38
3.8917966 -0.25377247 0.12581633 9.5771491e-39
3.8935037 -0.23319632 0.13245918 5.2504566e-39
3.9320674 -0.22743341 0.11779436 3.7760509e-39
3.861973 -0.31212476 0.17047241 4.5125342e-39
3.8989663 -0.31550092 0.15371625 1.2332567e-38
3.861973 -0.28498349 0.17047241 8.9332118e-39
3.8986251 -0.28806606 0.15238774 1.2984077e-38
3.8585951 -0.25784218 0.15732884 9.3034615e-39
3.8969181 -0.24691375 0.14574488 8.6544684e-39
3.8969181 -0.23319632 0.14574488 6.8198884e-39
3.8687286 -0.29855412 0.19675957 5.342271e-39
