# .PCD v0.7 - Point Cloud Data file format
VERSION 0.7
FIELDS x y z rgb
SIZE 4 4 4 4
TYPE F F F F
COUNT 1 1 1 1
WIDTH 1025
HEIGHT 1
VIEWPOINT 0 0 0 1 0 0 0
POINTS 1025
DATA ascii
5.5804796 -4.29387 -1.2197887 2.7658689e-40
5.5872922 -4.271142 -1.2250381 2.7658689e-40
5.5594954 -4.3458982 -1.2079149 6.4536941e-40
5.5628939 -4.3310313 -1.2254333 4.6097815e-40
5.5712214 -4.3123794 -1.2286425 3.6878252e-40
5.5342817 -4.3533697 -1.2107178 3.6878252e-40
5.5139713 -4.3584428 -1.208227 3.6878252e-40
5.4996901 -4.3441553 -1.2289543 4.6097815e-40
5.2992439 -4.0016904 -1.2874246 3.6878252e-40
5.2949638 -4.0243411 -1.2769316 2.7658689e-40
5.2843809 -4.0066147 -1.2975928 2.7658689e-40
5.6058969 -4.2503786 -1.2014146 3.6878252e-40
5.5887432 -4.3331423 -1.1723253 3.6878252e-40
5.5860157 -4.3185158 -1.1849415 2.7658689e-40
5.5892544 -4.2987375 -1.1931648 2.7658689e-40
5.5896807 -4.2643013 -1.1926613 2.7658689e-40
5.5667863 -4.3480487 -1.181294 2.7658689e-40
5.5355439 -4.3591318 -1.1778573 3.6878252e-40
5.5144114 -4.3627815 -1.1813924 2.7658689e-40
5.3206306 -4.0580568 -1.2365559 3.6878252e-40
5.3150759 -4.0392771 -1.256889 2.7658689e-40
5.6072173 -4.2845116 -1.1546463 3.6878252e-40
5.5924988 -4.3385944 -1.149981 3.6878252e-40
5.6022973 -4.3083854 -1.1497313 2.7658689e-40
5.5965109 -4.2764354 -1.1662029 4.6097815e-40
5.5594544 -4.3667216 -1.1343483 3.6878252e-40
5.5663128 -4.3512349 -1.1521751 4.6097815e-40
5.536921 -4.372365 -1.1405045 3.6878252e-40
5.5415764 -4.3571677 -1.1576002 2.7658689e-40
5.5131426 -4.3614793 -1.1510901 2.7658689e-40
5.3406272 -4.1110859 -1.1884346 2.7658689e-40
5.3356318 -4.0930576 -1.2025964 2.7658689e-40
5.3351603 -4.073204 -1.2172794 5.5317378e-40
5.6084642 -4.3180833 -1.1155068 6.4536941e-40
5.6154532 -4.3009477 -1.125084 3.6878252e-40
5.5906153 -4.3336558 -1.1230015 4.6097815e-40
5.6016412 -4.3050499 -1.1321261 3.6878252e-40
5.5649967 -4.362051 -1.1161531 3.6878252e-40
5.5663052 -4.3454723 -1.12288 3.6878252e-40
5.5372801 -4.367691 -1.1171106 3.6878252e-40
5.5111198 -4.3711405 -1.1084919 3.6878252e-40
5.5090656 -4.3560181 -1.1192633 2.7658689e-40
5.3595791 -4.1235456 -1.1599231 2.7658689e-40
5.3592768 -4.1036034 -1.1690495 1.8439126e-40
5.3497286 -4.0874019 -1.1879442 3.6878252e-40
5.3380919 -4.1330032 -1.1601363 2.7658689e-40
5.335423 -4.1102023 -1.1787422 2.7658689e-40
5.3399668 -4.0893221 -1.1879442 3.6878252e-40
5.3211374 -4.1311064 -1.1599231 2.7658689e-40
5.6363883 -4.306284 -1.0834553 3.6878252e-40
5.614161 -4.3124475 -1.0925609 3.6878252e-40
5.6121674 -4.2966285 -1.0998501 3.6878252e-40
5.5913863 -4.3550439 -1.0787851 3.6878252e-40
5.5991144 -4.330555 -1.0926777 3.6878252e-40
5.5656371 -4.3564606 -1.0883813 5.5317378e-40
5.5377083 -4.3652163 -1.0880822 3.6878252e-40
5.5127087 -4.3662243 -1.0850979 2.7658689e-40
5.3616023 -4.1248159 -1.1382574 2.7658689e-40
5.3580127 -4.0971766 -1.1351256 2.7658689e-40
5.339695 -4.1332159 -1.1364425 2.7658689e-40
5.3207788 -4.1292849 -1.1503061 2.7658689e-40
5.6327162 -4.3029928 -1.0630589 9.219563e-40
5.6343675 -4.2856226 -1.0661069 2.7658689e-40
5.6358089 -4.2665367 -1.0602298 2.7658689e-40
5.6123877 -4.340199 -1.0524696 3.6878252e-40
5.6137271 -4.308795 -1.0607547 4.6097815e-40
5.6211729 -4.2882175 -1.0661069 5.5317378e-40
5.5925951 -4.3763247 -1.0421997 3.6878252e-40
5.5936375 -4.350441 -1.0541283 3.6878252e-40
5.5997572 -4.3285017 -1.0700762 4.6097815e-40
5.5841007 -4.3779955 -1.0421997 8.2976067e-40
5.5638971 -4.3616662 -1.0568291 4.6097815e-40
5.5367875 -4.362957 -1.0573912 3.6878252e-40
5.5439587 -4.3349218 -1.0469294 3.6878252e-40
5.5167809 -4.3945808 -1.0591995 2.7658689e-40
5.5118327 -4.3630781 -1.0541644 2.7658689e-40
5.3673725 -4.1507912 -1.0951756 3.6878252e-40
5.3616118 -4.1213322 -1.1085061 3.6878252e-40
5.357471 -4.0944223 -1.1205868 2.7658689e-40
5.3579059 -4.1526532 -1.0951756 2.7658689e-40
5.3387489 -4.1375694 -1.1048708 2.7658689e-40
5.3189874 -4.1201754 -1.1022217 2.7658689e-40
5.6315765 -4.2971973 -1.0324643 3.6878252e-40
5.6376181 -4.2789211 -1.0352979 3.6878252e-40
5.6395769 -4.2623072 -1.0425022 2.7658689e-40
5.6225786 -4.3642945 -1.0110334 6.4536941e-40
5.6192932 -4.3422213 -1.0274458 2.7658689e-40
5.6172867 -4.3075714 -1.0324724 3.6878252e-40
5.592278 -4.3747139 -1.0336999 1.3829344e-39
5.5958643 -4.3546133 -1.0248049 3.6878252e-40
5.5836258 -4.3755798 -1.0294499 3.6878252e-40
5.5649281 -4.3577933 -1.0205938 3.6878252e-40
5.5345135 -4.3516994 -1.0260434 2.7658689e-40
5.5130134 -4.3547773 -1.0272288 2.7658689e-40
5.4999409 -4.3401637 -1.0295693 6.4536941e-40
5.3851447 -4.1216021 -1.0701003 2.7658689e-40
5.3666663 -4.1472025 -1.0762302 2.7658689e-40
5.3722124 -4.1223822 -1.0822371 2.7658689e-40
5.3442249 -4.1497517 -1.0667573 2.7658689e-40
5.3378677 -4.1330919 -1.0812359 2.7658689e-40
5.3187695 -4.1279001 -1.0885112 2.7658689e-40
5.6351299 -4.2921977 -1.0106111 4.6097815e-40
5.6434989 -4.2723203 -1.0076327 4.6097815e-40
5.6249881 -4.3615904 -0.99970019 6.4536941e-40
5.6171145 -4.3435416 -0.98978215 5.5317378e-40
5.617219 -4.3024817 -1.0042077 4.6097815e-40
5.6231112 -4.2748456 -1.0000876 2.489282e-39
5.5989513 -4.3637848 -0.98482537 3.6878252e-40
5.5994077 -4.348896 -0.99929452 3.6878252e-40
5.5752153 -4.3687038 -0.98610044 2.7658689e-40
5.5663137 -4.3563414 -1.0040507 4.6097815e-40
5.534977 -4.3553753 -0.9908374 2.7658689e-40
5.5150328 -4.3596478 -0.99773049 2.7658689e-40
5.3983545 -4.152719 -1.03044 3.6878252e-40
5.3846111 -4.1188898 -1.0557832 2.7658689e-40
5.3730745 -4.1397905 -1.04497 2.7658689e-40
5.3417654 -4.1455755 -1.0430756 2.7658689e-40
5.3154678 -4.1493502 -1.0359709 2.7658689e-40
5.6574774 -4.2637558 -0.97808117 2.7658689e-40
5.629622 -4.287261 -0.98001641 3.6878252e-40
5.6362782 -4.2687912 -0.98248255 3.6878252e-40
5.6366396 -4.24687 -0.98010445 3.6878252e-40
5.6149101 -4.3552098 -0.95720071 3.6878252e-40
5.617054 -4.3308353 -0.96734482 4.6097815e-40
5.6199198 -4.2964592 -0.97222733 4.6097815e-40
5.6221271 -4.2698426 -0.9736799 5.5317378e-40
5.5980806 -4.3593564 -0.96145064 4.6097815e-40
5.5734129 -4.3644361 -0.96260977 3.6878252e-40
5.5559511 -4.3488331 -0.95553762 4.6097815e-40
5.5348816 -4.3546619 -0.96409869 3.6878252e-40
5.5221081 -4.3768072 -0.97420055 3.6878252e-40
5.3976536 -4.149157 -1.0116386 2.7658689e-40
5.3832121 -4.1501474 -1.0022379 2.7658689e-40
5.3666506 -4.1346235 -1.012289 2.7658689e-40
5.3406005 -4.1396537 -1.0118154 2.7658689e-40
5.3121309 -4.1448803 -1.0099208 1.8439126e-40
5.6305032 -4.2802072 -0.94505113 2.7658689e-40
5.6328721 -4.2625332 -0.94727224 3.6878252e-40
5.6326089 -4.2416334 -0.96212125 2.7658689e-40
5.618207 -4.3495436 -0.931701 5.5317378e-40
5.6168795 -4.3175507 -0.94186163 4.6097815e-40
5.6186028 -4.2950788 -0.94467837 3.6878252e-40
5.5969715 -4.3537202 -0.931701 3.6878252e-40
5.5704751 -4.3585596 -0.92981207 4.6097815e-40
5.5556321 -4.3472109 -0.94697648 4.6097815e-40
5.5456901 -4.362134 -0.92320108 3.6878252e-40
5.5350342 -4.3497887 -0.93948537 2.7658689e-40
5.5135241 -4.3378792 -0.94186163 2.7658689e-40
5.4013042 -4.1564007 -0.97673953 2.7658689e-40
5.3746634 -4.1510363 -0.98062533 2.7658689e-40
5.3460646 -4.1535234 -0.98226142 2.7658689e-40
5.3261452 -4.1576719 -0.98343652 2.7658689e-40
5.3126497 -4.1391864 -0.98150253 2.7658689e-40
5.2960987 -4.1222124 -0.9841969 2.7658689e-40
5.6399179 -4.2799373 -0.91232735 6.4536941e-40
5.6170988 -4.3439074 -0.90195137 3.6878252e-40
5.6220975 -4.3127117 -0.90560561 3.6878252e-40
5.6216736 -4.2948704 -0.92106861 6.4536941e-40
5.5958633 -4.3480844 -0.90195131 2.7658689e-40
5.5661335 -4.3539314 -0.90195137 3.6878252e-40
5.5302095 -4.3444624 -0.90759504 2.7658689e-40
5.5123463 -4.331892 -0.91025931 2.7658689e-40
5.409018 -4.1716728 -0.93169522 2.7658689e-40
5.4004455 -4.1573524 -0.9505772 2.7658689e-40
5.3723793 -4.1623478 -0.94791186 2.7658689e-40
5.3391857 -4.1495581 -0.95523447 1.8439126e-40
5.3117085 -4.1344008 -0.95624191 2.7658689e-40
5.2955656 -4.1194997 -0.96987969 3.6878252e-40
5.6448431 -4.3011217 -0.86944127 3.6878252e-40
5.6410594 -4.277833 -0.88973063 5.5317378e-40
5.6159902 -4.3382716 -0.87220174 7.3756504e-40
5.6265411 -4.3142099 -0.8817901 5.5317378e-40
5.5947547 -4.3424482 -0.87220174 3.6878252e-40
5.5650253 -4.3482957 -0.87220168 3.6878252e-40
5.5274143 -4.3392844 -0.87848711 3.6878252e-40
5.5107408 -4.3237281 -0.86716533 2.7658689e-40
5.4097486 -4.1684051 -0.9158206 3.6878252e-40
5.3942947 -4.1506948 -0.91059732 5.5317378e-40
5.3898201 -4.1718044 -0.91317487 2.7658689e-40
5.3686728 -4.1575699 -0.91992593 2.7658689e-40
5.3420181 -4.1577463 -0.92055446 2.7658689e-40
5.3250427 -4.1845446 -0.91317487 2.7658689e-40
5.3207102 -4.1592646 -0.92279732 2.7658689e-40
5.6648107 -4.2883372 -0.84130895 4.6097815e-40
5.6472631 -4.2995768 -0.85019529 4.6097815e-40
5.6166668 -4.3342361 -0.85236859 3.6878252e-40
5.6239462 -4.3097925 -0.84811747 4.6097815e-40
5.5927825 -4.3380275 -0.84776449 8.2976067e-40
5.6003909 -4.3187542 -0.84709632 2.7658689e-40
5.5640755 -4.3434649 -0.84670192 3.6878252e-40
5.5277901 -4.3275061 -0.85065508 3.6878252e-40
5.4980068 -4.2972922 -0.85460246 2.7658689e-40
5.4346437 -4.1952858 -0.87686455 3.6878252e-40
5.425168 -4.1760101 -0.86965698 2.7658689e-40
5.4071941 -4.1721416 -0.88214433 2.7658689e-40
5.3806448 -4.1679144 -0.88423681 2.7658689e-40
5.3613191 -4.155345 -0.90126866 3.6878252e-40
5.3608508 -4.1711245 -0.88076425 2.7658689e-40
5.3397131 -4.1580215 -0.89327276 1.8439126e-40
5.3179917 -4.1585178 -0.8951838 2.7658689e-40
5.293519 -4.1252413 -0.89151138 2.7658689e-40
5.2738214 -4.1096902 -0.89829355 2.7658689e-40
5.6713991 -4.2926264 -0.8190518 2.7658689e-40
5.6493573 -4.2877426 -0.82284003 3.6878252e-40
5.6314507 -4.2758675 -0.83426803 3.6878252e-40
5.6139317 -4.3278046 -0.81695241 3.6878252e-40
5.6203785 -4.2998939 -0.82186639 3.6878252e-40
5.6226149 -4.2767515 -0.82992798 3.6878252e-40
5.5926962 -4.3319817 -0.81695229 2.7658689e-40
5.5681581 -4.3373098 -0.81950229 3.6878252e-40
5.5508471 -4.3228827 -0.81855911 4.6097815e-40
5.5343266 -4.3183708 -0.82131517 2.7658689e-40
5.511857 -4.2976813 -0.82558793 2.7658689e-40
5.5013008 -4.2806778 -0.81830209 2.7658689e-40
5.4850941 -4.2699471 -0.83724016 3.6878252e-40
5.4766388 -4.2524943 -0.82977045 2.7658689e-40
5.4594398 -4.2191291 -0.8329199 3.6878252e-40
5.433454 -4.1892366 -0.84493315 3.6878252e-40
5.4061117 -4.1761408 -0.85127354 2.7658689e-40
5.3784966 -4.179038 -0.85092574 2.7658689e-40
5.3456154 -4.1716194 -0.85691696 1.8439126e-40
5.3080606 -4.1478329 -0.86260885 1.8439126e-40
5.2934089 -4.1400633 -0.86122751 2.7658689e-40
5.2784371 -4.1235476 -0.86782944 1.8439126e-40
5.6695886 -4.2816877 -0.79541183 2.7658689e-40
5.6589088 -4.2627811 -0.79520774 3.6878252e-40
5.6435642 -4.2842789 -0.79944617 3.6878252e-40
5.6420097 -4.2654214 -0.79173571 3.6878252e-40
5.6168342 -4.3231173 -0.78548002 3.6878252e-40
5.6251602 -4.2922792 -0.79357499 2.7658689e-40
5.5929747 -4.335825 -0.78305328 4.6097815e-40
5.5646896 -4.331636 -0.78720272 3.6878252e-40
5.550209 -4.3196392 -0.80143678 3.6878252e-40
5.5332165 -4.3126764 -0.79126471 2.7658689e-40
5.5006495 -4.2773657 -0.80081946 2.7658689e-40
5.4477301 -4.1985836 -0.81175131 2.7658689e-40
5.4356999 -4.1846066 -0.82364559 3.6878252e-40
5.4200516 -4.1852903 -0.81148124 2.7658689e-40
5.4021368 -4.1720991 -0.82676232 2.7658689e-40
5.3775277 -4.1763363 -0.82369846 2.7658689e-40
5.3478394 -4.1780624 -0.82506937 1.8439126e-40
5.3192787 -4.1674566 -0.82057315 1.8439126e-40
5.3074393 -4.1521749 -0.83130395 1.8439126e-40
5.2878361 -4.1365347 -0.83772582 1.8439126e-40
5.2729983 -4.1208892 -0.84888393 2.7658689e-40
5.66225 -4.249567 -0.76588547 2.7658689e-40
5.6366258 -4.2894769 -0.75562757 2.7658689e-40
5.6409111 -4.2609825 -0.76808262 3.6878252e-40
5.6214781 -4.3240175 -0.7533108 2.7658689e-40
5.6264443 -4.2921476 -0.76606053 3.6878252e-40
5.5933046 -4.3357506 -0.75231558 3.6878252e-40
5.5582013 -4.3270583 -0.75745302 2.7658689e-40
5.5293751 -4.3108544 -0.76008242 2.7658689e-40
5.5079098 -4.2890635 -0.77784765 6.4536941e-40
5.4657116 -4.2239776 -0.76887685 3.6878252e-40
5.4446964 -4.2091546 -0.78105527 2.7658689e-40
5.416965 -4.2096114 -0.77770078 3.6878252e-40
5.4044032 -4.1859741 -0.79931694 3.6878252e-40
5.3899717 -4.2037048 -0.780047 2.7658689e-40
5.3797512 -4.1890278 -0.79019368 2.7658689e-40
5.3722501 -4.1737571 -0.80531496 3.6878252e-40
5.3478384 -4.1769757 -0.79727232 1.8439126e-40
5.3307867 -4.1968632 -0.78107047 5.5317378e-40
5.3235126 -4.1806297 -0.79152745 1.8439126e-40
5.6954088 -4.2619677 -0.73788327 2.7658689e-40
5.6814871 -4.2280378 -0.73088896 2.7658689e-40
5.6639481 -4.2429056 -0.73660696 3.6878252e-40
5.6444244 -4.3034096 -0.72345346 6.4536941e-40
5.6458511 -4.2788982 -0.73219061 4.6097815e-40
5.6454029 -4.2551889 -0.74312741 6.4536941e-40
5.6225538 -4.3163652 -0.72523558 4.6097815e-40
5.5922036 -4.3301525 -0.72276777 4.6097815e-40
5.5594206 -4.3296528 -0.72496784 2.7658689e-40
5.5380888 -4.3234873 -0.71920353 2.7658689e-40
5.5198193 -4.3014307 -0.73479193 2.7658689e-40
5.4676995 -4.225071 -0.7447691 5.5317378e-40
5.4493456 -4.2298574 -0.7417078 3.6878252e-40
5.4432778 -4.2081504 -0.76097161 4.6097815e-40
5.4256592 -4.2313404 -0.74726921 2.7658689e-40
5.4024992 -4.2144012 -0.7519781 3.6878252e-40
5.3844781 -4.2070217 -0.75343317 4.6097815e-40
5.3669147 -4.1879621 -0.77194721 3.6878252e-40
5.3499603 -4.1884241 -0.75735003 1.8439126e-40
5.3436661 -4.1739531 -0.77773982 2.7658689e-40
5.3271809 -4.1945801 -0.76586503 2.7658689e-40
5.3188519 -4.1759911 -0.76329577 2.7658689e-40
5.2965322 -4.1693974 -0.75758845 2.7658689e-40
5.6823225 -4.2230573 -0.70641327 1.8439126e-40
5.6684813 -4.291151 -0.68520391 2.7658689e-40
5.6647048 -4.2664499 -0.70183969 3.6878252e-40
5.6682911 -4.2344074 -0.7102133 2.7658689e-40
5.6469059 -4.2976756 -0.69679463 3.6878252e-40
5.6577606 -4.2791128 -0.70298356 3.6878252e-40
5.621449 -4.3107481 -0.69558686 3.6878252e-40
5.5854659 -4.3405151 -0.68429369 2.7658689e-40
5.5933428 -4.3248062 -0.69673759 2.7658689e-40
5.5595207 -4.3281465 -0.69524753 2.7658689e-40
5.5372972 -4.3194618 -0.69795382 2.7658689e-40
5.5207152 -4.3052244 -0.69870299 2.7658689e-40
5.5043178 -4.2910719 -0.69478923 3.6878252e-40
5.4838591 -4.2663431 -0.70560062 2.7658689e-40
5.458919 -4.2664967 -0.70387042 2.7658689e-40
5.4458079 -4.2560225 -0.72720808 3.6878252e-40
5.4355936 -4.2695208 -0.69592369 3.6878252e-40
5.4366832 -4.2560844 -0.71840549 2.7658689e-40
5.4132957 -4.2363977 -0.7163052 1.8439126e-40
5.4014235 -4.2269588 -0.71976912 3.6878252e-40
5.3817229 -4.2096496 -0.72605616 2.7658689e-40
5.3563633 -4.2050495 -0.72616243 1.8439126e-40
5.3431025 -4.1872597 -0.74457747 2.7658689e-40
5.3167043 -4.1894603 -0.72937196 1.8439126e-40
5.6839056 -4.2489662 -0.66031402 3.6878252e-40
5.6911988 -4.223237 -0.67634177 1.8439126e-40
5.6670618 -4.2884197 -0.66990411 2.7658689e-40
5.6732836 -4.2624607 -0.67004502 3.6878252e-40
5.6749444 -4.2374229 -0.68236697 3.6878252e-40
5.6466126 -4.2921076 -0.66820413 3.6878252e-40
5.6203442 -4.3051319 -0.66593814 3.6878252e-40
5.5933762 -4.3364849 -0.67171675 4.6097815e-40
5.5913029 -4.3181477 -0.66085798 2.7658689e-40
5.5741329 -4.3382072 -0.66123605 2.7658689e-40
5.557714 -4.3255844 -0.66507912 2.7658689e-40
5.5331774 -4.3170395 -0.66745836 2.7658689e-40
5.5110431 -4.3012309 -0.6687389 1.8439126e-40
5.4905958 -4.2895312 -0.67324221 2.7658689e-40
5.4826665 -4.2752404 -0.68236697 2.7658689e-40
5.4630537 -4.2935348 -0.66605991 3.6878252e-40
5.4609814 -4.2795057 -0.68236697 2.7658689e-40
5.4317994 -4.2718248 -0.67395288 2.7658689e-40
5.4135437 -4.2545729 -0.6875965 1.8439126e-40
5.399857 -4.2546673 -0.67439264 2.7658689e-40
5.3827457 -4.2318468 -0.69429219 1.8439126e-40
5.3645687 -4.2280579 -0.68851876 1.8439126e-40
5.3482943 -4.2140903 -0.69621819 1.8439126e-40
5.3280945 -4.1998329 -0.69852144 1.8439126e-40
5.3093233 -4.1840296 -0.6943996 2.7658689e-40
5.2980118 -4.1867032 -0.69668037 2.7658689e-40
5.2999344 -4.1698937 -0.71339786 1.8439126e-40
5.6832633 -4.2457008 -0.64307642 4.6097815e-40
5.6910691 -4.215868 -0.65172023 2.7658689e-40
5.6981215 -4.1916733 -0.65238625 1.8439126e-40
5.6660647 -4.2820687 -0.6366331 5.5317378e-40
5.674777 -4.2639737 -0.64305544 1.0141519e-39
5.6463032 -4.298131 -0.6352067 5.5317378e-40
5.6217275 -4.3522005 -0.62167442 2.7658689e-40
5.6245837 -4.330514 -0.63300437 3.6878252e-40
5.6268129 -4.3056259 -0.63271707 3.6878252e-40
5.5937767 -4.3395739 -0.63027143 2.7658689e-40
5.5664406 -4.3388138 -0.63402402 2.7658689e-40
5.5298405 -4.3187275 -0.63483107 2.7658689e-40
5.4983673 -4.3204613 -0.63342875 3.6878252e-40
5.493454 -4.3021636 -0.6558972 2.7658689e-40
5.4732599 -4.3190947 -0.6320796 2.7658689e-40
5.4608932 -4.3060408 -0.6430555 2.7658689e-40
5.437633 -4.2931643 -0.638767 2.7658689e-40
5.4229479 -4.2763977 -0.65097469 4.6097815e-40
5.4033909 -4.2672539 -0.65221715 2.7658689e-40
5.3812799 -4.2531242 -0.64798492 2.7658689e-40
5.3821158 -4.2396898 -0.67022169 2.7658689e-40
5.3601551 -4.2309265 -0.66070282 1.8439126e-40
5.3271561 -4.2047815 -0.66576415 2.7658689e-40
5.2947979 -4.1823988 -0.6715914 2.7658689e-40
5.6897726 -4.2472305 -0.6151557 6.4536941e-40
5.6971478 -4.2168036 -0.61970168 2.7658689e-40
5.6659746 -4.3073568 -0.59625542 3.6878252e-40
5.6720657 -4.2806587 -0.60732859 3.6878252e-40
5.6800771 -4.2570353 -0.61309141 3.6878252e-40
5.64955 -4.3163505 -0.59587228 3.6878252e-40
5.6485763 -4.2974696 -0.61301851 3.6878252e-40
5.6261621 -4.3456287 -0.59270668 2.7658689e-40
5.6274953 -4.3272629 -0.60620695 4.6097815e-40
5.5969729 -4.3511372 -0.59152424 2.7658689e-40
5.5946794 -4.3390613 -0.6069904 2.7658689e-40
5.5691218 -4.3555441 -0.58608544 2.7658689e-40
5.5624433 -4.3407655 -0.60603678 2.7658689e-40
5.5376306 -4.361412 -0.58443016 2.7658689e-40
5.5357599 -4.3420215 -0.60270482 3.6878252e-40
5.508584 -4.3420172 -0.59530133 2.7658689e-40
5.4973431 -4.3267994 -0.61090797 3.6878252e-40
5.4706464 -4.3192859 -0.60632747 3.6878252e-40
5.4492416 -4.3032784 -0.61737204 4.6097815e-40
5.4308953 -4.2955184 -0.61586303 2.7658689e-40
5.3991895 -4.2770629 -0.62100202 1.8439126e-40
5.3773642 -4.2710953 -0.61583054 2.7658689e-40
5.3629212 -4.2526932 -0.62744564 1.8439126e-40
5.3450332 -4.2382627 -0.62590259 3.6878252e-40
5.326757 -4.2272825 -0.62779355 1.8439126e-40
5.3081336 -4.1939554 -0.6487003 3.6878252e-40
5.2895594 -4.1798382 -0.65334493 2.7658689e-40
5.6888633 -4.2332363 -0.58533043 3.6878252e-40
5.6960444 -4.2149115 -0.58905637 2.7658689e-40
5.6651936 -4.3033857 -0.5752939 3.6878252e-40
5.6736212 -4.2758317 -0.57732141 3.6878252e-40
5.6791201 -4.2521696 -0.58740795 3.6878252e-40
5.6434269 -4.346818 -0.55974162 3.6878252e-40
5.6506181 -4.3185434 -0.57302213 2.7658689e-40
5.6256266 -4.3505116 -0.56634879 2.7658689e-40
5.5922432 -4.3764763 -0.55204839 3.6878252e-40
5.5983105 -4.3573046 -0.56512552 2.7658689e-40
5.5679722 -4.3618517 -0.56634873 2.7658689e-40
5.5402179 -4.3704524 -0.56390405 3.6878252e-40
5.5077486 -4.3713422 -0.56282449 3.6878252e-40
5.4973836 -4.3454552 -0.5817973 2.7658689e-40
5.4829836 -4.376009 -0.56178993 2.7658689e-40
5.4696217 -4.347898 -0.57964748 6.4536941e-40
5.4648409 -4.3286233 -0.58769178 2.7658689e-40
5.4539967 -4.3729758 -0.55960065 2.7658689e-40
5.4415016 -4.3523293 -0.57405776 3.6878252e-40
5.4340973 -4.3241253 -0.59036726 1.8439126e-40
5.4296737 -4.3629093 -0.56325501 2.7658689e-40
5.4095316 -4.3370099 -0.57502836 2.7658689e-40
5.3974295 -4.2934394 -0.59998238 1.8439126e-40
5.3794937 -4.3245735 -0.56620532 2.7658689e-40
5.3621273 -4.2650495 -0.59976929 3.6878252e-40
5.3355145 -4.2366462 -0.60817492 1.8439126e-40
5.6915011 -4.2368326 -0.55349004 3.6878252e-40
5.6962576 -4.1951051 -0.56547868 2.7658689e-40
5.6763544 -4.3010683 -0.54170239 3.6878252e-40
5.6822753 -4.2686911 -0.55109251 5.5317378e-40
5.648572 -4.3361955 -0.53903759 2.7658689e-40
5.6535926 -4.3143601 -0.54034597 2.7658689e-40
5.6161127 -4.3685684 -0.53571874 3.6878252e-40
5.6256814 -4.3510056 -0.53515553 3.6878252e-40
5.5971251 -4.372571 -0.53707957 3.6878252e-40
5.5999756 -4.3552532 -0.53104615 3.6878252e-40
5.5779347 -4.3755417 -0.53299713 3.6878252e-40
5.5653992 -4.3625927 -0.53378576 3.6878252e-40
5.542223 -4.3806915 -0.52347153 7.3756504e-40
5.5400724 -4.3680749 -0.53632969 3.6878252e-40
5.5065885 -4.3744297 -0.53515553 2.7658689e-40
5.4885845 -4.3923659 -0.5291869 2.7658689e-40
5.4755611 -4.3808789 -0.53691673 2.7658689e-40
5.4504337 -4.3801842 -0.53640687 2.7658689e-40
5.4282589 -4.3731523 -0.53477114 1.8439126e-40
5.4086418 -4.3530231 -0.55133617 2.7658689e-40
5.3954611 -4.3323021 -0.53703827 2.7658689e-40
5.3771582 -4.3248606 -0.54844904 2.7658689e-40
5.3612957 -4.3079414 -0.55316335 2.7658689e-40
5.3423672 -4.298625 -0.55441964 2.7658689e-40
5.7387371 -4.2093506 -0.51379436 1.8439126e-40
5.7304449 -4.212677 -0.52241313 1.8439126e-40
5.7137146 -4.1993942 -0.52786195 2.7658689e-40
5.6920352 -4.2539034 -0.51945591 3.6878252e-40
5.696722 -4.2287188 -0.52333832 6.4536941e-40
5.6994438 -4.195116 -0.5366931 4.6097815e-40
5.6743503 -4.3030553 -0.51494515 2.7658689e-40
5.6787324 -4.263525 -0.5166927 7.3756504e-40
5.6485295 -4.3293896 -0.50722075 3.6878252e-40
5.6527081 -4.3098621 -0.51660395 2.7658689e-40
5.6246095 -4.3455563 -0.50638956 3.6878252e-40
5.6023526 -4.3632417 -0.49489474 2.7658689e-40
5.5959244 -4.3515215 -0.50803334 3.6878252e-40
5.5671163 -4.356864 -0.50638956 2.7658689e-40
5.5393462 -4.3768387 -0.50101835 2.7658689e-40
5.5414882 -4.3621073 -0.50741696 3.6878252e-40
5.5105929 -4.3857284 -0.49635392 2.7658689e-40
5.5070896 -4.3697486 -0.51186883 2.7658689e-40
5.4824133 -4.389986 -0.50271982 2.7658689e-40
5.4480247 -4.3745241 -0.50874895 1.8439126e-40
5.4273334 -4.3684483 -0.50994164 2.7658689e-40
5.4073167 -4.3462849 -0.51576924 1.8439126e-40
5.3777518 -4.3157177 -0.51945591 1.8439126e-40
5.3598604 -4.300643 -0.51463819 2.7658689e-40
5.3465633 -4.289537 -0.5293082 2.7658689e-40
5.3273768 -4.2758932 -0.53046596 2.7658689e-40
5.3117723 -4.2662849 -0.53329659 3.6878252e-40
5.2981744 -4.2486839 -0.54235417 3.6878252e-40
5.758563 -4.2332921 -0.48120636 1.8439126e-40
5.7451568 -4.2146077 -0.49628764 1.8439126e-40
5.7160921 -4.2416453 -0.48120636 1.751717e-39
5.7222052 -4.2209697 -0.4949351 2.7658689e-40
5.6978993 -4.2463384 -0.48687297 4.6097815e-40
5.6957865 -4.2314835 -0.49894273 3.6878252e-40
5.6692195 -4.2927461 -0.4856852 2.7658689e-40
5.6761169 -4.2564983 -0.48859906 4.6097815e-40
5.6469245 -4.3528686 -0.48672992 3.6878252e-40
5.6447358 -4.3245621 -0.4811967 3.6878252e-40
5.6545029 -4.3025017 -0.48099083 3.6878252e-40
5.6288524 -4.3557806 -0.483464 2.7658689e-40
5.6244702 -4.3386526 -0.47116593 5.5317378e-40
5.5954051 -4.3629236 -0.47497389 3.6878252e-40
5.6053762 -4.343194 -0.47515795 4.6097815e-40
5.5690928 -4.3697567 -0.47365963 3.6878252e-40
5.5368328 -4.3997726 -0.4620772 2.7658689e-40
5.5436397 -4.3806114 -0.47525007 2.7658689e-40
5.5151472 -4.4039617 -0.46169338 3.6878252e-40
5.508018 -4.3932161 -0.47908604 2.7658689e-40
5.4934673 -4.4071684 -0.4563199 3.6878252e-40
5.4793787 -4.3936605 -0.47487262 3.6878252e-40
5.4588046 -4.3874588 -0.47448272 3.6878252e-40
5.4401073 -4.3761845 -0.47762361 2.7658689e-40
5.4211988 -4.3634663 -0.47849092 1.8439126e-40
5.4026356 -4.3401775 -0.49983254 3.6878252e-40
5.3936315 -4.3386488 -0.48306334 2.7658689e-40
5.376564 -4.317656 -0.48592052 2.7658689e-40
5.3593817 -4.2982101 -0.50179642 2.7658689e-40
5.3439698 -4.2911587 -0.49275571 2.7658689e-40
5.3242378 -4.2713861 -0.50442582 2.7658689e-40
5.7522669 -4.231185 -0.46420658 1.8439126e-40
5.7434158 -4.2176232 -0.47611299 1.8439126e-40
5.7191601 -4.2680235 -0.44952494 3.6878252e-40
5.7280498 -4.2389464 -0.46068636 4.6097815e-40
5.726305 -4.2209888 -0.47611299 2.7658689e-40
5.7107811 -4.2696714 -0.44952494 3.6878252e-40
5.6966181 -4.2494249 -0.46376449 3.6878252e-40
5.6681294 -4.2872043 -0.45643368 3.6878252e-40
5.6752629 -4.2579918 -0.46318009 3.6878252e-40
5.6393609 -4.3246131 -0.44846174 2.7658689e-40
5.648777 -4.2986689 -0.45579091 2.7658689e-40
5.6288567 -4.3471842 -0.43978232 3.6878252e-40
5.6198301 -4.3357143 -0.45159724 4.6097815e-40
5.5911751 -4.3591108 -0.44162679 3.6878252e-40
5.5979791 -4.340282 -0.45296705 2.7658689e-40
5.5650601 -4.3883286 -0.43213895 4.6097815e-40
5.5709853 -4.3694553 -0.44588935 2.7658689e-40
5.5400701 -4.3946862 -0.43946645 2.7658689e-40
5.5516725 -4.378624 -0.4485606 3.6878252e-40
5.5130038 -4.4001541 -0.4401992 3.6878252e-40
5.4937325 -4.4042611 -0.44181132 2.7658689e-40
5.4732399 -4.3890867 -0.44179851 2.7658689e-40
5.4556241 -4.3820591 -0.4438647 2.7658689e-40
5.4390354 -4.3707352 -0.44885764 2.7658689e-40
5.4211164 -4.3586783 -0.45407525 2.7658689e-40
5.4089885 -4.3456674 -0.45495787 2.7658689e-40
5.3930068 -4.3354721 -0.46629414 2.7658689e-40
5.3695374 -4.3105531 -0.46088672 2.7658689e-40
5.3409557 -4.2897663 -0.46860135 2.7658689e-40
5.3234296 -4.2672749 -0.48272565 2.7658689e-40
5.7497506 -4.2659812 -0.4169758 2.7658689e-40
5.7460208 -4.2434182 -0.43573129 5.5317378e-40
5.7391253 -4.2910695 -0.41428515 3.6878252e-40
5.7327719 -4.2713356 -0.4347474 4.6097815e-40
5.738945 -4.2376294 -0.44144017 2.7658689e-40
5.7152591 -4.2926826 -0.41269273 3.6878252e-40
5.7033405 -4.2768135 -0.42892966 2.7658689e-40
5.6872797 -4.2566328 -0.44417354 3.6878252e-40
5.6690688 -4.2779303 -0.42606583 3.6878252e-40
5.6722202 -4.255064 -0.43802637 2.7658689e-40
5.6440344 -4.3381739 -0.40916431 5.5317378e-40
5.6424699 -4.3123221 -0.4209913 5.5317378e-40
5.6512952 -4.2929096 -0.42904061 3.6878252e-40
5.6223316 -4.3711171 -0.40191278 4.6097815e-40
5.6278291 -4.3493242 -0.4179846 3.6878252e-40
5.5974226 -4.3774042 -0.4089655 3.6878252e-40
5.6023169 -4.3610058 -0.42195502 3.6878252e-40
5.5723639 -4.3829279 -0.41198811 3.6878252e-40
5.5376225 -4.3899765 -0.41308725 3.6878252e-40
5.5427527 -4.3725276 -0.40866497 3.6878252e-40
5.5150862 -4.3947878 -0.41501072 3.6878252e-40
5.5027499 -4.381114 -0.41231644 4.6097815e-40
5.4835353 -4.399209 -0.40594295 3.6878252e-40
5.4793873 -4.3848972 -0.41639808 3.6878252e-40
5.4534802 -4.3851414 -0.41635871 2.7658689e-40
5.4326415 -4.3671408 -0.42420107 2.7658689e-40
5.4146285 -4.358079 -0.42043114 1.8439126e-40
5.3719497 -4.3116546 -0.4367424 1.8439126e-40
5.3441257 -4.2845736 -0.43834612 2.7658689e-40
5.3218126 -4.2590532 -0.43932536 3.6878252e-40
5.304306 -4.2548413 -0.44526154 2.7658689e-40
5.7670937 -4.3177013 -0.37273818 5.5317378e-40
5.7608676 -4.2872725 -0.38858873 2.7658689e-40
5.7573748 -4.2631373 -0.40354878 2.7658689e-40
5.7619505 -4.235301 -0.41040456 1.8439126e-40
5.7387061 -4.3188891 -0.38117298 4.6097815e-40
5.7446909 -4.2920771 -0.3968364 3.6878252e-40
5.7165222 -4.3237729 -0.38073894 4.6097815e-40
5.7032313 -4.3031774 -0.39773911 4.6097815e-40
5.6754818 -4.2984362 -0.38810989 5.5317378e-40
5.6678696 -4.284368 -0.40219772 3.6878252e-40
5.6473837 -4.3602419 -0.37168661 1.1063476e-39
5.6461678 -4.3399715 -0.38350683 6.4536941e-40
5.6484728 -4.3066998 -0.38904148 1.2907388e-39
5.6275468 -4.3657298 -0.37974688 7.3756504e-40
5.6414061 -4.3495317 -0.39040768 3.6878252e-40
5.5993547 -4.3712749 -0.37974688 6.4536941e-40
5.5711627 -4.3768196 -0.37974688 6.4536941e-40
5.5423493 -4.382751 -0.38109025 1.1985432e-39
5.5274286 -4.3695545 -0.37823614 6.4536941e-40
5.5157342 -4.3885145 -0.38377708 5.5317378e-40
5.5048747 -4.3727417 -0.37927771 7.3756504e-40
5.4802933 -4.3954849 -0.38377708 4.6097815e-40
5.4788761 -4.3796358 -0.38094091 6.4536941e-40
5.4540672 -4.3982639 -0.37168661 3.6878252e-40
5.4513259 -4.3851604 -0.38148192 3.6878252e-40
5.4269009 -4.3760605 -0.3846699 2.7658689e-40
5.4170432 -4.3637395 -0.39132568 2.7658689e-40
5.3820243 -4.3238831 -0.39642251 2.7658689e-40
5.3606758 -4.3000975 -0.40191048 1.8439126e-40
5.3301039 -4.2757969 -0.40927067 1.8439126e-40
5.3125267 -4.2711315 -0.40174988 2.7658689e-40
5.3033752 -4.2524338 -0.41715071 2.7658689e-40
5.7641382 -4.3060732 -0.35684499 9.219563e-40
5.7666302 -4.2868958 -0.35023141 5.5317378e-40
5.7462296 -4.3629093 -0.33106697 1.3829344e-39
5.7423706 -4.3417673 -0.34812409 9.219563e-40
5.7473578 -4.3196921 -0.35697287 5.5317378e-40
5.7205572 -4.3409328 -0.34669966 8.2976067e-40
5.7112246 -4.329812 -0.35997882 7.3756504e-40
5.6917944 -4.3249874 -0.35296449 7.3756504e-40
5.6690407 -4.30159 -0.36112285 1.0141519e-39
5.6466327 -4.3564243 -0.35153583 6.4536941e-40
5.6487455 -4.33778 -0.35648423 6.4536941e-40
5.6529388 -4.3106718 -0.35742292 1.0141519e-39
5.6260085 -4.3613234 -0.35013425 6.4536941e-40
5.6003699 -4.3721476 -0.34542975 6.4536941e-40
5.5701113 -4.3714752 -0.35153577 1.1063476e-39
5.5402784 -4.3771839 -0.35072973 7.3756504e-40
5.5086555 -4.3833642 -0.35052824 6.4536941e-40
5.5159111 -4.3680935 -0.35930261 6.4536941e-40
5.4770727 -4.3731003 -0.35413191 7.3756504e-40
5.4585857 -4.3928814 -0.34884906 3.6878252e-40
5.4505386 -4.3800864 -0.35490736 5.5317378e-40
5.4244761 -4.3709145 -0.35609308 3.6878252e-40
5.4095049 -4.3579445 -0.35434085 3.6878252e-40
5.3810349 -4.3188524 -0.36987129 3.6878252e-40
5.3618579 -4.3024893 -0.37304303 2.7658689e-40
5.3464098 -4.2909393 -0.36220777 2.7658689e-40
5.3290739 -4.2732048 -0.38059649 2.7658689e-40
5.3072567 -4.2670794 -0.37589347 2.7658689e-40
5.2935257 -4.2526608 -0.37856495 2.7658689e-40
5.765954 -4.3250256 -0.3112343 6.4536941e-40
5.767581 -4.3070192 -0.32733515 6.4536941e-40
5.7446585 -4.3654318 -0.31277496 7.3756504e-40
5.7520351 -4.3363528 -0.32131726 7.3756504e-40
5.752965 -4.3172112 -0.33766434 6.4536941e-40
5.7278409 -4.3728299 -0.307715 7.3756504e-40
5.7155128 -4.3455029 -0.32795265 7.3756504e-40
5.6931353 -4.3440742 -0.31679255 9.219563e-40
5.6804185 -4.3251739 -0.33023292 7.3756504e-40
5.6677642 -4.3047233 -0.34201255 8.2976067e-40
5.6455812 -4.3510799 -0.32332474 6.4536941e-40
5.6527023 -4.324739 -0.32269809 1.5673257e-39
5.6528578 -4.3070083 -0.33872503 9.219563e-40
5.6291666 -4.3607473 -0.32158276 7.3756504e-40
5.5995579 -4.3734775 -0.3172963 1.3829344e-39
5.5700278 -4.3765445 -0.32182604 1.0141519e-39
5.5368409 -4.372468 -0.32332468 7.3756504e-40
5.5126762 -4.3772202 -0.32332471 6.4536941e-40
5.4970822 -4.3651438 -0.3254928 8.2976067e-40
5.4711094 -4.3856597 -0.32466814 5.5317378e-40
5.4769373 -4.3680401 -0.32679018 7.3756504e-40
5.4544287 -4.3894691 -0.32735491 4.6097815e-40
5.4466863 -4.3744173 -0.32224709 4.6097815e-40
5.4225588 -4.3692055 -0.32702932 3.6878252e-40
5.40448 -4.3540812 -0.32968429 3.6878252e-40
5.387157 -4.3388925 -0.31958207 3.6878252e-40
5.3696451 -4.317358 -0.33506623 2.7658689e-40
5.345881 -4.2957692 -0.34402284 2.7658689e-40
5.3282928 -4.2756863 -0.35625684 2.7658689e-40
5.3039465 -4.2662325 -0.34952319 2.7658689e-40
5.7656755 -4.3263149 -0.28796697 5.5317378e-40
5.7626204 -4.2947674 -0.30710426 3.6878252e-40
5.7471218 -4.379138 -0.27200887 6.4536941e-40
5.748435 -4.3618097 -0.2874012 7.3756504e-40
5.7557564 -4.3315058 -0.29176971 6.4536941e-40
5.7392683 -4.3806829 -0.27200887 2.489282e-39
5.7234569 -4.3728914 -0.2851842 9.219563e-40
5.7001066 -4.3635273 -0.28810555 1.0141519e-39
5.679482 -4.3413754 -0.29312211 1.1063476e-39
5.6443801 -4.3449721 -0.29108351 7.3756504e-40
5.6514745 -4.3224864 -0.29380077 8.2976067e-40
5.617837 -4.3818998 -0.29924369 1.6595213e-39
5.6281958 -4.3570147 -0.28995121 6.4536941e-40
5.597683 -4.3681722 -0.28846076 1.9361082e-39
5.570498 -4.3736768 -0.28926176 7.3756504e-40
5.539062 -4.3727779 -0.29019785 6.4536941e-40
5.5138016 -4.3701792 -0.28866541 7.3756504e-40
5.4953585 -4.3594384 -0.29477414 5.5317378e-40
5.4756002 -4.3629823 -0.29303539 7.3756504e-40
5.450613 -4.3807039 -0.27899304 4.6097815e-40
5.4478517 -4.3674283 -0.29317093 4.6097815e-40
5.4191523 -4.3661213 -0.29359385 4.6097815e-40
5.4034081 -4.3486309 -0.30091831 3.6878252e-40
5.3951945 -4.3502464 -0.30091831 2.7658689e-40
5.3673797 -4.3192883 -0.30568564 2.7658689e-40
5.3376322 -4.2910089 -0.31158888 2.7658689e-40
5.3052902 -4.2645364 -0.31880143 2.7658689e-40
5.283155 -4.2582526 -0.30694306 2.7658689e-40
5.2758594 -4.2427902 -0.32868144 2.7658689e-40
5.7648625 -4.3292565 -0.25779441 7.3756504e-40
5.7463894 -4.3754158 -0.25236252 1.1063476e-39
5.7530742 -4.3549075 -0.25293365 6.4536941e-40
5.7537045 -4.3329144 -0.26523218 5.5317378e-40
5.7314391 -4.378202 -0.25157666 1.0141519e-39
5.7135277 -4.3689413 -0.25518429 1.3829344e-39
5.6988974 -4.3710408 -0.25123161 1.1985432e-39
5.6767592 -4.3420024 -0.25912252 1.5673257e-39
5.6554112 -4.3372512 -0.26287243 7.3756504e-40
5.650445 -4.3196535 -0.26606697 8.2976067e-40
5.6248593 -4.3516407 -0.2600154 7.3756504e-40
5.6338153 -4.3252115 -0.25922552 7.3756504e-40
5.5962563 -4.3771429 -0.25349775 6.4536941e-40
5.6000128 -4.3616982 -0.25788978 7.3756504e-40
5.5727072 -4.3810353 -0.24974082 5.5317378e-40
5.5695724 -4.3689728 -0.26443118 8.2976067e-40
5.5443563 -4.3861766 -0.24753086 7.3756504e-40
5.5400538 -4.3738852 -0.25989226 8.2976067e-40
5.5085373 -4.3686662 -0.26094645 1.1063476e-39
5.4901366 -4.3689647 -0.25884226 5.5317378e-40
5.4722686 -4.3582773 -0.26579428 6.4536941e-40
5.446578 -4.3616652 -0.264047 5.5317378e-40
5.4141564 -4.3596935 -0.2666032 4.6097815e-40
5.3771896 -4.3318958 -0.27406132 2.7658689e-40
5.3603802 -4.3183451 -0.26752049 2.7658689e-40
5.3474655 -4.3074718 -0.27847919 2.7658689e-40
5.3297806 -4.2953835 -0.28377083 1.8439126e-40
5.3094773 -4.2825928 -0.28287539 2.7658689e-40
5.3002343 -4.2685699 -0.29204819 2.7658689e-40
5.2922783 -4.2848606 -0.27720878 2.7658689e-40
5.2827702 -4.26091 -0.29193243 2.7658689e-40
5.771698 -4.3517962 -0.22619793 5.5317378e-40
5.7606645 -4.3260293 -0.23719764 7.3756504e-40
5.7483301 -4.3686943 -0.22014253 8.2976067e-40
5.755764 -4.3542233 -0.22260459 5.5317378e-40
5.7272263 -4.3727789 -0.21980573 9.219563e-40
5.7086449 -4.3649755 -0.23015061 9.219563e-40
5.6965003 -4.3658085 -0.22224525 7.3756504e-40
5.672317 -4.3418293 -0.2291878 6.4536941e-40
5.652225 -4.3362861 -0.23016684 7.3756504e-40
5.6482782 -4.3202376 -0.24840638 7.3756504e-40
5.615169 -4.3683348 -0.22764131 8.2976067e-40
5.6263947 -4.3441925 -0.23221599 9.219563e-40
5.6361151 -4.3226299 -0.24840638 5.5317378e-40
5.5986047 -4.3775797 -0.22524302 7.3756504e-40
5.592422 -4.3583317 -0.23319271 8.2976067e-40
5.5720816 -4.3801308 -0.22437757 9.219563e-40
5.5443215 -4.3832703 -0.2234956 8.2976067e-40
5.5383921 -4.3689585 -0.23319271 1.1063476e-39
5.5068874 -4.3699083 -0.23338094 6.4536941e-40
5.4804621 -4.3661814 -0.23502763 7.3756504e-40
5.4451032 -4.3578033 -0.23623487 5.5317378e-40
5.4154577 -4.3612614 -0.23648384 3.6878252e-40
5.3777633 -4.3316207 -0.23947939 4.6097815e-40
5.3597593 -4.3151884 -0.25085938 2.7658689e-40
5.3415632 -4.3077798 -0.24777009 2.7658689e-40
5.3263392 -4.2927375 -0.26688632 1.8439126e-40
5.3176966 -4.3065624 -0.2441023 2.7658689e-40
5.3079534 -4.2903433 -0.25509697 2.7658689e-40
5.2919612 -4.2832499 -0.26870888 2.7658689e-40
5.77143 -4.3396025 -0.19350208 5.5317378e-40
5.7439008 -4.3627615 -0.18556498 6.4536941e-40
5.7513709 -4.3484144 -0.195408 7.3756504e-40
5.7234735 -4.3725557 -0.1888546 7.3756504e-40
5.6963725 -4.3771744 -0.18914701 9.219563e-40
5.6784568 -4.3619013 -0.20281745 7.3756504e-40
5.6732216 -4.3766632 -0.18556498 1.0141519e-39
5.6578093 -4.3579931 -0.19660705 1.5673257e-39
5.6502757 -4.3424869 -0.21049811 7.3756504e-40
5.6250372 -4.3603735 -0.19704203 9.219563e-40
5.6300373 -4.3466778 -0.21156608 9.219563e-40
5.5946894 -4.3921089 -0.18556498 6.4536941e-40
5.6007977 -4.376492 -0.19792286 9.219563e-40
5.5916758 -4.354538 -0.21316805 5.5317378e-40
5.5843163 -4.3946648 -0.18818448 2.3970864e-39
5.5705748 -4.3827314 -0.2008411 6.4536941e-40
5.5391455 -4.3805094 -0.19875203 8.2976067e-40
5.5185781 -4.3810711 -0.19581804 6.4536941e-40
5.5016084 -4.3700461 -0.20195422 8.2976067e-40
5.4732699 -4.3622637 -0.20121261 5.5317378e-40
5.4419117 -4.3662376 -0.19677782 4.6097815e-40
5.4442463 -4.3534479 -0.21324416 7.3756504e-40
5.4218941 -4.3708086 -0.20000197 4.6097815e-40
5.407454 -4.3590879 -0.2051298 4.6097815e-40
5.3919544 -4.3491945 -0.213209 3.6878252e-40
5.3711576 -4.329843 -0.21540192 3.6878252e-40
5.3549652 -4.3237267 -0.21033226 2.7658689e-40
5.3450046 -4.313446 -0.22725616 1.8439126e-40
5.3193169 -4.3029861 -0.21963772 2.7658689e-40
5.2994571 -4.2897186 -0.22467509 1.8439126e-40
5.8078094 -4.3815575 -0.15154743 5.5317378e-40
5.7879324 -4.3839874 -0.15164685 6.4536941e-40
5.7816615 -4.3582783 -0.17098349 7.3756504e-40
5.7699304 -4.3428106 -0.17876567 5.5317378e-40
5.7579837 -4.3824801 -0.15215211 6.4536941e-40
5.7515922 -4.3650103 -0.16775629 8.2976067e-40
5.7620306 -4.3443642 -0.17876567 2.0283039e-39
5.7228088 -4.3878717 -0.14439446 9.219563e-40
5.7225037 -4.3757939 -0.16223854 6.4536941e-40
5.6918955 -4.3944607 -0.14698036 9.219563e-40
5.6921501 -4.3800726 -0.16273428 1.2907388e-39
5.6633673 -4.3781509 -0.16313462 9.219563e-40
5.6553802 -4.3653402 -0.17876567 8.2976067e-40
5.6348209 -4.378417 -0.15609547 1.1063476e-39
5.6285915 -4.3665037 -0.17266954 6.4536941e-40
5.6042504 -4.3871708 -0.16387157 1.0141519e-39
5.6057839 -4.3739285 -0.17283666 9.219563e-40
5.5753837 -4.3917089 -0.16423465 7.3756504e-40
5.5645299 -4.3832092 -0.17876567 6.4536941e-40
5.5479031 -4.3961563 -0.15936989 7.3756504e-40
5.54179 -4.3867927 -0.17424832 5.5317378e-40
5.5138564 -4.3777857 -0.16385342 6.4536941e-40
5.4973917 -4.3655167 -0.17472069 8.2976067e-40
5.477972 -4.3682327 -0.16911376 6.4536941e-40
5.4458261 -4.3651896 -0.1726412 7.3756504e-40
5.4177713 -4.3668613 -0.17582104 4.6097815e-40
5.4022155 -4.3538647 -0.17334856 4.6097815e-40
5.3797569 -4.3446317 -0.17782816 3.6878252e-40
5.3664207 -4.3340731 -0.18996382 2.7658689e-40
5.3525882 -4.328146 -0.17977768 2.7658689e-40
5.3321457 -4.3066864 -0.1800497 5.5317378e-40
5.3212514 -4.2951388 -0.18960243 3.6878252e-40
5.3011684 -4.2835684 -0.19512728 2.7658689e-40
5.2804585 -4.2696233 -0.18795982 2.7658689e-40
5.8067598 -4.3820276 -0.13002869 7.3756504e-40
5.8015389 -4.3929996 -0.11199491 6.4536941e-40
5.7872386 -4.3798466 -0.1268654 6.4536941e-40
5.7632489 -4.3770833 -0.12998739 1.0141519e-39
5.7436929 -4.366601 -0.13101855 5.5317378e-40
5.7169662 -4.3854594 -0.12629332 7.3756504e-40
5.7225189 -4.3702078 -0.13433751 5.5317378e-40
5.6955652 -4.3912892 -0.12881431 9.219563e-40
5.6896067 -4.3800554 -0.14533338 1.1063476e-39
5.6608109 -4.3810229 -0.13377355 8.2976067e-40
5.6317511 -4.3828497 -0.13401313 9.219563e-40
5.6045017 -4.3932452 -0.13257289 9.219563e-40
5.5744286 -4.3924227 -0.13525879 6.4536941e-40
5.5460901 -4.3936253 -0.13238439 6.4536941e-40
5.5317516 -4.3834338 -0.14714418 6.4536941e-40
5.5126581 -4.3791132 -0.13564153 6.4536941e-40
5.4932346 -4.3612905 -0.14908911 5.5317378e-40
5.4923553 -4.3737044 -0.13217148 8.2976067e-40
5.4746833 -4.3635883 -0.14222348 9.219563e-40
5.442266 -4.3588881 -0.14501415 5.5317378e-40
5.4168262 -4.3608389 -0.14427063 4.6097815e-40
5.4005127 -4.3494892 -0.14941119 5.5317378e-40
5.375309 -4.3420081 -0.14662483 4.6097815e-40
5.3450117 -4.3244476 -0.15340824 2.7658689e-40
5.3096995 -4.2954378 -0.15696669 2.7658689e-40
5.2974124 -4.2793226 -0.16980049 2.7658689e-40
5.2844 -4.2736902 -0.17036583 2.7658689e-40
5.8012533 -4.3915472 -0.10433093 6.4536941e-40
5.7822042 -4.3760052 -0.10916627 5.5317378e-40
5.7728534 -4.3541565 -0.096923254 6.4536941e-40
5.7654862 -4.3728628 -0.11077801 7.3756504e-40
5.7482495 -4.3596573 -0.10028674 6.4536941e-40
5.7213635 -4.3805237 -0.10560627 1.1985432e-39
5.7182918 -4.3613577 -0.10170702 9.219563e-40
5.6916461 -4.3863688 -0.10560627 7.3756504e-40
5.6882248 -4.3648748 -0.099629626 8.2976067e-40
5.6644239 -4.3898907 -0.096297085 1.1063476e-39
5.6625772 -4.3786111 -0.1109778 1.4751301e-39
5.6277566 -4.3958817 -0.09009096 6.4536941e-40
5.6325645 -4.3832378 -0.10449103 8.2976067e-40
5.6103859 -4.3996801 -0.092030384 8.2976067e-40
5.6016464 -4.3895454 -0.10564227 7.3756504e-40
5.5854073 -4.4057369 -0.097848609 6.4536941e-40
5.5729876 -4.3949261 -0.10434091 5.5317378e-40
5.5444794 -4.3938503 -0.1026893 6.4536941e-40
5.5207896 -4.3896337 -0.099121138 5.5317378e-40
5.5086274 -4.3805933 -0.10959368 1.1985432e-39
5.491466 -4.3691826 -0.10830405 1.0141519e-39
5.4718809 -4.358398 -0.11304471 6.4536941e-40
5.4441266 -4.3566628 -0.11341012 5.5317378e-40
5.4128675 -4.3568144 -0.11370353 4.6097815e-40
5.3902235 -4.3592739 -0.10972646 4.6097815e-40
5.3761487 -4.3458166 -0.1248593 3.6878252e-40
5.3555145 -4.3362789 -0.11114897 2.7658689e-40
5.3416243 -4.3240128 -0.126111 4.6097815e-40
5.3177238 -4.3134623 -0.12094606 3.6878252e-40
5.3110657 -4.3020897 -0.13562012 3.6878252e-40
5.2794385 -4.2770443 -0.14025262 2.7658689e-40
5.7687726 -4.3423004 -0.076903082 1.0141519e-39
5.7474079 -4.3523564 -0.072891742 1.0141519e-39
5.7357121 -4.3715954 -0.074575663 8.2976067e-40
5.7188983 -4.3594027 -0.069654971 1.0141519e-39
5.6841617 -4.3876762 -0.070483394 3.3190427e-39
5.6921635 -4.3631144 -0.07234484 1.1063476e-39
5.669055 -4.406992 -0.050683189 8.2976067e-40
5.6641045 -4.3899479 -0.070551366 1.3829344e-39
5.6343746 -4.3931432 -0.069073886 8.2976067e-40
5.6364155 -4.3774576 -0.078964584 7.3756504e-40
5.608305 -4.3982162 -0.069654383 1.1985432e-39
5.5897436 -4.3874054 -0.082868651 9.219563e-40
5.5850844 -4.4000006 -0.068369538 7.3756504e-40
5.5685968 -4.3897719 -0.073759243 1.3829344e-39
5.5571179 -4.4051952 -0.066818006 7.3756504e-40
5.5461416 -4.3937273 -0.071416773 8.2976067e-40
5.5167699 -4.3857851 -0.075545527 8.2976067e-40
5.5028653 -4.3756332 -0.078630939 8.2976067e-40
5.4841528 -4.3666601 -0.079968356 1.0141519e-39
5.4669828 -4.3546324 -0.089015104 1.1063476e-39
5.4470024 -4.3561816 -0.081838526 1.1063476e-39
5.4137149 -4.3547029 -0.085361451 6.4536941e-40
5.3931375 -4.3543386 -0.087560639 4.6097815e-40
5.3707294 -4.3383484 -0.087641619 6.4536941e-40
5.354754 -4.3324118 -0.090736955 3.6878252e-40
5.3381057 -4.3202353 -0.091337621 2.7658689e-40
5.312355 -4.3080034 -0.087840021 2.7658689e-40
5.3029337 -4.2923298 -0.10050149 2.7658689e-40
5.7434969 -4.3379745 -0.04996359 1.0141519e-39
5.7521224 -4.3200626 -0.045362506 1.0141519e-39
5.7173085 -4.3483176 -0.043381002 8.2976067e-40
5.6815777 -4.3787389 -0.039623909 1.8439126e-39
5.6889105 -4.3596601 -0.040988877 1.1985432e-39
5.6660647 -4.3899274 -0.038690723 1.1063476e-39
5.6352992 -4.3932285 -0.040061377 1.1063476e-39
5.6049767 -4.3955746 -0.040046602 1.1063476e-39
5.5755992 -4.3998423 -0.038492862 7.3756504e-40
5.5561061 -4.4000516 -0.039666247 9.219563e-40
5.5374255 -4.389245 -0.039924182 7.3756504e-40
5.512815 -4.3847699 -0.047969844 1.0141519e-39
5.4751616 -4.3642673 -0.048564591 7.3756504e-40
5.4572926 -4.36338 -0.044657461 7.3756504e-40
5.4366021 -4.3476143 -0.055800073 8.2976067e-40
5.4101348 -4.3450484 -0.057334412 1.1985432e-39
5.3898473 -4.3482456 -0.053304229 6.4536941e-40
5.3737316 -4.337512 -0.061776083 4.6097815e-40
5.3514309 -4.3322649 -0.05897326 5.5317378e-40
5.3158746 -4.3124719 -0.068027489 2.7658689e-40
5.7613111 -4.3268633 -0.020535769 2.5814776e-39
5.7456045 -4.3299527 -0.020535769 7.3756504e-40
5.7426209 -4.3166037 -0.018286619 1.2907388e-39
5.7167506 -4.336112 -0.017719677 1.2907388e-39
5.7240973 -4.3183804 -0.0088001462 9.219563e-40
5.6818557 -4.3759499 -0.0085861748 1.3829344e-39
5.6902332 -4.3459606 -0.01488767 9.219563e-40
5.6673417 -4.3982806 -0.0046994085 9.219563e-40
5.665493 -4.3840141 -0.0094740195 1.1985432e-39
5.6337633 -4.3884077 -0.0078263786 1.0141519e-39
5.6042042 -4.3860598 -0.010400405 8.2976067e-40
5.5949283 -4.3725576 -0.012595854 7.3756504e-40
5.5750041 -4.3921146 -0.012504235 1.1063476e-39
5.5403085 -4.3833003 -0.012595854 1.0141519e-39
5.5146799 -4.3764119 -0.016590048 9.219563e-40
5.4952912 -4.3649378 -0.016705481 8.2976067e-40
5.4819736 -4.3637471 -0.018444397 6.4536941e-40
5.4422474 -4.3438311 -0.024168285 7.3756504e-40
5.4089332 -4.3389406 -0.025093187 9.219563e-40
5.3847275 -4.3434849 -0.023994023 5.5317378e-40
5.3768792 -4.3321028 -0.037433024 1.8439126e-39
5.3480177 -4.3274117 -0.033976156 4.6097815e-40
5.3163538 -4.3051839 -0.035308428 2.7658689e-40
5.2932591 -4.2848277 -0.030099811 2.7658689e-40
5.2849054 -4.2725897 -0.038679667 2.7658689e-40
5.7367172 -4.3079605 0.0093830675 9.219563e-40
5.7122002 -4.3297749 0.013755984 9.219563e-40
5.723361 -4.3146362 0.01096331 9.219563e-40
5.6798906 -4.368762 0.018478841 7.3756504e-40
5.6884384 -4.3415127 0.014783145 9.219563e-40
5.6667705 -4.3953772 0.010628499 6.4536941e-40
5.6605258 -4.3716111 0.019199369 1.0141519e-39
5.6307325 -4.3831463 0.020635935 1.0141519e-39
5.6016426 -4.3800826 0.016299644 1.0141519e-39
5.5885625 -4.3676639 0.01863648 8.2976067e-40
5.5812163 -4.3844271 0.014637248 7.3756504e-40
5.5697212 -4.372138 0.014732416 8.2976067e-40
5.5414219 -4.3740649 0.014762492 1.1063476e-39
5.5165439 -4.3680468 0.014827613 1.0141519e-39
5.4997625 -4.3537617 0.01100345 5.5317378e-40
5.4793653 -4.3496456 0.0030774705 9.219563e-40
5.4694767 -4.3334947 0.015914161 9.219563e-40
5.4429193 -4.3395443 0.0071013914 1.0141519e-39
5.4078822 -4.3335958 0.0031179432 7.3756504e-40
5.3837547 -4.3385391 0.0021103974 5.5317378e-40
5.3750648 -4.3228798 0.011253123 1.9361082e-39
5.3502874 -4.3210645 -0.0009125378 5.5317378e-40
5.3180766 -4.2994356 -0.0078161741 2.7658689e-40
5.2964902 -4.2792749 -0.0051081628 3.6878252e-40
5.2576108 -4.2431746 -0.030711694 1.8439126e-40
5.7435551 -4.3195314 0.034473933 9.219563e-40
5.7324257 -4.3085752 0.032703083 2.3970864e-39
5.706809 -4.3262434 0.037093457 7.3756504e-40
5.7138052 -4.3092489 0.041176789 9.219563e-40
5.6773987 -4.3616939 0.034031358 8.2976067e-40
5.6843634 -4.329627 0.042332508 8.2976067e-40
5.6580176 -4.3655057 0.034031358 1.1985432e-39
5.6589828 -4.3479748 0.048307281 8.2976067e-40
5.6305952 -4.3693724 0.04178901 9.219563e-40
5.6314902 -4.3524165 0.053215202 9.219563e-40
5.605092 -4.3736944 0.045315214 9.219563e-40
5.5886993 -4.3614912 0.049868841 1.1985432e-39
5.5693378 -4.3660674 0.045964777 9.219563e-40
5.5410204 -4.3652668 0.041415829 9.219563e-40
5.5158119 -4.3643246 0.034473933 1.1063476e-39
5.5042138 -4.3460445 0.042699333 7.3756504e-40
5.4860315 -4.3415508 0.037552636 5.5317378e-40
5.4680319 -4.329771 0.036282137 9.219563e-40
5.4361095 -4.3241272 0.035330698 7.3756504e-40
5.4077263 -4.3285508 0.028910929 8.2976067e-40
5.3941278 -4.3127432 0.043710593 6.4536941e-40
5.3829665 -4.3345308 0.02326862 4.6097815e-40
5.3743391 -4.31919 0.030727588 8.2976067e-40
5.347826 -4.3115492 0.022209488 3.6878252e-40
5.3361988 -4.2960815 0.033314958 5.5317378e-40
5.3151526 -4.2968788 0.018648343 2.7658689e-40
5.700223 -4.3054218 0.062454 8.2976067e-40
5.7015953 -4.2793298 0.059167456 9.219563e-40
5.6809592 -4.3255167 0.066622518 9.219563e-40
5.6839681 -4.306283 0.074324675 7.3756504e-40
5.6527586 -4.3321877 0.07146094 9.219563e-40
5.6253405 -4.3410511 0.072811581 1.0141519e-39
5.5964799 -4.348599 0.073527202 9.219563e-40
5.5650635 -4.3511362 0.074425563 8.2976067e-40
5.5396829 -4.3529801 0.068265684 7.3756504e-40
5.5233564 -4.3407507 0.078159012 8.2976067e-40
5.5068822 -4.3321009 0.064735062 6.4536941e-40
5.4883189 -4.3193865 0.06877929 7.3756504e-40
5.465219 -4.3181734 0.064466156 8.2976067e-40
5.4338217 -4.3165989 0.063570268 6.4536941e-40
5.4138346 -4.3213224 0.059540056 6.4536941e-40
5.3975773 -4.3088713 0.059939329 5.5317378e-40
5.370214 -4.3008981 0.053961512 5.5317378e-40
5.35992 -4.2865644 0.05797153 5.5317378e-40
5.3350635 -4.2841892 0.052685983 5.5317378e-40
5.3158455 -4.282074 0.040445738 6.4536941e-40
5.3046603 -4.2622833 0.05329201 4.6097815e-40
5.6651154 -4.3105359 0.090017043 9.219563e-40
5.6511936 -4.3268728 0.089483693 1.5673257e-39
5.6475582 -4.313056 0.094760276 1.0141519e-39
5.6315603 -4.3307343 0.089483693 8.2976067e-40
5.6177764 -4.3163671 0.095391482 1.3829344e-39
5.61976 -4.2859688 0.10722667 8.2976067e-40
5.5922942 -4.3384571 0.089483693 9.219563e-40
5.590292 -4.3183932 0.097181238 1.0141519e-39
5.5877419 -4.2922659 0.10722667 2.1204995e-39
5.5687346 -4.343091 0.089483693 1.1063476e-39
5.5599132 -4.3182592 0.096841216 8.2976067e-40
5.5557241 -4.298563 0.10722667 1.0141519e-39
5.5451751 -4.3477249 0.089483693 8.2976067e-40
5.5328317 -4.3271408 0.093543984 7.3756504e-40
5.5253673 -4.3048496 0.10562464 8.2976067e-40
5.5082026 -4.3283186 0.082635619 1.1985432e-39
5.4979534 -4.3100843 0.095873199 6.4536941e-40
5.4664326 -4.305162 0.089094661 7.3756504e-40
5.4568825 -4.2892237 0.1005111 6.4536941e-40
