# .PCD v0.7 - Point Cloud Data file format
VERSION 0.7
FIELDS x y z rgb
SIZE 4 4 4 4
TYPE F F F F
COUNT 1 1 1 1
WIDTH 1009
HEIGHT 1
VIEWPOINT 0 0 0 1 0 0 0
POINTS 1009
DATA ascii
3.1116076 -0.88333553 -1.1656858 6.7248846e-39
3.1392736 -0.88268501 -1.1858284 6.3586118e-39
3.1115773 -0.85297787 -1.1656858 6.6330547e-39
3.1384315 -0.84896928 -1.188785 6.6330561e-39
3.1115589 -0.83476317 -1.1656858 7.3684715e-39
3.1400239 -0.82444662 -1.1828718 6.9096514e-39
3.140805 -0.7968595 -1.1799152 7.1833432e-39
3.1684389 -0.79521072 -1.2001711 7.0000099e-39
3.1399689 -0.76927412 -1.1828718 8.0077061e-39
3.0242572 -0.98832947 -1.1329241 8.941572e-39
3.0571909 -0.99754423 -1.1262573 9.4972793e-39
3.0263171 -0.97259158 -1.1253349 9.124852e-39
3.0571671 -0.97372037 -1.1262573 8.8486253e-39
3.0269322 -0.9396441 -1.1229631 8.6624417e-39
3.0241864 -0.91751844 -1.1329241 8.3858521e-39
3.0559278 -0.91267288 -1.130566 7.9259431e-39
3.0878751 -0.89883822 -1.1312134 7.4620951e-39
3.0539415 -0.89034009 -1.1377473 7.5553627e-39
3.1164243 -0.89547384 -1.1481162 7.1880235e-39
3.1465473 -0.87961257 -1.1592191 6.2657113e-39
3.1147742 -0.84690303 -1.1539727 7.2805863e-39
3.148134 -0.84895957 -1.1533061 7.3713428e-39
3.1147621 -0.83475995 -1.1539727 7.4631671e-39
3.1464922 -0.82444012 -1.1592193 7.1869417e-39
3.1464615 -0.79378873 -1.1592191 7.0018274e-39
3.1469724 -0.76518029 -1.1572483 7.8276308e-39
3.0367095 -0.98831701 -1.0873886 1.1993045e-38
3.0619042 -0.99753952 -1.1090223 1.1993394e-38
3.0634515 -0.97371405 -1.1032772 9.3081643e-39
3.0335433 -0.93521184 -1.0987725 8.4780617e-39
3.0649927 -0.94393265 -1.0975322 8.4773344e-39
3.0630798 -0.91653723 -1.1044261 7.8330356e-39
3.0948586 -0.90364146 -1.1056939 7.3709644e-39
3.0973735 -0.88079011 -1.0964141 7.8319524e-39
3.1228306 -0.8954674 -1.1246902 7.277701e-39
3.1530156 -0.87960625 -1.1355666 7.0025631e-39
3.0973556 -0.86275154 -1.0964141 8.2943711e-39
3.127599 -0.85903341 -1.1071206 7.7401365e-39
3.1546021 -0.84895307 -1.1296535 7.8326783e-39
3.1545775 -0.82443196 -1.1296535 7.4646202e-39
3.1264668 -0.79427111 -1.111025 7.5571774e-39
3.1534646 -0.78969496 -1.1335955 7.1873033e-39
3.1529055 -0.76926118 -1.1355666 7.0032553e-39
3.1863723 -0.77043688 -1.1345034 8.1956945e-39
3.219198 -0.77172333 -1.1395746 9.2980567e-39
3.072902 -0.99752849 -1.0688071 1.1991956e-38
3.011457 -0.97909456 -1.0659674 1.1807935e-38
3.0713069 -0.97370625 -1.0745522 8.9400978e-39
3.0712771 -0.94392639 -1.0745522 8.2021783e-39
3.1037722 -0.93489933 -1.0732145 7.6504324e-39
3.1340783 -0.9318856 -1.0836946 7.2795017e-39
3.0691605 -0.92208999 -1.0822122 7.6486458e-39
3.1005821 -0.91686404 -1.0848143 7.2795059e-39
3.1329904 -0.91164809 -1.0875989 6.6359189e-39
3.1021318 -0.88078541 -1.0790144 7.1858459e-39
3.0727589 -0.85458535 -1.0688071 9.2260482e-39
3.1021018 -0.85072124 -1.0790144 7.647208e-39
3.1323915 -0.84688538 -1.0895511 7.9259571e-39
3.1610641 -0.84281641 -1.1060009 7.9255732e-39
3.1339688 -0.82259756 -1.0836946 7.8319454e-39
3.1621263 -0.82646793 -1.1020588 7.4649748e-39
3.1318052 -0.79426575 -1.0915033 7.5564487e-39
3.1631634 -0.78559834 -1.0981168 7.5575179e-39
3.1951892 -0.77166587 -1.1022666 7.0951104e-39
3.2224951 -0.77172005 -1.1275183 7.4613482e-39
3.077615 -0.99752378 -1.0515721 1.1805054e-38
3.1122992 -1.0030364 -1.0422819 1.088056e-38
3.0788479 -0.97369868 -1.046976 9.2148883e-39
3.1117387 -0.97096848 -1.0442152 8.7546262e-39
3.0775614 -0.94392008 -1.0515721 8.3862038e-39
3.1101286 -0.94691879 -1.0500151 8.109963e-39
3.1396959 -0.94402307 -1.0631968 7.466753e-39
3.1719387 -0.93680304 -1.0665798 7.4638663e-39
3.1716456 -0.91330403 -1.0675653 6.911417e-39
3.1084702 -0.87476623 -1.0558149 1.1981797e-38
3.140444 -0.89140213 -1.0602685 8.5619364e-39
3.0806143 -0.85457748 -1.0400821 1.2739932e-38
3.1092451 -0.85672688 -1.052915 1.0145114e-38
3.1412034 -0.84991235 -1.0573403 8.3844115e-39
3.1131804 -0.82665879 -1.0384153 8.0170709e-39
3.1399734 -0.82107377 -1.0617326 7.9255914e-39
3.1403461 -0.79344773 -1.0602685 7.4649734e-39
3.1707084 -0.78456903 -1.070522 7.3705959e-39
3.1723104 -0.76924175 -1.0646088 7.0018288e-39
3.2032316 -0.76010501 -1.0728155 7.923418e-39
3.1501789 -1.0168713 -1.0251294 1.1809713e-38
3.1165271 -1.0010279 -1.0268155 1.0417415e-38
3.1501608 -0.99865669 -1.0251294 8.5695174e-39
3.0838637 -0.96178174 -1.028592 8.8471721e-39
3.117558 -0.97497118 -1.0229489 8.3869184e-39
3.1485288 -0.96830046 -1.030986 7.7412015e-39
3.1196451 -0.94690925 -1.0152158 7.0050714e-39
3.1485105 -0.95008582 -1.030986 7.0958237e-39
3.1786242 -0.9384312 -1.0421388 6.6348245e-39
3.1794567 -0.90818757 -1.0389851 5.8065366e-39
3.2077501 -0.92514032 -1.0568961 6.541194e-39
3.1484315 -0.87115556 -1.030986 1.1538835e-38
3.178901 -0.89184082 -1.0409561 9.2036961e-39
3.1179507 -0.83867961 -1.0210156 7.8337601e-39
3.1484194 -0.85901254 -1.030986 7.9227187e-39
3.1174059 -0.82264596 -1.0229489 8.2010979e-39
3.1483769 -0.81651157 -1.030986 7.6489975e-39
3.1804445 -0.81827587 -1.035043 7.4664097e-39
3.1467574 -0.79829854 -1.0368425 7.646499e-39
3.1791239 -0.79130399 -1.0397736 7.3727679e-39
3.1793137 -0.76514792 -1.0389851 6.9103408e-39
3.207583 -0.75803769 -1.0568961 8.2910977e-39
3.180371 -0.74471265 -1.035043 9.1125865e-39
3.1581867 -1.0168633 -0.99584681 1.2360379e-38
3.1228774 -1.0070344 -1.003616 1.1069295e-38
3.1565671 -0.99865025 -1.0017033 7.1873327e-39
3.1559033 -0.97557896 -1.004046 6.7266642e-39
3.1903064 -0.97765326 -0.99956411 5.4373898e-39
3.1565247 -0.9561494 -1.0017033 6.1745877e-39
3.1870353 -0.94087481 -1.0113903 5.8058094e-39
3.2175393 -0.91894162 -1.0210774 5.1600896e-39
3.1548378 -0.87114918 -1.0075599 8.390503e-39
3.1869867 -0.89183271 -1.0113904 5.433057e-39
3.1269467 -0.84668785 -0.9881497 7.6486429e-39
3.1532242 -0.85900778 -1.0134163 7.8341132e-39
3.1266592 -0.82363892 -0.98911631 7.7393854e-39
3.1563869 -0.8185274 -1.0017033 7.6479115e-39
3.1852956 -0.81827104 -1.0173036 7.6490115e-39
3.15957 -0.79828572 -0.98999029 7.6482772e-39
3.1864822 -0.79221618 -1.0128686 7.8326573e-39
3.1868575 -0.76309699 -1.0113903 7.4620797e-39
3.1595092 -0.73757017 -0.98999029 7.7397119e-39
3.1852221 -0.74470782 -1.0173036 7.7336415e-39
3.1629915 -1.0168586 -0.97827727 1.3829733e-38
3.1957541 -1.0348638 -0.97985363 1.2724104e-38
3.1645687 -0.9925707 -0.97242075 7.2787842e-39
3.1951942 -1.01443 -0.98182464 8.9389992e-39
3.1645565 -0.98042768 -0.97242075 6.9103492e-39
3.1951575 -0.97764838 -0.98182464 6.7259384e-39
3.1645324 -0.95614141 -0.97242075 6.9092828e-39
3.1954443 -0.94086647 -0.98064202 6.5419297e-39
3.2241004 -0.94987994 -0.99719828 7.0032876e-39
3.196701 -0.90408349 -0.9759115 2.9517077e-39
3.2251596 -0.92099684 -0.99321842 4.6079822e-39
3.1644535 -0.87721115 -0.97242075 4.9749585e-39
3.1934547 -0.89182621 -0.98773777 4.7894602e-39
3.1057396 -0.84264052 -0.94816184 7.5582186e-39
3.1338296 -0.85670227 -0.96301681 7.0025519e-39
3.1041448 -0.81881821 -0.95390683 7.1880193e-39
3.1056919 -0.79499286 -0.94816184 6.7269865e-39
3.1334438 -0.78815627 -0.96417683 6.724872e-39
3.1643503 -0.77399468 -0.97242075 7.0940118e-39
3.194943 -0.76308888 -0.98182464 7.2787702e-39
3.1949246 -0.74469811 -0.98182464 7.5520893e-39
3.2032976 -1.0328128 -0.95225883 9.4983429e-39
3.1715171 -1.0006592 -0.94704252 6.2649714e-39
3.2032795 -1.0144219 -0.95225888 4.5193753e-39
3.1442564 -0.97394234 -0.92531759 6.1734933e-39
3.1709569 -0.97434968 -0.9489947 6.5437275e-39
3.143961 -0.94287634 -0.92628419 5.9873125e-39
3.1714606 -0.94399136 -0.94704252 6.8185025e-39
3.1999724 -0.94086194 -0.96408522 6.0809641e-39
3.1449986 -0.92283249 -0.92241764 5.5273826e-39
3.1740992 -0.9136309 -0.93728161 5.7118117e-39
3.1999476 -0.91634089 -0.96408516 6.1709989e-39
3.1449504 -0.87472975 -0.92241764 4.1448601e-39
3.1718342 -0.89056122 -0.94548076 4.7923763e-39
3.1104529 -0.84263581 -0.9309268 7.8351544e-39
3.1401801 -0.86270875 -0.93981731 5.8929855e-39
3.110429 -0.81881195 -0.9309268 6.9117912e-39
3.1103992 -0.78903216 -0.9309268 6.8177865e-39
3.1416821 -0.77852744 -0.93401742 6.7252181e-39
3.1119528 -0.77116269 -0.92518175 7.2765772e-39
3.1424601 -0.76349455 -0.93111748 6.9092534e-39
3.1723421 -0.75779587 -0.94313812 7.0021903e-39
3.201405 -0.75695223 -0.95817202 6.8188725e-39
3.2038155 -0.74162406 -0.94930232 7.0914993e-39
3.1806149 -1.0229125 -0.91385555 9.3128572e-39
3.1805906 -0.99862623 -0.91385555 7.0054133e-39
3.1497986 -0.9649176 -0.90501803 5.8979882e-39
3.1199749 -0.93792176 -0.89645666 5.0685988e-39
3.1481826 -0.93485492 -0.91081792 4.5161425e-39
3.1215339 -0.92600822 -0.89071167 5.1607805e-39
3.1494298 -0.91320747 -0.906178 4.2392025e-39
3.1821012 -0.90755135 -0.90799904 4.8823999e-39
3.1497145 -0.88073778 -0.90501803 4.4228511e-39
3.1183143 -0.84858388 -0.90220171 6.8188529e-39
3.1182845 -0.81880414 -0.90220171 7.4631629e-39
3.1182547 -0.78902429 -0.90220171 7.0018288e-39
3.1197963 -0.75924289 -0.89645666 6.633384e-39
3.1495762 -0.74244243 -0.90501803 6.1756541e-39
3.1808596 -0.73350114 -0.91190338 6.3571867e-39
3.2094657 -0.73242301 -0.92860627 6.9074766e-39
3.0989842 -1.0000565 -0.85971195 1.1442356e-38
3.1263247 -1.0034311 -0.87347662 9.5908805e-39
3.1545932 -1.0009898 -0.88761836 7.4610273e-39
3.127866 -0.97364968 -0.86773163 6.9099905e-39
3.154563 -0.97092569 -0.8876183 6.7270342e-39
3.1267869 -0.94188553 -0.87156165 5.8032786e-39
3.1262472 -0.92600352 -0.87347662 5.8040003e-39
3.1566255 -0.91881227 -0.87988514 5.8022024e-39
3.1863761 -0.91159475 -0.89238167 5.2504748e-39
3.1560588 -0.88073146 -0.88181853 4.8809636e-39
3.1261697 -0.84857601 -0.87347662 6.6312512e-39
3.1261399 -0.81879622 -0.87347662 7.4638761e-39
3.1261101 -0.78901643 -0.87347662 7.2784269e-39
3.1260805 -0.75923669 -0.87347662 6.9081786e-39
3.1260567 -0.73541278 -0.87347662 6.6316001e-39
3.1559086 -0.73041046 -0.88181853 6.9067717e-39
3.1867237 -0.72539985 -0.8904295 7.0000365e-39
3.0793185 -0.99071842 -0.81785929 1.1992305e-38
3.1052043 -0.99414939 -0.83694428 1.0326642e-38
3.131032 -0.99747038 -0.85624158 8.385122e-39
3.1072545 -0.96857673 -0.82935512 7.64828e-39
3.133101 -0.97165912 -0.84858155 7.1880053e-39
3.1082585 -0.93513715 -0.82556045 6.9103492e-39
3.1325495 -0.94386512 -0.85049659 6.3571572e-39
3.1082349 -0.91153347 -0.82556045 5.8036457e-39
3.1325197 -0.91408539 -0.85049659 5.158991e-39
3.1608353 -0.89876527 -0.86441886 4.3288478e-39
3.1082172 -0.89383072 -0.82556045 5.1604568e-39
3.135632 -0.88430238 -0.83900654 4.2391969e-39
3.1608233 -0.88673949 -0.86441886 3.3172322e-39
3.1340311 -0.8545242 -0.84475154 5.1568288e-39
3.1081347 -0.81121796 -0.82556045 7.9248403e-39
3.1330996 -0.82049102 -0.84803444 7.6486205e-39
3.1070774 -0.79154927 -0.82935512 7.6493436e-39
3.1318688 -0.78702533 -0.85241157 7.740833e-39
3.1080992 -0.77581245 -0.82556045 8.1088742e-39
3.1339359 -0.75922883 -0.84475154 6.8192214e-39
3.1642959 -0.73383796 -0.85116208 6.448627e-39
3.1931303 -0.72539341 -0.86700344 7.0000197e-39
3.2223902 -0.72014952 -0.88130105 7.0925643e-39
3.1963212 -0.71324712 -0.85529041 6.7259482e-39
3.0824027 -0.99071532 -0.80658168 1.2270677e-38
3.1151652 -0.99295926 -0.80051601 9.4010732e-39
3.0885475 -0.96732563 -0.78402638 7.4653251e-39
3.1129637 -0.97053796 -0.80848467 7.1858599e-39
3.1404228 -0.96172518 -0.8217715 7.1858109e-39
3.0885358 -0.95563388 -0.78402638 7.7418924e-39
3.1148782 -0.93955618 -0.80136973 6.9096065e-39
3.0874531 -0.90107352 -0.78778559 6.4497284e-39
3.1123881 -0.91349632 -0.81038207 6.5415555e-39
3.1144373 -0.88792348 -0.80279273 5.8058065e-39
3.1434815 -0.87833852 -0.81028146 4.606183e-39
3.1430664 -0.85600412 -0.81171769 4.2366718e-39
3.1148138 -0.81964123 -0.80116647 6.8177753e-39
3.1143429 -0.79350895 -0.80279273 7.37024e-39
3.1143193 -0.76990527 -0.80279273 7.27805e-39
3.1433566 -0.75326347 -0.81028146 7.1854844e-39
3.1433387 -0.73539549 -0.81028146 7.0943691e-39
3.1712365 -0.72638661 -0.82575291 7.0003588e-39
3.2043412 -0.72538221 -0.82600784 7.2758779e-39
3.2353268 -0.72013658 -0.83399582 7.3658945e-39
3.2011199 -0.70717078 -0.83772087 8.1052589e-39
3.2353146 -0.70787603 -0.83399582 7.9129951e-39
3.0947449 -0.99654883 -0.76147109 1.2263466e-38
3.1207762 -1.0000348 -0.78002512 1.097164e-38
3.0936916 -0.97121781 -0.7652303 6.6334106e-39
3.1207404 -0.96462923 -0.78002506 4.9785724e-39
3.0934563 -0.94159877 -0.76598215 5.6199677e-39
3.0928092 -0.91120106 -0.76823765 5.8032674e-39
3.066468 -0.88900274 -0.75453991 5.6199621e-39
3.0946279 -0.87963146 -0.76147109 5.3419417e-39
3.121696 -0.88201535 -0.77623057 5.2536851e-39
3.1497657 -0.87833226 -0.78730142 4.3292247e-39
3.122185 -0.85251039 -0.77433318 3.1310431e-39
3.1221552 -0.8230058 -0.77433312 5.6210201e-39
3.0945344 -0.78609759 -0.76147109 6.7237958e-39
3.1205692 -0.79350275 -0.78002506 6.9110639e-39
3.094517 -0.76855999 -0.76147109 7.1829592e-39
3.1217828 -0.76163656 -0.77547157 6.0812948e-39
3.1220729 -0.74039298 -0.77433318 6.3571656e-39
3.1511881 -0.72943169 -0.78155637 6.1716814e-39
3.1796939 -0.72437382 -0.79482031 6.3567845e-39
3.2107475 -0.72537583 -0.80258179 6.81922e-39
3.2385671 -0.72626364 -0.82216954 6.8166977e-39
3.1812499 -0.69430804 -0.78902042 6.8167047e-39
3.2117949 -0.7051363 -0.79867738 7.9226613e-39
3.2385488 -0.70787281 -0.82216954 7.0904231e-39
3.1828241 -0.68228072 -0.78322053 8.9202961e-39
3.0757751 -1.0280174 -0.72101498 1.3649981e-38
3.0211754 -0.9870224 -0.70822531 1.5301923e-38
3.0469549 -1.0016774 -0.72015804 1.4749503e-38
3.0696282 -0.99326754 -0.74336493 1.2083404e-38
3.0978465 -1.0140833 -0.75019342 1.4746626e-38
3.0211582 -0.9699527 -0.70822531 1.0232242e-38
3.0454118 -0.97297251 -0.72569603 8.8500602e-39
3.0696054 -0.97009683 -0.74336499 7.554641e-39
3.0211353 -0.94719309 -0.70822531 5.8936736e-39
3.0468917 -0.93852317 -0.72015804 5.5263162e-39
3.071104 -0.94113207 -0.73777741 6.2638812e-39
3.0977764 -0.94393289 -0.75019342 6.2645987e-39
3.0483775 -0.90981531 -0.71462011 5.1575322e-39
3.0710781 -0.91506511 -0.73777741 5.7124997e-39
3.097753 -0.92054951 -0.75019342 6.1720373e-39
3.046185 -0.88111097 -0.72253144 5.6188649e-39
3.0695124 -0.87741435 -0.74336493 5.3430067e-39
3.0468056 -0.852404 -0.72015804 4.513253e-39
3.0694895 -0.85424376 -0.74336499 3.7767614e-39
3.0976713 -0.83870727 -0.75019342 3.037037e-39
3.0470819 -0.82599384 -0.71905047 3.1324724e-39
3.0725048 -0.81369215 -0.73218995 3.8678724e-39
3.0976536 -0.82116967 -0.75019342 4.6990596e-39
3.0482626 -0.79498965 -0.71462011 2.7640528e-39
3.0724785 -0.78762513 -0.73218995 4.2370249e-39
3.0976245 -0.79194039 -0.75019342 5.8039863e-39
3.0739863 -0.7673493 -0.72660244 4.5139551e-39
3.0999055 -0.75978571 -0.74173522 5.7117934e-39
3.1267543 -0.75219005 -0.7572574 5.988711e-39
3.1022036 -0.74516875 -0.73327696 5.4355457e-39
3.1298497 -0.7344842 -0.74587351 5.709627e-39
3.1590376 -0.72346789 -0.75283134 5.526305e-39
3.1594064 -0.69964361 -0.75139505 5.6192377e-39
3.1860204 -0.70632899 -0.77162075 6.445411e-39
3.1558478 -0.67582333 -0.76432133 8.9202835e-39
3.2202356 -0.60393506 -0.76744264 1.3178181e-38
3.2808931 -0.60323948 -0.78825569 1.3176757e-38
3.2513623 -0.58525443 -0.77486432 1.3729893e-38
3.282501 -0.57848191 -0.78228587 1.3821752e-38
3.1688631 -1.1225078 -0.7183612 1.1243921e-38
3.1991179 -1.1151894 -0.72522175 1.0323024e-38
3.0515153 -1.0188967 -0.70354426 1.4109894e-38
3.0271845 -0.99270636 -0.68627179 6.638105e-39
3.0271618 -0.96994686 -0.68627179 3.8682564e-39
3.0271335 -0.94149715 -0.68627179 3.2246792e-39
3.052938 -0.92703462 -0.69800627 2.9513111e-39
3.0301123 -0.91873449 -0.67529505 3.4083376e-39
3.0544353 -0.90980923 -0.69246835 3.4090579e-39
3.0544064 -0.88110274 -0.69246835 3.5931044e-39
3.024029 -0.83908182 -0.69724858 3.8697291e-39
3.0549848 -0.85354412 -0.6902532 3.50092e-39
3.0300212 -0.82769603 -0.67529505 4.2344913e-39
3.0539691 -0.82225513 -0.69385284 3.6849371e-39
3.0546947 -0.79067725 -0.69108385 3.408346e-39
3.0785875 -0.78472269 -0.70983994 3.1346486e-39
3.0573206 -0.76627415 -0.68139249 2.9495105e-39
3.0806098 -0.76927358 -0.70239002 3.1331871e-39
3.1078737 -0.76075208 -0.7126013 3.2239534e-39
3.1083601 -0.73347086 -0.71072167 3.316156e-39
3.137609 -0.71087283 -0.71741402 3.6824218e-39
3.1668632 -0.69368029 -0.72410625 3.9597079e-39
3.1684165 -0.67581075 -0.7183612 4.1383581e-39
3.1986008 -0.59808511 -0.72522175 1.3544112e-38
3.2234387 -0.6039319 -0.75572962 1.2719359e-38
3.2546089 -0.59751171 -0.76303798 1.0775757e-38
3.2285419 -0.58206922 -0.73698878 1.2621434e-38
3.2556667 -0.57707638 -0.75909597 1.1685096e-38
3.1985526 -0.54998237 -0.72522175 1.1685773e-38
3.2265933 -0.5553562 -0.74401659 1.251909e-38
3.2368281 -1.1807169 -0.7088775 1.1335399e-38
3.2681217 -1.1737444 -0.71573275 1.142649e-38
3.3649535 -1.1706531 -0.73694128 9.4835144e-39
3.2335947 -1.1503625 -0.72059053 1.1152427e-38
3.2664802 -1.1492249 -0.72164595 1.031976e-38
3.2994082 -1.1602305 -0.722588 1.0033502e-38
3.0346889 -0.99269885 -0.65882987 5.4438792e-39
3.0346663 -0.96993929 -0.65882987 3.5931268e-39
3.0346379 -0.9414897 -0.65882987 3.4083516e-39
3.0346093 -0.9130401 -0.65882987 3.4090677e-39
3.0353343 -0.88743472 -0.65608567 3.2253953e-39
3.0604701 -0.88683802 -0.67031658 3.4097922e-39
3.034847 -0.85045087 -0.65773219 3.4097922e-39
3.0604413 -0.85813171 -0.67031658 3.8678963e-39
3.0345182 -0.82200164 -0.65882987 3.5005431e-39
3.0634243 -0.8121984 -0.65924072 3.5020186e-39
3.0330005 -0.80493343 -0.66431826 3.317263e-39
3.061887 -0.78923482 -0.66477865 3.1314214e-39
3.0618641 -0.76626962 -0.66477865 2.8562526e-39
3.087117 -0.75690931 -0.67854995 3.0395621e-39
3.1191781 -0.75684357 -0.67124993 3.8657565e-39
3.1160705 -0.73346311 -0.6825276 3.0395691e-39
3.1453917 -0.71086502 -0.68895435 3.3158029e-39
3.1747186 -0.69367236 -0.69538122 3.6827749e-39
3.1778429 -0.67580134 -0.68389118 3.4994753e-39
3.2034433 -0.68226016 -0.70782208 3.5909576e-39
3.2049451 -0.59807879 -0.70202219 1.1149946e-38
3.2643235 -0.60976255 -0.72755909 1.2809791e-38
3.2049332 -0.58605313 -0.70202219 9.5519958e-39
3.2343028 -0.57720613 -0.71590531 1.2527069e-38
3.2017248 -0.54997921 -0.71362197 1.1507903e-38
3.2362027 -0.55534661 -0.7088775 1.1232042e-38
3.2086945 -1.1753083 -0.69042248 1.1336467e-38
3.3682835 -1.1706498 -0.72476453 9.0214698e-39
3.1830444 -1.1641853 -0.66665608 1.169951e-38
3.2127509 -1.1529709 -0.67550856 8.9275016e-39
3.2400069 -1.1564275 -0.69716448 1.1234532e-38
3.2767177 -1.1451279 -0.684196 8.2853776e-39
3.3026733 -1.1602272 -0.71064842 9.9452338e-39
3.3382795 -1.159076 -0.70554471 8.5572729e-39
3.0406926 -0.99269283 -0.63687634 6.7335362e-39
3.017679 -0.97244787 -0.61480927 3.8650558e-39
3.0415692 -0.96879441 -0.63358331 3.5012717e-39
3.0421424 -0.94148213 -0.63138795 3.3165175e-39
3.0696084 -0.93850052 -0.63708895 3.4094166e-39
3.0421128 -0.91189456 -0.63138795 3.0428103e-39
3.0695741 -0.90405279 -0.63708895 2.6750998e-39
3.0432839 -0.88230592 -0.62699723 3.5001871e-39
3.0665281 -0.88683194 -0.64816487 3.49945e-39
3.0416777 -0.85186642 -0.63276005 3.5931044e-39
3.0725455 -0.84663695 -0.6260131 3.7749902e-39
3.0405219 -0.82199568 -0.63687634 3.6860063e-39
3.0715129 -0.82367289 -0.62970507 4.0526532e-39
3.0434983 -0.79638809 -0.62589955 4.0551616e-39
3.0676444 -0.79152554 -0.64373451 3.7778558e-39
3.0434728 -0.77078348 -0.62589961 4.4217959e-39
3.0701907 -0.76339066 -0.63432002 3.409439e-39
3.0962825 -0.75458318 -0.64502501 3.1321221e-39
3.1237807 -0.73345548 -0.65433341 3.3168552e-39
3.1531746 -0.71085721 -0.6604948 3.3168819e-39
3.182574 -0.69366455 -0.66665608 3.6834854e-39
3.180985 -0.67579824 -0.67240113 3.6842028e-39
3.2145457 -0.68224901 -0.66722292 3.0402614e-39
3.1824846 -0.60432506 -0.66665608 1.3730277e-38
3.1824608 -0.58050126 -0.66665608 1.0309724e-38
3.2080991 -0.58003712 -0.69042248 1.0306815e-38
3.239418 -0.56748652 -0.69716448 1.3164168e-38
3.1545601 -0.53972912 -0.65480286 1.2706746e-38
3.182431 -0.55072153 -0.66665608 1.3259235e-38
3.2096612 -0.55598414 -0.68462259 1.3075931e-38
3.1349843 -1.1426555 -0.61486173 1.2708585e-38
3.1614001 -1.1534181 -0.6320352 1.2711098e-38
3.1904356 -1.1488627 -0.6395725 9.6683106e-39
3.2197611 -1.1392202 -0.64982331 7.5387924e-39
3.1940062 -1.1284386 -0.626441 7.6295671e-39
3.219743 -1.1211817 -0.64982331 8.288253e-39
3.2181387 -1.1031448 -0.6556232 7.7275403e-39
2.9950974 -0.97321486 -0.59503138 6.8153202e-39
3.0236266 -0.97056246 -0.59305394 3.3136631e-39
3.051924 -0.96707702 -0.5957135 3.0420971e-39
3.0511479 -0.94147313 -0.59845769 2.9495259e-39
3.0786839 -0.92700887 -0.60386133 3.1357038e-39
3.0481231 -0.91871649 -0.60943449 3.3168791e-39
3.077152 -0.90978646 -0.60939926 3.5012815e-39
3.0480833 -0.87888718 -0.60943449 3.6853099e-39
3.0786438 -0.88681984 -0.60386133 3.5941792e-39
3.0504611 -0.85498714 -0.60065305 3.6856728e-39
3.0770888 -0.84663242 -0.60939926 4.0533469e-39
3.0767653 -0.82596415 -0.61050689 4.0533595e-39
3.0504994 -0.79353607 -0.60028714 4.1452104e-39
3.0494764 -0.77077746 -0.60394609 4.2388312e-39
3.0770028 -0.76051319 -0.60939932 4.2381207e-39
3.1045291 -0.74994075 -0.61485255 4.0529966e-39
3.1060398 -0.73256129 -0.60926503 3.3150728e-39
3.1306083 -0.73177838 -0.62936157 3.3150672e-39
3.1345515 -0.71006119 -0.61486173 3.221801e-39
3.1605608 -0.70347369 -0.63345814 3.7753447e-39
3.1904235 -0.68770069 -0.63793105 3.6849385e-39
3.2507505 -0.68890643 -0.65616882 2.6726013e-39
3.1919112 -0.60431564 -0.632186 1.3821773e-38
3.2176456 -0.61009175 -0.6556232 1.3271825e-38
3.1903162 -0.58049339 -0.63793105 1.1693363e-38
3.1576731 -0.53972602 -0.64341909 1.2613474e-38
3.1892412 -0.55269998 -0.64176106 1.3259221e-38
3.1691711 -1.1416085 -0.60357559 1.3629805e-38
3.1987314 -1.1403458 -0.60920596 1.1054468e-38
3.2308638 -1.1392092 -0.60922414 8.4650591e-39
3.0849369 -1.1222063 -0.58170956 1.2801851e-38
3.1125515 -1.1322486 -0.58691502 1.307808e-38
3.1442249 -1.1309545 -0.58102876 1.3719854e-38
3.1971486 -1.1284354 -0.61495095 8.6490874e-39
3.2268834 -1.124181 -0.6237238 7.822212e-39
3.0310707 -0.978073 -0.56585985 3.6795309e-39
3.0586808 -0.96991527 -0.57101578 3.0410237e-39
3.0586524 -0.94146562 -0.57101572 3.2246694e-39
3.0832272 -0.92700428 -0.58724749 3.594147e-39
3.0601246 -0.91301459 -0.56552738 3.6845644e-39
3.08321 -0.90978038 -0.58724749 3.7764139e-39
3.060102 -0.89025497 -0.56552738 3.777144e-39
3.0843155 -0.87963754 -0.58309406 3.593459e-39
3.0852716 -0.85121727 -0.57949442 3.776774e-39
3.0850184 -0.82509464 -0.58032507 4.0537154e-39
3.0846038 -0.78921199 -0.58170956 3.7789404e-39
3.0845752 -0.76050562 -0.58170956 3.9618813e-39
3.1091132 -0.74993616 -0.59809005 4.2366816e-39
3.0865731 -0.73945218 -0.57432562 4.1444677e-39
3.1115394 -0.73139721 -0.58915001 3.8700472e-39
3.1422734 -0.72174519 -0.5866676 3.7746216e-39
3.1090784 -0.71518022 -0.59809005 3.5891472e-39
3.1376357 -0.71005809 -0.60358405 3.4058391e-39
3.1687343 -0.70494074 -0.60357559 3.1324808e-39
3.1988065 -0.69166297 -0.60729092 3.4058279e-39
3.1998382 -0.67577934 -0.60346091 5.4211683e-39
3.2256484 -0.68223792 -0.62662375 4.5067875e-39
3.1701965 -0.61052459 -0.5978837 1.3820331e-38
3.1981955 -0.60430938 -0.60920596 1.3913605e-38
3.1978595 -0.58286828 -0.6103549 1.1604035e-38
3.2302985 -0.57400203 -0.60922414 1.1416024e-38
3.1965768 -0.55666333 -0.61495095 1.1600795e-38
3.2239423 -0.56198275 -0.63242364 1.3169183e-38
3.176954 -1.1416006 -0.57511604 1.0867898e-38
3.2065868 -1.1403379 -0.58048087 9.8569982e-39
3.1201916 -1.132241 -0.5589776 1.1059155e-38
3.150393 -1.1309483 -0.55847347 1.0310423e-38
3.1779761 -1.1258638 -0.57132149 9.5771814e-39
3.205004 -1.1284276 -0.58622587 8.6494657e-39
3.0385017 -0.97242707 -0.53866571 2.8558953e-39
3.0631778 -0.96422076 -0.55455059 3.2235806e-39
3.0399723 -0.95550996 -0.53322691 3.3157776e-39
3.0661569 -0.94145811 -0.54357386 3.1328535e-39
3.0661283 -0.91300857 -0.54357386 3.1339368e-39
3.0399048 -0.88784766 -0.53322691 3.0424446e-39
3.0656679 -0.88130808 -0.54514199 3.4101397e-39
3.0937707 -0.86958086 -0.54848194 3.5948967e-39
3.0937536 -0.85235709 -0.54848194 3.5938191e-39
3.093725 -0.82365066 -0.54848194 3.6860161e-39
3.0936904 -0.78920299 -0.54848194 3.6860315e-39
3.0644739 -0.75938261 -0.54906225 3.7764111e-39
3.0944164 -0.7576251 -0.54571295 3.7767656e-39
3.0936329 -0.73179024 -0.54848194 3.6870769e-39
3.0966392 -0.70882201 -0.53740609 3.5034269e-39
3.1197746 -0.71516955 -0.5589776 3.1346374e-39
3.1484299 -0.7100473 -0.56411231 3.4069223e-39
3.176069 -0.70156151 -0.57674223 3.682419e-39
3.2045634 -0.68768656 -0.58622587 3.1339213e-39
3.1796067 -0.68132621 -0.56373221 3.3154511e-39
3.1780031 -0.63412035 -0.56942409 1.3361493e-38
3.1764226 -0.61051834 -0.57511598 1.2069695e-38
3.2054055 -0.58762544 -0.58277881 1.0494799e-38
3.2366428 -0.57399571 -0.58602458 1.0678836e-38
3.1284266 -1.1160132 -0.52880514 9.5757506e-39
3.1544857 -1.1114581 -0.54343665 8.2882362e-39
3.130847 -1.0916816 -0.5198651 8.0112724e-39
3.1580622 -1.0900196 -0.53027934 7.2719179e-39
3.1862462 -1.094384 -0.54096454 6.9971527e-39
3.0489302 -0.98933232 -0.50059396 7.852459e-39
3.0752306 -1.009728 -0.51064354 1.4659841e-38
3.017699 -0.96946621 -0.51236874 2.3934696e-39
3.0480199 -0.97128987 -0.50385725 2.7636983e-39
3.0474091 -0.95550257 -0.50603276 2.8565988e-39
3.0736616 -0.94145066 -0.51613194 2.9491643e-39
3.073633 -0.91300106 -0.51613194 3.1332165e-39
3.0736046 -0.88455153 -0.51613194 3.2264841e-39
3.1028576 -0.86957175 -0.51525432 3.6874482e-39
3.0730739 -0.85420591 -0.51796144 3.3183112e-39
3.1013203 -0.84660822 -0.52079225 3.1350256e-39
3.0750372 -0.81627119 -0.51064354 4.2337921e-39
3.100543 -0.82651448 -0.52356124 3.7746342e-39
3.0750144 -0.79351157 -0.51064354 3.5005585e-39
3.1007581 -0.78919584 -0.52263826 3.5952582e-39
3.0729828 -0.76316738 -0.51796138 3.5009242e-39
3.1012285 -0.75474769 -0.52079225 3.5941792e-39
3.0749574 -0.73661256 -0.51064354 3.5959645e-39
3.1009002 -0.72948647 -0.52189982 3.5948967e-39
3.1011825 -0.70881748 -0.52079225 3.7778754e-39
3.1289308 -0.70357507 -0.52545261 4.1423223e-39
3.1561344 -0.70419371 -0.53591824 3.7778474e-39
3.184294 -0.69902432 -0.54665649 3.8664585e-39
3.2124188 -0.68767869 -0.55750084 4.049768e-39
3.185833 -0.68132001 -0.54096454 4.6886788e-39
3.1011078 -0.63418078 -0.52079225 1.3360788e-38
3.1303895 -0.63406157 -0.5198651 1.3452973e-38
3.1529744 -0.62820053 -0.54719585 1.3544089e-38
3.1826847 -0.64591753 -0.55234838 1.3176048e-38
3.1293554 -0.61861545 -0.52359021 1.1054823e-38
3.1560409 -0.61065978 -0.53591818 1.0776438e-38
3.1836791 -0.60264325 -0.54855382 1.0034899e-38
3.1591074 -0.59311908 -0.52464056 1.0864672e-38
3.1857386 -0.58690536 -0.54096454 1.049696e-38
3.2123234 -0.59238327 -0.55750084 1.086358e-38
3.1361146 -1.1206396 -0.50070792 1.0501304e-38
3.112174 -1.099214 -0.4820267 1.0405513e-38
3.1369588 -1.0916755 -0.49751505 9.1158361e-39
3.1626828 -1.084169 -0.51336288 8.0026516e-39
3.1893473 -1.082579 -0.52958071 7.6515422e-39
3.138464 -1.0685033 -0.49192762 7.6342334e-39
3.1626711 -1.0724773 -0.51336288 8.1020751e-39
3.1106021 -1.0418028 -0.48756459 1.2627898e-38
3.0533922 -0.98932785 -0.48427743 7.5722918e-39
3.0842359 -1.0097189 -0.47771326 1.4383253e-38
3.0304837 -0.97690547 -0.46564642 5.537521e-39
3.0543652 -0.9705317 -0.48065159 2.7636899e-39
3.0551343 -0.94647324 -0.47775087 3.0409984e-39
3.0801616 -0.93765086 -0.49234891 2.8573176e-39
3.0811374 -0.91299355 -0.48869002 3.4079985e-39
3.081109 -0.88454401 -0.48869002 3.3175825e-39
3.081075 -0.85040456 -0.48868999 3.5005501e-39
3.0810444 -0.82005847 -0.48869002 3.0399236e-39
3.1096296 -0.82650536 -0.49033359 3.1314116e-39
3.0806413 -0.79208338 -0.49006209 3.3158099e-39
3.0814159 -0.76261705 -0.48712191 3.3168945e-39
3.1072862 -0.75474161 -0.49864051 3.2247017e-39
3.0839572 -0.73091364 -0.47771326 4.2362934e-39
3.1079106 -0.7301355 -0.49626708 3.5938009e-39
3.1087546 -0.70880985 -0.49310255 3.5931198e-39
3.1365712 -0.70356745 -0.49751517 3.8671788e-39
3.1638386 -0.69834018 -0.50772405 4.234148e-39
3.1889579 -0.69311875 -0.52958071 2.9527657e-39
3.1395864 -0.66301578 -0.48634014 9.0210915e-39
3.1641262 -0.67729467 -0.50659633 5.8021576e-39
3.188946 -0.68131691 -0.52958071 4.7851736e-39
3.10868 -0.63417315 -0.49310255 1.1979297e-38
3.1364779 -0.61088485 -0.49751505 1.095651e-38
3.1395054 -0.58191854 -0.48634014 1.114053e-38
3.1637275 -0.58726859 -0.50772405 1.1140159e-38
3.1888516 -0.58690226 -0.52958071 1.0864305e-38
3.1689093 -1.1426215 -0.49080762 1.1337198e-38
3.1152146 -1.1106935 -0.47095081 1.1052306e-38
3.0384507 -1.0812253 -0.43689418 1.1605131e-38
3.0653815 -1.0795324 -0.44076687 1.151076e-38
3.0893147 -1.0855794 -0.45941862 1.0865768e-38
3.1151915 -1.0877284 -0.47095081 1.0312949e-38
3.0653701 -1.0682553 -0.44076687 1.1233461e-38
3.0932984 -1.066609 -0.44478294 1.0588105e-38
3.1166887 -1.0705029 -0.46541286 9.3938593e-39
3.144057 -1.0588433 -0.4714402 8.8378086e-39
3.0932529 -1.0210898 -0.44478294 1.2998435e-38
3.1181746 -1.0417953 -0.45987493 9.3794511e-39
3.0368872 -0.99180299 -0.44228524 1.4018049e-38
3.0603521 -1.0081159 -0.45889628 1.4474711e-38
3.0114036 -0.96639186 -0.43302149 4.1531446e-39
3.0353847 -0.96385962 -0.44767627 2.3941927e-39
3.0593247 -0.97240621 -0.46252215 2.6714872e-39
3.0113869 -0.94977349 -0.43302149 3.5931002e-39
3.035368 -0.94709259 -0.44767627 2.9481036e-39
3.0610838 -0.94646728 -0.45599556 3.22361e-39
3.0911682 -0.93763983 -0.45210081 3.3157973e-39
3.0901427 -0.91298455 -0.4557597 3.0413656e-39
3.0901144 -0.88453501 -0.45575973 3.5009102e-39
3.0900803 -0.85039556 -0.45575973 3.3154441e-39
3.0906532 -0.82308352 -0.45356438 2.9491896e-39
3.1149218 -0.8178882 -0.47095081 2.8580561e-39
3.0903971 -0.79207367 -0.45438766 3.131776e-39
3.0899892 -0.75935715 -0.45575973 3.3161672e-39
3.0899608 -0.73090756 -0.4557597 3.5941764e-39
3.1148241 -0.72028643 -0.47095081 3.9600723e-39
3.0911355 -0.70473284 -0.45136902 3.9600877e-39
3.1148069 -0.70306253 -0.47095081 4.1412531e-39
3.170007 -0.69833398 -0.48516878 4.4188784e-39
3.1167934 -0.67052656 -0.46356687 6.0658273e-39
3.1457157 -0.68038762 -0.46399015 4.2359515e-39
3.1699953 -0.68664223 -0.48516878 4.3299156e-39
3.089864 -0.63417917 -0.4557597 1.1242067e-38
3.1162581 -0.63990688 -0.46541286 1.1053371e-38
3.0928545 -0.62279642 -0.44478294 1.104834e-38
3.1162295 -0.61120045 -0.46541288 1.1875585e-38
3.1441069 -0.59929192 -0.46957764 1.2334766e-38
3.1146748 -0.57101309 -0.47095081 1.1417821e-38
3.1440895 -0.58191395 -0.46957764 1.1599352e-38
3.1745279 -0.59310365 -0.46825233 1.1508241e-38
3.0428736 -1.0812209 -0.42072105 1.1974615e-38
3.0713346 -1.0832855 -0.41901156 1.1973169e-38
3.0443256 -1.0588635 -0.41533005 1.1324177e-38
3.0683446 -1.0682523 -0.4298892 1.1508944e-38
3.0982976 -1.0628108 -0.42648837 1.0772843e-38
3.1236424 -1.0578653 -0.43993831 9.1169053e-39
3.0962603 -1.0267767 -0.43380621 9.7547189e-39
3.1252382 -1.0379605 -0.43403122 8.9224429e-39
3.0712519 -1.000587 -0.41901156 1.4388639e-38
3.0187097 -0.96638447 -0.40630525 4.2439011e-39
3.044234 -0.9675768 -0.41532999 3.9662198e-39
3.0471623 -0.94708079 -0.40454796 3.1321473e-39
3.0704575 -0.94984102 -0.42173097 3.0399208e-39
3.0979738 -0.93915033 -0.42722014 2.8580477e-39
3.0976474 -0.91297704 -0.42831784 2.9495161e-39
3.0976191 -0.8845275 -0.42831782 3.0410068e-39
3.0972848 -0.85038841 -0.42941546 3.0410167e-39
3.1270773 -0.85806507 -0.42664731 3.4094334e-39
3.0975564 -0.82193863 -0.42831782 3.0420858e-39
3.0740235 -0.79759693 -0.40813392 3.1321431e-39
3.097528 -0.79348904 -0.42831782 2.9470218e-39
3.0974939 -0.75934952 -0.42831784 3.042083e-39
3.0974655 -0.73090011 -0.42831782 3.2279022e-39
3.0974426 -0.70814049 -0.42831782 3.5023367e-39
3.1238878 -0.69731224 -0.43772319 3.5009144e-39
3.0988922 -0.65692985 -0.42282945 6.9024137e-39
3.1234877 -0.6757828 -0.43910766 4.6944073e-39
3.0973744 -0.63986152 -0.42831782 1.0407651e-38
3.1238265 -0.6360718 -0.43772319 1.1422152e-38
3.1238017 -0.61119288 -0.43772316 1.196885e-38
3.151747 -0.59928423 -0.44164023 1.1876299e-38
3.1791539 -0.59309906 -0.45133588 1.1508957e-38
3.0531936 -1.0812105 -0.38298377 1.2251941e-38
3.080255 -1.0795175 -0.38637862 1.2430928e-38
3.1038218 -1.0836682 -0.40636429 1.1971357e-38
3.0802436 -1.0682404 -0.38637862 1.1968494e-38
3.1052999 -1.060907 -0.4008759 1.0770317e-38
3.1052713 -1.0324575 -0.40087593 8.8331213e-39
3.0560527 -0.9917838 -0.37220174 9.5929264e-39
3.0786886 -1.0005795 -0.39181742 1.2268447e-38
3.0267463 -0.96637654 -0.37691736 4.2435213e-39
3.0523417 -0.96663707 -0.3856793 3.6888986e-39
3.0259991 -0.94975889 -0.37958899 3.040281e-39
3.0536447 -0.94260311 -0.38082737 3.0406397e-39
3.0786266 -0.93855578 -0.39181742 2.9491685e-39
3.1036737 -0.9357307 -0.40636432 2.8576904e-39
3.0800972 -0.92163861 -0.38637862 2.8591211e-39
3.1051519 -0.91296953 -0.40087593 2.9484623e-39
3.0800633 -0.88780755 -0.38637862 3.0406509e-39
3.1047468 -0.88309795 -0.40224802 2.765143e-39
3.0800295 -0.85397631 -0.38637862 2.6708244e-39
3.1047127 -0.84895843 -0.40224802 3.1321361e-39
3.0799844 -0.80886805 -0.38637862 3.8646915e-39
3.1044617 -0.82306969 -0.40307128 3.1324976e-39
3.0558515 -0.79058027 -0.37220174 3.2239716e-39
3.0784855 -0.79759252 -0.39181742 3.3147365e-39
3.1050267 -0.78779167 -0.40087593 3.2221709e-39
3.1049984 -0.75934213 -0.40087593 2.9477476e-39
3.10497 -0.73089266 -0.4008759 3.2264743e-39
3.1299686 -0.72027129 -0.41557142 3.9597121e-39
3.1059439 -0.70433873 -0.39721701 3.5938205e-39
3.1314602 -0.69730461 -0.41003349 3.775021e-39
3.1057632 -0.66667712 -0.39773971 5.0610276e-39
3.1299286 -0.68008232 -0.41557142 4.2337865e-39
3.1048789 -0.63985401 -0.40087593 1.0953982e-38
3.1057096 -0.61302942 -0.39773968 1.2243644e-38
3.1298597 -0.61118686 -0.41557142 1.2245078e-38
3.1078293 -0.58864194 -0.38989913 1.205819e-38
3.1298423 -0.59396309 -0.41557142 1.2060684e-38
3.0842249 -1.0832726 -0.37187505 1.2525282e-38
3.1128213 -1.0779693 -0.37343401 1.2245427e-38
3.0087428 -1.0623889 -0.34453648 1.2072238e-38
3.0378051 -1.0660754 -0.33684292 1.1979308e-38
3.0620282 -1.0700238 -0.35063753 1.2615684e-38
3.0891621 -1.062593 -0.35374561 1.2795731e-38
3.1128044 -1.0608995 -0.37343401 1.1048351e-38
3.0861573 -1.0325238 -0.36462328 1.0218945e-38
3.0604868 -1.0029573 -0.35602859 9.6711314e-39
3.0868773 -1.0090292 -0.36190385 6.9020704e-39
3.0347831 -0.96636844 -0.34752944 4.338563e-39
3.0609448 -0.969423 -0.35423163 3.6906979e-39
3.034761 -0.94421065 -0.34752944 3.0410096e-39
3.0604196 -0.93588954 -0.35602859 3.0392076e-39
3.0845816 -0.9441883 -0.37006214 2.6718866e-39
3.0361831 -0.90543294 -0.34218618 2.7651444e-39
3.0604 -0.91632801 -0.35602859 2.5821965e-39
3.0850396 -0.90659755 -0.36824918 2.9491685e-39
3.0860069 -0.88216305 -0.36462334 3.0402866e-39
3.0618157 -0.85764223 -0.35063753 2.857312e-39
3.0859771 -0.85235935 -0.36462331 3.0402866e-39
3.1140909 -0.84657824 -0.36794561 3.2239632e-39
3.0855167 -0.81691754 -0.3661772 3.3168805e-39
3.0874043 -0.79194504 -0.35918447 3.3161756e-39
3.1110303 -0.78778565 -0.37892237 3.3150644e-39
3.0881224 -0.76657087 -0.35646501 3.2228688e-39
3.1125028 -0.75933462 -0.37343401 3.1310431e-39
3.0865982 -0.72992194 -0.36190385 3.5001801e-39
3.1124744 -0.73088509 -0.37343401 3.3168679e-39
3.0616596 -0.7011506 -0.35063758 3.4079901e-39
3.0848329 -0.69985145 -0.36824918 3.8686081e-39
3.1109564 -0.71381694 -0.37892237 3.8693228e-39
3.0616257 -0.66761661 -0.35063753 3.0367077e-39
3.0854266 -0.67353773 -0.36598301 4.0493924e-39
3.0862641 -0.64346468 -0.36281037 1.2061761e-38
3.1128817 -0.63794941 -0.37160456 1.3072317e-38
3.1128588 -0.61518985 -0.37160456 1.2335835e-38
3.1419694 -0.60543352 -0.37126791 1.2242904e-38
3.1108313 -0.58863896 -0.37892237 1.2517366e-38
3.0694108 -1.0811943 -0.32368234 1.1521937e-38
3.0682809 -1.0574423 -0.32772553 1.1973183e-38
3.0465448 -1.0383695 -0.30478343 3.0370986e-39
3.0686259 -1.0336887 -0.32637787 8.9296427e-39
3.093596 -1.0343959 -0.33742914 1.2061758e-38
3.0682278 -1.0043468 -0.32772553 5.1564561e-39
3.0920749 -1.0005661 -0.34286797 6.3438743e-39
3.0435503 -0.96635973 -0.31546995 2.7658381e-39
3.0678134 -0.95823812 -0.32907337 2.9477434e-39
3.0435226 -0.93866247 -0.31546989 3.0402894e-39
3.0672081 -0.94258952 -0.33122981 3.1310347e-39
3.0464118 -0.90542275 -0.30478343 3.4058209e-39
3.06777 -0.91512305 -0.32907328 2.6736621e-39
3.0449283 -0.88326645 -0.31012672 2.8562583e-39
3.066891 -0.87839627 -0.33215389 2.7644087e-39
3.0434339 -0.85003132 -0.31546992 2.2134056e-39
3.0677092 -0.85391033 -0.32907343 2.3041607e-39
3.094301 -0.8471958 -0.33416584 2.6715055e-39
3.0706167 -0.81292152 -0.31829128 3.1317717e-39
3.0938814 -0.82389021 -0.33561617 3.1321361e-39
3.0433674 -0.78355789 -0.31546989 3.5026842e-39
3.0676534 -0.79802036 -0.32907343 3.4076398e-39
3.0918605 -0.78630203 -0.34286797 3.0396027e-39
3.0414009 -0.76509494 -0.32259429 2.9495301e-39
3.0683577 -0.76541728 -0.32637787 2.9480994e-39
3.0948052 -0.75622696 -0.33199033 2.5789371e-39
3.0646524 -0.74585956 -0.33985546 2.6693559e-39
3.0947802 -0.73132342 -0.33199036 3.1331871e-39
3.0687335 -0.69890797 -0.32476053 3.5934463e-39
3.0917759 -0.70172411 -0.34286797 3.6863538e-39
3.0432568 -0.67276895 -0.31546992 3.4065636e-39
3.0690026 -0.67319822 -0.32368234 2.8555352e-39
3.0929356 -0.6712749 -0.33851695 7.0867769e-39
3.0451756 -0.64322329 -0.30834556 5.2475741e-39
3.0704601 -0.65642983 -0.31829128 6.3413422e-39
3.0942636 -0.63969773 -0.33354425 1.270353e-38
3.122884 -0.63414615 -0.33501527 1.3535439e-38
3.1213717 -0.62276787 -0.34050366 1.1968469e-38
3.1480389 -0.61690998 -0.34911612 1.1227342e-38
3.1762064 -0.61084509 -0.35224023 1.2240391e-38
3.0738337 -1.0811899 -0.30750921 1.1612696e-38
3.1040637 -1.0907706 -0.29935735 1.1612331e-38
3.0772548 -1.0625565 -0.2949301 7.1012523e-39
3.1040356 -1.0625781 -0.29935735 4.0537421e-39
3.0767317 -1.0308859 -0.29672712 3.2239618e-39
3.0767038 -1.002941 -0.29672712 2.3963507e-39
3.0508564 -0.9663524 -0.28875366 2.7658605e-39
3.0737107 -0.95823222 -0.30750921 2.5789595e-39
3.0511231 -0.94087058 -0.28768501 2.8569645e-39
3.0751624 -0.93587482 -0.30211818 2.9463001e-39
3.049334 -0.90541983 -0.29409692 2.4903652e-39
3.0773602 -0.92190009 -0.29403165 3.0392188e-39
3.0507731 -0.88326061 -0.28875366 3.1317647e-39
3.0736213 -0.86880839 -0.30750921 2.3952969e-39
3.0507512 -0.86110282 -0.28875366 2.9502433e-39
3.0771437 -0.85315573 -0.29457077 2.9477308e-39
3.1018362 -0.84643644 -0.30660912 2.3956416e-39
3.0775039 -0.82036656 -0.29313308 2.9473707e-39
3.1008296 -0.83140129 -0.31023502 2.8577016e-39
3.07686 -0.79055929 -0.29537928 3.4087076e-39
3.0764635 -0.76261467 -0.29672712 2.7647801e-39
3.0520682 -0.71707582 -0.28341043 3.3150868e-39
3.0769305 -0.73839527 -0.29493004 2.7640584e-39
3.1007338 -0.73554635 -0.31023502 2.8576974e-39
3.050596 -0.70599836 -0.28875366 3.0420634e-39
3.0752227 -0.70113701 -0.30103999 3.1342857e-39
3.0510573 -0.68014705 -0.28697255 3.4097824e-39
3.0773554 -0.67132682 -0.29313314 3.1331885e-39
3.1006775 -0.67916107 -0.31023502 2.9488056e-39
3.0490737 -0.6450659 -0.29409692 3.8696759e-39
3.0793004 -0.65083194 -0.28594506 3.9608065e-39
3.1021197 -0.63405132 -0.30479619 3.4991193e-39
3.1288662 -0.61280304 -0.3130618 6.6290736e-39
3.157114 -0.60541832 -0.31588849 4.5031959e-39
3.2084763 -0.61645323 -0.34419823 1.1687217e-38
3.2386854 -0.61045611 -0.34743926 1.3729564e-38
3.103545 -0.57202601 -0.29935735 5.7978458e-39
3.1280859 -0.58293176 -0.31580597 1.0870031e-38
3.1571023 -0.59393579 -0.31588849 7.6302565e-39
3.0611792 -1.0605128 -0.25135094 1.0880923e-38
3.0838385 -1.0610596 -0.27085012 7.2860037e-39
3.1129539 -1.0569307 -0.26672441 4.0515602e-39
3.0841033 -1.0308787 -0.26977196 3.8686249e-39
3.1099455 -1.0231024 -0.27760208 3.3165189e-39
3.0843678 -1.0006979 -0.26869372 2.8544576e-39
3.0347192 -0.96351165 -0.24918629 2.9488168e-39
3.0574319 -0.96634585 -0.26470909 2.8573344e-39
3.0318 -0.94154757 -0.25978073 2.9473861e-39
3.0581348 -0.93864787 -0.26203743 2.8558995e-39
3.0595684 -0.91094899 -0.2566942 2.5821755e-39
3.0825171 -0.9191004 -0.27516299 2.9488042e-39
3.0577154 -0.88463855 -0.26337329 2.9498916e-39
3.0839412 -0.86879808 -0.26977196 3.3172238e-39
3.0839245 -0.85203111 -0.26977196 3.1335556e-39
3.0594797 -0.8223179 -0.25669414 2.5796756e-39
3.0824223 -0.82408768 -0.27516305 2.6715013e-39
3.0594521 -0.79462075 -0.25669414 3.408367e-39
3.0823941 -0.7961427 -0.27516299 3.6842281e-39
3.0579574 -0.76138544 -0.26203743 3.499841e-39
3.0585067 -0.72593254 -0.25990009 3.2232513e-39
3.0833235 -0.7421149 -0.27156901 3.0388502e-39
3.0578966 -0.70045155 -0.26203737 3.5016193e-39
3.0582354 -0.67413878 -0.26070163 3.2236058e-39
3.0822656 -0.66759598 -0.27516299 3.0410181e-39
3.0590091 -0.64394808 -0.25776285 3.7753433e-39
3.0842056 -0.64151204 -0.267975 3.8693298e-39
3.1089604 -0.63291681 -0.27977759 3.8675389e-39
3.1378701 -0.61137152 -0.28013152 4.1426839e-39
3.1348457 -0.58861494 -0.29110825 3.5898884e-39
3.0914969 -1.0532273 -0.24281672 5.9027035e-39
3.0914745 -1.0308713 -0.24281672 3.7789404e-39
3.0669575 -0.99403352 -0.22997792 2.8559093e-39
3.091078 -1.0029268 -0.24416448 2.76442e-39
3.0376165 -0.96350873 -0.23859178 2.9477658e-39
3.067513 -0.96522778 -0.22784066 2.9477406e-39
3.0669036 -0.94002396 -0.22997798 2.8576946e-39
3.0404699 -0.91957194 -0.22799733 2.8580631e-39
3.0668745 -0.91094172 -0.22997792 3.1335556e-39
3.067683 -0.88482636 -0.22692461 3.3172308e-39
3.0905867 -0.87996948 -0.24551225 2.8580463e-39
3.1157482 -0.87649471 -0.25584674 3.4083446e-39
3.0682747 -0.8500064 -0.22463471 3.3154329e-39
3.0903149 -0.85388774 -0.24641088 3.0420844e-39
3.1157258 -0.85394061 -0.25584674 2.9495525e-39
3.0667858 -0.82231057 -0.22997798 2.8551961e-39
3.0667582 -0.79461342 -0.22997792 3.5012759e-39
3.0667248 -0.76137668 -0.22997792 3.7753405e-39
3.0670555 -0.72675484 -0.22864212 3.1328479e-39
3.089704 -0.73465651 -0.24820778 3.2232443e-39
3.066664 -0.70044279 -0.22997792 3.5941596e-39
3.0911338 -0.68994313 -0.24281678 3.9608164e-39
3.0670002 -0.67136031 -0.22864218 3.4072642e-39
3.0636804 -0.63951176 -0.24066442 4.0522693e-39
3.0940378 -0.64522821 -0.23203473 3.867871e-39
3.118475 -0.62839645 -0.24496914 3.7764125e-39
3.0910666 -0.62287527 -0.24281678 3.9611597e-39
3.1184635 -0.61711937 -0.24496914 4.4206735e-39
3.1438851 -0.62274539 -0.25817794 4.3274269e-39
3.1732759 -0.6130572 -0.25681719 4.7880365e-39
3.1003373 -1.0476296 -0.21047056 6.9226106e-39
3.1003201 -1.0308625 -0.21047044 3.9597331e-39
3.0747545 -0.99771875 -0.20148055 3.3147211e-39
3.0993075 -1.0010555 -0.21406448 2.9488238e-39
3.0742359 -0.96632898 -0.20326164 3.0399334e-39
3.1002476 -0.9582057 -0.21047056 3.3154147e-39
3.0746915 -0.93493837 -0.20148055 3.1328367e-39
3.1017108 -0.94702619 -0.20507951 3.4083404e-39
3.0491397 -0.89759618 -0.19621392 3.3179525e-39
3.0736952 -0.91278142 -0.20504273 3.2243051e-39
3.0505774 -0.88661128 -0.19091669 3.226117e-39
3.073422 -0.8832379 -0.20593332 3.1339129e-39
3.0491066 -0.86464578 -0.19621392 3.500899e-39
3.0746105 -0.85369301 -0.20148055 3.499813e-39
3.1011264 -0.85387695 -0.20687658 2.9498944e-39
3.0755532 -0.82230186 -0.19791837 3.1332039e-39
3.1001191 -0.82965893 -0.21047056 3.4087188e-39
3.0740643 -0.79460621 -0.20326164 3.6838595e-39
3.1015656 -0.80171245 -0.20507951 3.9600625e-39
3.0740309 -0.76136941 -0.20326158 3.6849441e-39
3.0739977 -0.72813278 -0.20326164 3.5016347e-39
3.0739701 -0.70043552 -0.20326164 3.5923603e-39
3.0739424 -0.67273831 -0.20326164 3.3165049e-39
3.0999401 -0.65081137 -0.2104705 3.68457e-39
3.1259172 -0.63402754 -0.21777503 4.3274156e-39
3.1528907 -0.62273633 -0.22524764 4.7883966e-39
3.1798422 -0.61687815 -0.23281942 4.9738865e-39
3.1357639 -1.0606669 -0.18332909 7.9299256e-39
3.1091659 -1.0308535 -0.17812416 4.79167e-39
3.109138 -1.0029086 -0.17812416 3.4076398e-39
3.0808141 -0.96909219 -0.17921697 2.7651374e-39
3.056917 -0.94884473 -0.16796197 3.0435138e-39
3.0811474 -0.93724 -0.17788117 3.1342787e-39
3.0814867 -0.91092706 -0.17654537 3.4101565e-39
3.0578206 -0.88660401 -0.16443044 3.4097824e-39
3.0818729 -0.88006413 -0.17501868 3.5001843e-39
3.0820167 -0.85663992 -0.17440803 2.9498874e-39
3.1082473 -0.84921229 -0.18081981 2.8576904e-39
3.081398 -0.82229596 -0.17654537 3.317235e-39
3.056284 -0.79873765 -0.16972771 3.3201189e-39
3.0809493 -0.79143387 -0.17807193 3.2272016e-39
3.0576887 -0.75480229 -0.1644305 3.7771524e-39
3.0809717 -0.76136243 -0.17788111 3.7771426e-39
3.0813038 -0.72812545 -0.17654537 3.7767796e-39
3.0812762 -0.70042831 -0.17654537 3.4090663e-39
3.0812485 -0.67273092 -0.17654537 3.1324906e-39
3.0797651 -0.65057462 -0.18188864 3.6849287e-39
3.109761 -0.64334953 -0.17453012 3.7767712e-39
3.1318724 -0.63966012 -0.19601969 3.8685913e-39
3.1619074 -0.63410711 -0.1923174 4.2355984e-39
3.1884396 -0.63217962 -0.20143777 5.0638919e-39
3.1880157 -0.61227697 -0.20291455 7.1851144e-39
3.1397264 -1.056904 -0.16882554 8.6613782e-39
3.1160445 -1.0289837 -0.15296613 4.7934357e-39
3.1456645 -1.0456209 -0.14707026 7.2099482e-39
3.1165094 -1.0029013 -0.15116905 3.2243247e-39
3.0636919 -0.96348268 -0.14324152 3.3168552e-39
3.090308 -0.96520495 -0.14448586 3.3172364e-39
3.0902815 -0.93861574 -0.14448586 3.5931072e-39
3.0908372 -0.90980983 -0.14234854 3.685649e-39
3.1149569 -0.92465699 -0.15656011 3.4991039e-39
3.09059 -0.88183594 -0.14315006 3.1339213e-39
3.0901928 -0.84998441 -0.14448586 3.1324962e-39
3.0895796 -0.82117993 -0.14662318 3.3175979e-39
3.0901375 -0.79459006 -0.14448586 3.5938163e-39
3.0901041 -0.76135331 -0.14448586 3.6853071e-39
3.0896564 -0.73128247 -0.14601243 3.7774971e-39
3.1177042 -0.72345048 -0.14577806 3.5959687e-39
3.0900433 -0.70041943 -0.1444858 3.6870881e-39
3.0633953 -0.66692865 -0.14324152 3.4087048e-39
3.0900156 -0.67272216 -0.14448586 3.317242e-39
3.1154175 -0.64800137 -0.15386458 3.0424516e-39
3.1452641 -0.64528525 -0.14707026 3.5938149e-39
3.1679111 -0.63410115 -0.17036383 4.4210742e-39
3.1965129 -0.62834406 -0.17190208 4.7891365e-39
3.2220583 -0.62238455 -0.18461533 7.0871455e-39
3.1239035 -1.02525 -0.12421389 4.3242081e-39
3.1486392 -1.0456179 -0.13619259 8.9634939e-39
3.1238809 -1.0028939 -0.12421377 3.3165119e-39
3.0976152 -0.96630567 -0.11776952 3.9611639e-39
3.0972953 -0.93860865 -0.11883821 3.7771341e-39
3.1267736 -0.94700116 -0.11343177 3.9597275e-39
3.0975542 -0.90537161 -0.11776952 3.9607827e-39
3.1252768 -0.92464668 -0.11882284 4.2381095e-39
3.097532 -0.88321388 -0.11776946 3.6856448e-39
3.0974989 -0.8499772 -0.11776958 3.6838665e-39
3.0974658 -0.81674051 -0.11776952 3.3161742e-39
3.1237135 -0.83522433 -0.12421389 3.224689e-39
3.0974436 -0.79458284 -0.11776958 3.6849525e-39
3.1251316 -0.779333 -0.11882284 3.6845588e-39
3.0973992 -0.75026721 -0.11776952 3.6852959e-39
3.1251204 -0.76815504 -0.11882284 3.868971e-39
3.0973825 -0.73364884 -0.11776958 3.7771327e-39
3.1236017 -0.72344464 -0.12421389 3.8689542e-39
3.0988107 -0.70041072 -0.1124263 3.8700346e-39
3.1235847 -0.70667762 -0.12421389 4.144095e-39
3.0973217 -0.67271483 -0.11776958 3.6853043e-39
3.0958383 -0.65055853 -0.1231128 3.3168566e-39
3.1242661 -0.650787 -0.12151836 3.4998186e-39
3.1492286 -0.64340174 -0.13256675 4.0515462e-39
3.1754155 -0.63409364 -0.14292186 4.3302925e-39
3.1575465 -1.0286933 -0.10355964 4.3339457e-39
3.1312413 -0.99170864 -0.097258665 3.8696857e-39
3.1590168 -1.0117763 -0.098120809 3.4094516e-39
3.1039453 -0.96445274 -0.09461543 3.8721954e-39
3.1326885 -0.96488011 -0.091867611 3.7785593e-39
3.1019602 -0.9275251 -0.1017398 4.510777e-39
3.133256 -0.94252348 -0.089711256 3.8697095e-39
3.103399 -0.90536577 -0.096396521 3.6863552e-39
3.133821 -0.91793132 -0.087554842 4.0544399e-39
3.103864 -0.8832075 -0.09461543 3.688907e-39
3.1340835 -0.88551486 -0.086476609 3.8718633e-39
3.104805 -0.8499698 -0.0910533 3.409809e-39
3.1047773 -0.82227266 -0.0910533 2.9477532e-39
3.1051149 -0.7945751 -0.089717492 3.7749832e-39
3.1295657 -0.79050654 -0.10264972 4.0512099e-39
3.1047201 -0.76503164 -0.0910533 3.5034479e-39
3.132489 -0.76535314 -0.091867663 3.5927415e-39
3.1038463 -0.72652024 -0.094106488 3.501992e-39
3.1354067 -0.7346108 -0.081085555 2.584007e-39
3.1314435 -0.7029438 -0.095461644 3.5927527e-39
3.1601996 -0.70729423 -0.092681974 4.0522679e-39
3.1046166 -0.66162866 -0.0910533 3.7746342e-39
3.1304331 -0.67499977 -0.099055804 3.8664641e-39
3.1309059 -0.65636939 -0.097258665 3.9590185e-39
3.1571686 -0.65091187 -0.10355964 4.1437727e-39
3.1634731 -1.0061332 -0.081804365 3.7771482e-39
