# .PCD v0.7 - Point Cloud Data file format
VERSION 0.7
FIELDS x y z rgb
SIZE 4 4 4 4
TYPE F F F F
COUNT 1 1 1 1
WIDTH 1028
HEIGHT 1
VIEWPOINT 0 0 0 1 0 0 0
POINTS 1028
DATA ascii
6.4035354 -4.1532526 -1.2099092 3.6878252e-40
6.3961754 -4.1893682 -1.1856784 2.7658689e-40
6.3798423 -4.1621199 -1.2016459 2.7658689e-40
6.373847 -4.2006702 -1.1918145 2.7658689e-40
6.3516712 -4.1733418 -1.1950352 3.6878252e-40
6.3270636 -4.1470842 -1.2034377 2.7658689e-40
6.3154259 -4.152298 -1.2034377 2.7658689e-40
6.3041434 -4.1938486 -1.1913167 3.6878252e-40
6.2800183 -4.1668367 -1.1971772 3.6878252e-40
6.2650967 -4.137681 -1.2123969 2.7658689e-40
6.2496543 -4.1425929 -1.2029115 3.6878252e-40
6.1665616 -4.0598507 -1.2213817 3.6878252e-40
6.1475363 -4.031467 -1.2473832 3.6878252e-40
6.151783 -3.9888525 -1.2606786 2.7658689e-40
6.140295 -4.0727224 -1.2266004 3.6878252e-40
6.1041269 -4.04952 -1.2407912 4.6097815e-40
6.075839 -4.0619149 -1.2394729 2.7658689e-40
6.0527067 -4.0332403 -1.2606786 2.7658689e-40
6.0484638 -4.0730639 -1.2341992 3.6878252e-40
6.031014 -4.0401402 -1.247354 3.6878252e-40
5.9948645 -3.971719 -1.2746758 2.7658689e-40
6.0134497 -4.0451899 -1.2340295 2.7658689e-40
6.4180202 -4.1769848 -1.1734059 3.6878252e-40
6.394238 -4.1850433 -1.1611334 2.7658689e-40
6.3655496 -4.1610928 -1.1665269 2.7658689e-40
6.3482685 -4.1688347 -1.1665269 2.7658689e-40
6.3272548 -4.1397133 -1.1690048 2.7658689e-40
6.3071361 -4.1493893 -1.172135 2.7658689e-40
6.305933 -4.1106901 -1.1712936 3.6878252e-40
6.3084364 -4.1879921 -1.1727244 2.7658689e-40
6.2850242 -4.1592956 -1.172135 2.7658689e-40
6.265789 -4.1313505 -1.1839408 2.7658689e-40
6.253778 -4.1706457 -1.159614 8.2976067e-40
6.2422791 -4.1418834 -1.1839408 3.6878252e-40
6.1690969 -4.1343603 -1.1833068 2.7658689e-40
6.1526766 -4.1012158 -1.187047 1.5673257e-39
6.1286368 -4.072701 -1.201811 4.6097815e-40
6.1104465 -4.0808506 -1.201811 5.5317378e-40
6.0856781 -4.0905666 -1.1952873 4.6097815e-40
6.0686073 -4.0605526 -1.2177192 3.6878252e-40
6.0412726 -4.0701489 -1.2051944 3.6878252e-40
6.0147071 -4.0798197 -1.1946471 1.0141519e-39
6.0062056 -4.0456166 -1.220705 2.7658689e-40
6.4189591 -4.2007022 -1.1134229 2.7658689e-40
6.3798156 -4.1088805 -1.1345719 4.6097815e-40
6.4086223 -4.2079048 -1.1255764 2.7658689e-40
6.3919773 -4.1799974 -1.1324978 1.8439126e-40
6.3719883 -4.1523075 -1.1386383 3.6878252e-40
6.362359 -4.1167011 -1.1345719 5.5317378e-40
6.352561 -4.1629782 -1.1479344 4.6097815e-40
6.3359876 -4.1295757 -1.1395804 3.6878252e-40
6.3166895 -4.1031952 -1.1586463 4.6097815e-40
6.2988458 -4.1464806 -1.1408324 8.2976067e-40
6.3044353 -4.107347 -1.1523228 3.6878252e-40
6.2813892 -4.1543016 -1.1408324 3.6878252e-40
6.2574158 -4.1284127 -1.1523228 4.6097815e-40
6.2397833 -4.1363125 -1.1523229 5.5317378e-40
6.2254481 -4.1010041 -1.1449763 4.6097815e-40
6.1670794 -4.1298575 -1.1577531 1.4751301e-39
6.1468081 -4.0988369 -1.1633784 5.5317378e-40
6.1260619 -4.0669537 -1.1691931 7.3756504e-40
6.1353183 -4.1053505 -1.1698334 4.6097815e-40
6.1083865 -4.0762525 -1.1757168 5.5317378e-40
6.0841336 -4.0871181 -1.1757168 5.5317378e-40
6.0617294 -4.0966959 -1.1735423 1.1985432e-39
6.0351119 -4.1077003 -1.1691931 2.7658689e-40
6.0263047 -4.1514592 -1.1569232 4.6097815e-40
6.3957076 -4.1357803 -1.1107497 4.6097815e-40
6.3783331 -4.1055708 -1.1157904 4.6097815e-40
6.422677 -4.2299671 -1.0908216 3.6878252e-40
6.4017696 -4.1712832 -1.1120436 3.6878252e-40
6.3608766 -4.1133919 -1.1157904 4.6097815e-40
6.337204 -4.0859766 -1.1207049 5.5317378e-40
6.3195715 -4.0938764 -1.1207049 3.6878252e-40
6.2968693 -4.1420679 -1.1157904 2.7658689e-40
6.3019395 -4.1017761 -1.1207049 2.7658689e-40
6.281517 -4.1493883 -1.1178771 2.7658689e-40
6.2594218 -4.1202898 -1.1181755 3.6878252e-40
6.2363153 -4.0934324 -1.1321994 4.6097815e-40
6.243165 -4.128108 -1.120705 3.6878252e-40
6.2198086 -4.0990252 -1.1236814 4.6097815e-40
6.1726351 -4.1597066 -1.1207049 4.6097815e-40
6.1452794 -4.0954251 -1.144013 4.6097815e-40
6.124517 -4.0635052 -1.1496226 7.3756504e-40
6.1521778 -4.1284242 -1.1194226 1.3829344e-39
6.1063271 -4.0716548 -1.1496226 1.3829344e-39
6.0907726 -4.1184797 -1.137558 8.2976067e-40
6.0662642 -4.1280937 -1.1311028 3.6878252e-40
6.0583353 -4.0945358 -1.156146 3.6878252e-40
6.0306005 -4.1045952 -1.1449629 3.6878252e-40
6.0049372 -4.0744338 -1.1485029 3.6878252e-40
6.3164177 -4.0494356 -1.0938689 2.7658689e-40
6.317575 -4.0894194 -1.0954106 1.8439126e-40
6.2986045 -4.0574164 -1.0938689 1.8439126e-40
6.2953863 -4.1387587 -1.0970087 2.7658689e-40
6.2854376 -4.1027479 -1.0903518 2.7658689e-40
6.2837486 -4.1439729 -1.0970087 3.6878252e-40
6.2583013 -4.1146374 -1.089087 3.6878252e-40
6.2347913 -4.1251702 -1.089087 3.6878252e-40
6.2235832 -4.1656299 -1.0719666 3.6878252e-40
6.217658 -4.1341839 -1.0954106 4.6097815e-40
6.177527 -4.1875887 -1.0782272 3.6878252e-40
6.1506653 -4.1250472 -1.1002573 3.6878252e-40
6.1232271 -4.0976572 -1.1078645 1.1985432e-39
6.0943518 -4.1103888 -1.1068963 3.6878252e-40
6.0642262 -4.1235442 -1.1052824 2.7658689e-40
6.0267363 -4.0987558 -1.1091764 2.7658689e-40
6.003376 -4.0709491 -1.128727 2.7658689e-40
6.3132863 -4.0850973 -1.0659006 2.7658689e-40
6.2906494 -4.0555739 -1.068315 2.7658689e-40
6.2832408 -4.0978451 -1.062528 2.7658689e-40
6.2563043 -4.1101804 -1.0637927 3.6878252e-40
6.2327948 -4.1207132 -1.0637927 4.6097815e-40
6.2180567 -4.163691 -1.0510982 4.6097815e-40
6.1866932 -4.1768589 -1.0469246 8.2976067e-40
6.1681423 -4.1496782 -1.0637927 4.6097815e-40
6.1382475 -4.1238527 -1.068315 7.3756504e-40
6.1161847 -4.0948029 -1.0794621 3.6878252e-40
6.1051903 -4.1381221 -1.0657597 2.7658689e-40
6.0882616 -4.1448956 -1.0619266 1.8439126e-40
6.0616779 -4.1178575 -1.073007 2.7658689e-40
6.0431695 -4.124784 -1.0665519 1.8439126e-40
6.0223541 -4.0954742 -1.0843869 2.7658689e-40
6.0012946 -4.0663033 -1.1023589 2.7658689e-40
6.3109565 -4.0798979 -1.0363905 2.7658689e-40
6.2919183 -4.0477967 -1.0342433 2.7658689e-40
6.277318 -4.0940762 -1.0321748 2.7658689e-40
6.2538085 -4.1046095 -1.0321748 3.6878252e-40
6.2314739 -4.1146154 -1.0321748 3.6878252e-40
6.209126 -4.0857906 -1.0385023 3.6878252e-40
6.1982222 -4.1301823 -1.0353366 3.6878252e-40
6.1856337 -4.05686 -1.0471866 4.6097815e-40
6.1973424 -4.1694393 -1.0344036 3.6878252e-40
6.1726995 -4.1409478 -1.0321748 6.4536941e-40
6.1580019 -4.1095963 -1.0427613 3.6878252e-40
6.1507034 -4.1501331 -1.029013 6.4536941e-40
6.1283131 -4.1228971 -1.0427613 3.6878252e-40
6.1218796 -4.161932 -1.0237434 3.6878252e-40
6.0981202 -4.1350722 -1.0363729 2.7658689e-40
6.0862446 -4.1403928 -1.0363729 1.8439126e-40
6.0596399 -4.113308 -1.0471866 2.7658689e-40
6.0416408 -4.1213713 -1.0471866 2.7658689e-40
6.0142307 -4.0935926 -1.0582927 2.7658689e-40
5.9848776 -4.062501 -1.0496228 1.8439126e-40
6.2941957 -4.0422711 -1.0129486 2.7658689e-40
6.2790809 -4.0081663 -1.0149112 2.7658689e-40
6.2730298 -4.0897551 -1.0026648 2.7658689e-40
6.2737308 -4.0496378 -1.0044307 2.7658689e-40
6.2513123 -4.0990381 -1.0005569 3.6878252e-40
6.2262292 -4.0709195 -1.0044307 5.5317378e-40
6.2341795 -4.1080523 -1.0068805 4.6097815e-40
6.20892 -4.0800257 -1.0108191 4.6097815e-40
6.1871595 -4.129118 -1.0068805 4.6097815e-40
6.1787271 -4.0922012 -1.0044307 4.6097815e-40
6.1835952 -4.0523109 -1.0213662 4.6097815e-40
6.1711535 -4.135397 -1.0026648 4.6097815e-40
6.1549759 -4.1028423 -1.0044307 4.6097815e-40
6.1455183 -4.1464357 -1.0005569 6.4536941e-40
6.118382 -4.1583261 -0.99929219 4.6097815e-40
6.0966072 -4.1316957 -1.0172075 1.8439126e-40
6.0921221 -4.1690207 -0.99423337 3.6878252e-40
6.0782895 -4.1385508 -1.0108191 3.6878252e-40
6.0557714 -4.110033 -1.023518 2.7658689e-40
6.0163321 -4.0860958 -1.0273058 2.7658689e-40
5.9863725 -4.0964127 -1.0126278 1.8439126e-40
5.9777098 -4.0629234 -1.0364387 1.8439126e-40
6.302712 -4.0719967 -0.98158622 2.7658689e-40
6.2840934 -4.0409403 -0.98526537 2.7658689e-40
6.2760234 -4.0013418 -0.97618055 2.7658689e-40
6.2787032 -4.0814157 -0.97526264 2.7658689e-40
6.2603426 -4.0515814 -0.98526537 3.6878252e-40
6.2365913 -4.0622225 -0.98526531 3.6878252e-40
6.2133451 -4.0739889 -0.9916538 5.5317378e-40
6.1960468 -4.0399036 -0.98909074 4.6097815e-40
6.1723309 -4.050139 -0.98724645 4.6097815e-40
6.161653 -4.1351938 -0.98158622 4.6097815e-40
6.161212 -4.0955429 -0.98313588 4.6097815e-40
6.1417284 -4.1432285 -0.9773705 5.5317378e-40
6.1410832 -4.1036601 -0.97887695 4.6097815e-40
6.1141338 -4.1551452 -0.97526264 2.7658689e-40
6.0906243 -4.165678 -0.97526264 3.6878252e-40
6.0703349 -4.1367083 -0.98526537 1.8439126e-40
6.0490541 -4.1057591 -0.9890908 2.7658689e-40
6.0370545 -4.111135 -0.9890908 1.8439126e-40
6.0090809 -4.082098 -0.99305719 2.7658689e-40
5.9848275 -4.0929642 -0.99305719 2.7658689e-40
5.9760385 -4.1357403 -0.97618055 2.7658689e-40
6.2767062 -4.0769587 -0.94996834 2.7658689e-40
6.2578211 -4.0459528 -0.95332319 2.7658689e-40
6.2363858 -4.0564575 -0.95758206 2.7658689e-40
6.2223272 -4.0208459 -0.95466357 3.6878252e-40
6.210319 -4.067235 -0.95332319 4.6097815e-40
6.1904993 -4.0355611 -0.9568153 4.6097815e-40
6.1665001 -4.0463133 -0.9568153 4.6097815e-40
6.1586041 -4.0095887 -0.96696299 4.6097815e-40
6.1509414 -4.0938368 -0.95332319 3.6878252e-40
6.1410255 -4.1364079 -0.94364476 5.5317378e-40
6.1116381 -4.1495743 -0.94364476 2.7658689e-40
6.0881281 -4.1601067 -0.94364476 2.7658689e-40
6.0678129 -4.1310797 -0.95332319 1.8439126e-40
6.0470157 -4.1012096 -0.96327037 2.7658689e-40
6.0549293 -4.1341491 -0.94054633 2.7658689e-40
6.0303373 -4.1068611 -0.95466357 2.7658689e-40
6.0051718 -4.0787892 -0.96913749 1.8439126e-40
5.9846172 -4.0870781 -0.96478844 2.7658689e-40
5.9870186 -4.128089 -0.96327037 2.7658689e-40
6.2530427 -3.9603777 -0.93434519 2.7658689e-40
6.2406278 -4.0080948 -0.9331466 2.7658689e-40
6.2287893 -3.9712436 -0.93434519 3.6878252e-40
6.2189689 -4.0187087 -0.93744999 3.6878252e-40
6.204536 -3.9821095 -0.93434519 5.5317378e-40
6.19663 -4.0278063 -0.9331466 3.6878252e-40
6.1725416 -3.9973638 -0.93869418 4.6097815e-40
6.1504807 -4.0077076 -0.94086874 4.6097815e-40
6.1404629 -4.052515 -0.93099487 4.6097815e-40
6.1367369 -4.1320858 -0.91413468 5.5317378e-40
6.1360402 -4.0924034 -0.91499257 4.6097815e-40
6.1091423 -4.1440029 -0.91202682 2.7658689e-40
6.0797548 -4.1571689 -0.91202682 1.8439126e-40
6.0557456 -4.1665878 -0.90570325 2.7658689e-40
6.0417089 -4.1364675 -0.92351043 2.7658689e-40
6.0209785 -4.1074114 -0.93744999 2.7658689e-40
5.9994125 -4.0767689 -0.94739228 2.7658689e-40
6.0079598 -4.1105127 -0.9245398 2.7658689e-40
5.9867711 -4.0810518 -0.94086874 2.7658689e-40
5.9642978 -4.049407 -0.94415045 2.7658689e-40
6.2579093 -3.9930689 -0.89871943 2.7658689e-40
6.2509828 -3.95578 -0.90825099 2.7658689e-40
6.2267294 -3.966646 -0.90825093 3.6878252e-40
6.196413 -3.9802284 -0.90825099 4.6097815e-40
6.1721597 -3.9910944 -0.90825099 4.6097815e-40
6.1479063 -4.0019603 -0.90825099 4.6097815e-40
6.125916 -4.0522041 -0.89871943 6.4536941e-40
6.1297159 -4.0101099 -0.90825099 4.6097815e-40
6.1306553 -4.1290131 -0.88673252 6.4536941e-40
6.1071453 -4.1395459 -0.88673252 2.7658689e-40
6.0777583 -4.1527119 -0.88673252 1.8439126e-40
6.0542483 -4.1632452 -0.88673252 2.7658689e-40
6.0281525 -4.1380358 -0.90221566 2.7658689e-40
6.0361166 -4.1700301 -0.88040894 2.7658689e-40
6.0059218 -4.1059637 -0.89871943 2.7658689e-40
5.9841962 -4.075305 -0.90825099 2.7658689e-40
5.9744701 -4.0392704 -0.91778243 2.7658689e-40
6.2355323 -3.996721 -0.86859566 3.6878252e-40
6.212028 -3.9663317 -0.87563318 4.6097815e-40
6.1938381 -3.9744811 -0.87563318 4.6097815e-40
6.1695843 -3.985347 -0.87563318 4.6097815e-40
6.1453314 -3.996213 -0.87563318 4.6097815e-40
6.1233678 -4.0465174 -0.86644393 3.6878252e-40
6.127141 -4.0043621 -0.87563318 5.5317378e-40
6.1281595 -4.1234426 -0.85511464 4.6097815e-40
6.1089005 -4.1329622 -0.85933036 3.6878252e-40
6.1010523 -4.172843 -0.84658784 3.6878252e-40
6.0742865 -4.1481137 -0.85764408 2.7658689e-40
6.0576301 -4.1550407 -0.85511464 2.7658689e-40
6.031064 -4.1286221 -0.86388499 2.7658689e-40
6.0033741 -4.1002765 -0.86644393 2.7658689e-40
5.9811063 -4.068408 -0.86910963 2.7658689e-40
5.9723883 -4.0346241 -0.89141434 2.7658689e-40
6.2099681 -3.9617338 -0.84953898 3.6878252e-40
6.1917782 -3.9698832 -0.84953898 4.6097815e-40
6.1675243 -3.9807491 -0.84953898 4.6097815e-40
6.1432714 -3.9916151 -0.84953898 3.6878252e-40
6.1213298 -4.0419674 -0.84062356 4.6097815e-40
6.1250811 -3.9997644 -0.84953898 4.6097815e-40
6.1256633 -4.1178713 -0.8234967 4.6097815e-40
6.1151705 -4.1606898 -0.81904149 3.6878252e-40
6.0932565 -4.1710372 -0.82154578 4.6097815e-40
6.0712619 -4.1791258 -0.81319839 1.8439126e-40
6.0474634 -4.1533518 -0.82560456 2.7658689e-40
6.0316238 -4.1600027 -0.8234967 1.8439126e-40
6.0107293 -4.1309743 -0.83194286 1.8439126e-40
5.9888268 -4.0999656 -0.83416849 2.7658689e-40
5.9716487 -4.068965 -0.85171348 1.8439126e-40
5.955308 -4.0758257 -0.84953898 2.7658689e-40
6.2084231 -3.9582856 -0.82996827 6.4536941e-40
6.2071533 -3.9149413 -0.82285738 3.6878252e-40
6.1897182 -3.9652855 -0.82344472 5.5317378e-40
6.1867146 -3.9218669 -0.81231016 4.6097815e-40
6.1654649 -3.9761515 -0.82344472 4.6097815e-40
6.1412115 -3.9870174 -0.82344472 5.5317378e-40
6.1252913 -4.03473 -0.81480318 7.3756504e-40
6.1235366 -3.9963162 -0.82996827 5.5317378e-40
6.1236668 -4.1134143 -0.7982024 7.3756504e-40
6.1269627 -4.0721421 -0.80000067 4.6097815e-40
6.1140614 -4.1550941 -0.79024309 4.6097815e-40
6.0907855 -4.1655221 -0.79024309 3.6878252e-40
6.0675101 -4.1759501 -0.79024309 1.8439126e-40
6.0413823 -4.150279 -0.7982024 2.7658689e-40
6.0237498 -4.1581783 -0.7982024 2.7658689e-40
5.9968367 -4.1317921 -0.80638915 2.7658689e-40
5.9752989 -4.1019292 -0.81480318 1.8439126e-40
5.953763 -4.0723772 -0.82996827 2.7658689e-40
6.2043033 -3.94909 -0.77777982 4.6097815e-40
6.1979275 -3.9140539 -0.79912615 4.6097815e-40
6.1857243 -3.9596219 -0.78821748 4.6097815e-40
6.16289 -3.9704039 -0.79082698 5.5317378e-40
6.1386366 -3.9812698 -0.79082698 5.5317378e-40
6.1282334 -4.025218 -0.77607262 4.6097815e-40
6.1214767 -3.9917183 -0.80387408 4.6097815e-40
6.1295404 -4.1428609 -0.76520103 3.6878252e-40
6.1249456 -4.0676389 -0.77444696 4.6097815e-40
6.1120844 -4.1506815 -0.76520103 4.6097815e-40
6.0888085 -4.1611094 -0.76520103 4.6097815e-40
6.0619431 -4.1728811 -0.76394892 1.8439126e-40
6.0398846 -4.1469364 -0.77923167 2.7658689e-40
6.0212536 -4.1526074 -0.76658452 2.7658689e-40
5.9943151 -4.1261635 -0.77444696 2.7658689e-40
5.9801116 -4.1710401 -0.76658452 2.7658689e-40
5.982944 -4.1326098 -0.78083539 2.7658689e-40
5.9657316 -4.0966558 -0.7696175 1.8439126e-40
6.2060213 -3.9844496 -0.74810052 3.6878252e-40
6.1850834 -3.9549403 -0.76473272 3.6878252e-40
6.1780229 -3.9969935 -0.74810052 7.3756504e-40
6.1526957 -4.009069 -0.75154328 6.4536941e-40
6.1416855 -4.0906248 -0.72864306 3.6878252e-40
6.1402373 -4.0540304 -0.74250478 4.6097815e-40
6.1297321 -4.1354904 -0.73076814 5.5317378e-40
6.130929 -4.0981197 -0.74129021 3.6878252e-40
6.1096129 -4.1451664 -0.73389846 3.6878252e-40
6.0936651 -4.1871853 -0.71411175 2.7658689e-40
6.086832 -4.1566973 -0.74015892 2.7658689e-40
6.0706244 -4.1975079 -0.71411175 2.7658689e-40
6.0558634 -4.1700039 -0.73747587 1.8439126e-40
6.0329795 -4.1768503 -0.72137737 3.6878252e-40
6.0106297 -4.1509461 -0.73623133 1.8439126e-40
5.9739804 -4.1285162 -0.74250478 2.7658689e-40
5.9467134 -4.1024446 -0.75670731 1.8439126e-40
5.9556627 -4.1353712 -0.73611635 2.7658689e-40
6.2219734 -4.0493035 -0.7033487 5.5317378e-40
6.2094727 -4.0176048 -0.71695101 7.3756504e-40
6.1966629 -3.9850004 -0.73088694 4.6097815e-40
6.1852179 -4.0271206 -0.71056259 4.6097815e-40
6.1786637 -3.9930644 -0.73088694 4.6097815e-40
6.1614666 -4.0377612 -0.71056259 4.6097815e-40
6.154665 -4.0038166 -0.73088694 4.6097815e-40
6.1460652 -4.0846491 -0.70967227 8.2976067e-40
6.1446619 -4.0479937 -0.72333944 5.5317378e-40
6.1440396 -4.1606827 -0.69551933 5.5317378e-40
6.1362362 -4.126616 -0.70259577 5.5317378e-40
6.1185966 -4.1718197 -0.69427985 4.6097815e-40
6.0921974 -4.1839094 -0.69551933 2.7658689e-40
6.0670733 -4.1947289 -0.69345343 1.8439126e-40
6.0510578 -4.1652193 -0.70468259 2.7658689e-40
6.0274529 -4.1749115 -0.70050895 2.7658689e-40
6.0032134 -4.1490955 -0.71178013 1.8439126e-40
5.9814963 -4.1583786 -0.70967227 1.8439126e-40
6.2204757 -4.0459604 -0.68437797 3.6878252e-40
6.2028432 -4.0538602 -0.68437797 5.5317378e-40
6.1734557 -4.0670261 -0.68437797 5.5317378e-40
6.1570406 -4.110673 -0.67129314 3.6878252e-40
6.1504455 -4.0786734 -0.69070154 3.6878252e-40
6.1420827 -4.1563148 -0.67072946 3.6878252e-40
6.1458974 -4.1169901 -0.67755365 4.6097815e-40
6.1190414 -4.1666374 -0.67072952 4.6097815e-40
6.0902405 -4.1795411 -0.67072946 2.7658689e-40
6.0729599 -4.1872835 -0.67072946 1.8439126e-40
6.0469766 -4.1613078 -0.67755365 1.8439126e-40
6.0237012 -4.1717358 -0.67755365 1.8439126e-40
5.9976311 -4.1471367 -0.69070154 1.8439126e-40
6.0057507 -4.1784534 -0.67129314 1.8439126e-40
5.9794998 -4.1539221 -0.68437797 1.8439126e-40
6.233614 -3.9919221 -0.64667821 3.6878252e-40
6.2275653 -3.9574988 -0.666336 5.5317378e-40
6.2206688 -4.038516 -0.6495983 4.6097815e-40
6.2227473 -3.9994938 -0.65945512 5.5317378e-40
6.2048349 -4.0821962 -0.63790369 4.6097815e-40
6.2029719 -4.0488968 -0.66119152 4.6097815e-40
6.1851244 -4.0922632 -0.64374685 4.6097815e-40
6.1719584 -4.0636835 -0.66540724 3.6878252e-40
6.1697054 -4.1356354 -0.63147873 4.6097815e-40
6.1596022 -4.1059933 -0.65459841 4.6097815e-40
6.1504169 -4.1809015 -0.62523741 3.6878252e-40
6.1479692 -4.1488705 -0.64800531 3.6878252e-40
6.1351938 -4.2232676 -0.61917967 4.6097815e-40
6.1306348 -4.1927929 -0.63955522 4.6097815e-40
6.1175742 -4.1633615 -0.65213704 3.6878252e-40
6.1141644 -4.2318325 -0.61512846 3.6878252e-40
6.1073375 -4.2019329 -0.63341904 3.6878252e-40
6.0887728 -4.1762652 -0.65213704 3.6878252e-40
6.0972204 -4.2394238 -0.61512846 4.6097815e-40
6.0840397 -4.211072 -0.6272828 3.6878252e-40
6.063797 -4.1853571 -0.64222109 1.8439126e-40
6.0373182 -4.1959457 -0.63620073 1.8439126e-40
6.0222187 -4.1684265 -0.65877211 2.7658689e-40
6.000617 -4.1747928 -0.64312083 1.8439126e-40
5.976028 -4.1493235 -0.65528953 1.8439126e-40
5.9496107 -4.1218634 -0.65945512 1.8439126e-40
6.2389936 -4.0242853 -0.62114221 4.6097815e-40
6.2234869 -4.0316792 -0.62325007 4.6097815e-40
6.2173448 -4.1081734 -0.6025573 4.6097815e-40
6.2166004 -4.0720682 -0.61494845 6.4536941e-40
6.2070904 -4.1494517 -0.59660172 4.6097815e-40
6.2010422 -4.1180992 -0.61495221 7.3756504e-40
6.1842775 -4.1596727 -0.59660172 4.6097815e-40
6.1722412 -4.1310034 -0.61495215 5.5317378e-40
6.1538672 -4.174336 -0.6015107 4.6097815e-40
6.1353173 -4.2184982 -0.5968982 3.6878252e-40
6.1127253 -4.2286205 -0.5968982 4.6097815e-40
6.091856 -4.2375417 -0.59487259 3.6878252e-40
6.0689559 -4.2130699 -0.60478336 2.7658689e-40
6.0335059 -4.1918473 -0.60875481 1.8439126e-40
6.0099754 -4.2010784 -0.6025573 2.7658689e-40
5.9874363 -4.1750026 -0.61620057 1.8439126e-40
5.9573746 -4.1517935 -0.62746578 2.7658689e-40
6.2538729 -4.0460978 -0.57112479 5.5317378e-40
6.2374959 -4.0209427 -0.60217142 3.6878252e-40
6.2369103 -4.0550218 -0.57738531 6.4536941e-40
6.2257409 -4.0262094 -0.60217142 3.6878252e-40
6.226419 -4.0975523 -0.57156998 4.6097815e-40
6.2209363 -4.0661516 -0.59616685 3.6878252e-40
6.2176399 -4.1751885 -0.56651437 4.6097815e-40
6.2222629 -4.1374617 -0.57205689 4.6097815e-40
6.2130289 -4.2118292 -0.56113982 5.5317378e-40
6.1936355 -4.1859431 -0.56651431 4.6097815e-40
6.1673231 -4.2297602 -0.54910159 4.6097815e-40
6.168129 -4.1978846 -0.56894511 5.5317378e-40
6.1489911 -4.238821 -0.55311441 3.6878252e-40
6.1391425 -4.2118993 -0.57380652 3.6878252e-40
6.1225672 -4.2498112 -0.54910159 3.6878252e-40
6.1116486 -4.2231889 -0.56894511 3.6878252e-40
6.0877347 -4.2333879 -0.56651437 4.6097815e-40
6.0616016 -4.2068443 -0.55978447 2.7658689e-40
6.07127 -4.2420502 -0.57259113 1.8439126e-40
6.0511637 -4.2141171 -0.57205689 1.8439126e-40
6.0252995 -4.1889677 -0.57776749 1.8439126e-40
5.9871936 -4.1682234 -0.58364588 1.8439126e-40
5.9639182 -4.1786518 -0.58364582 1.8439126e-40
6.2687674 -3.9962301 -0.55158281 3.6878252e-40
6.2523899 -4.0427885 -0.55234319 4.6097815e-40
6.2570124 -4.0014963 -0.55158281 3.6878252e-40
6.2396598 -4.0859385 -0.54471421 3.6878252e-40
6.2412467 -4.0491056 -0.5586037 5.5317378e-40
6.2312474 -4.126945 -0.54137582 4.6097815e-40
6.2208896 -4.1673045 -0.53613061 3.6878252e-40
6.2030354 -4.2095146 -0.52903795 4.6097815e-40
6.2044249 -4.1759667 -0.54220736 4.6097815e-40
6.1798835 -4.2203121 -0.53104424 4.6097815e-40
6.1705365 -4.1911492 -0.54220736 5.5317378e-40
6.1725636 -4.2569666 -0.51999646 4.6097815e-40
6.1491137 -4.2340975 -0.53104424 4.6097815e-40
6.139318 -4.2718611 -0.51999646 3.6878252e-40
6.1213794 -4.24716 -0.5340538 5.5317378e-40
6.1018004 -4.2193727 -0.53005385 4.6097815e-40
6.0853362 -4.228035 -0.53613061 5.5317378e-40
6.0683918 -4.2356262 -0.53613061 1.8439126e-40
6.0487413 -4.2087107 -0.54137582 1.8439126e-40
6.0228534 -4.1835079 -0.54678011 1.8439126e-40
5.9871492 -4.1618862 -0.5535953 1.8439126e-40
5.9798174 -4.2382922 -0.53523964 2.7658689e-40
5.9820423 -4.2004809 -0.5405826 1.8439126e-40
5.9619417 -4.1742392 -0.5586037 1.8439126e-40
6.2816119 -4.0248404 -0.52938795 3.6878252e-40
6.2667704 -3.9917731 -0.52628851 3.6878252e-40
6.2620511 -4.0331621 -0.52730113 6.4536941e-40
6.2486706 -4.0777493 -0.52508897 4.6097815e-40
6.248415 -4.1470013 -0.49845466 3.6878252e-40
6.2297945 -4.1237016 -0.52296716 1.1063476e-39
6.2301803 -4.1901379 -0.49492958 5.5317378e-40
6.217248 -4.1642218 -0.51384914 5.5317378e-40
6.202683 -4.2037306 -0.50094867 5.5317378e-40
6.1928444 -4.2428355 -0.49615064 4.6097815e-40
6.1747108 -4.2162628 -0.50094867 4.6097815e-40
6.170681 -4.2527652 -0.49615064 5.5317378e-40
6.1467381 -4.2287946 -0.50094867 5.5317378e-40
6.1383767 -4.2697601 -0.50807357 3.6878252e-40
6.1172485 -4.2416887 -0.49944386 4.6097815e-40
6.0963879 -4.2513523 -0.50094873 4.6097815e-40
6.0818081 -4.223187 -0.50574678 3.6878252e-40
6.0612831 -4.2318683 -0.50331604 1.8439126e-40
6.0380068 -4.2076788 -0.51376283 1.8439126e-40
6.0151362 -4.1817207 -0.52199024 1.8439126e-40
6.0225377 -4.2113638 -0.49842232 1.8439126e-40
6.0036159 -4.1868825 -0.52199024 1.8439126e-40
5.9827461 -4.1582956 -0.52730113 1.8439126e-40
5.9765716 -4.1985617 -0.51992434 1.8439126e-40
5.9599648 -4.1698265 -0.53356165 1.8439126e-40
6.2997241 -4.045042 -0.47860795 4.6097815e-40
6.2780023 -4.0188637 -0.4934943 3.6878252e-40
6.2657719 -3.9895446 -0.51364136 3.6878252e-40
6.2595801 -4.027647 -0.4959985 3.6878252e-40
6.254436 -4.1022758 -0.47387746 6.4536941e-40
6.2551098 -4.068964 -0.49720034 6.4536941e-40
6.2421694 -4.1451712 -0.47657833 4.6097815e-40
6.2226849 -4.1884012 -0.47085315 4.6097815e-40
6.202044 -4.2336693 -0.47230482 3.6878252e-40
6.2020135 -4.197238 -0.46884686 7.3756504e-40
6.17941 -4.242548 -0.46634334 4.6097815e-40
6.1835237 -4.2059464 -0.47085315 4.6097815e-40
6.1572461 -4.2524776 -0.46634337 6.4536941e-40
6.1163902 -4.2360239 -0.47085309 3.6878252e-40
6.0944872 -4.2471099 -0.47687227 6.4536941e-40
6.0784965 -4.217814 -0.47333741 5.5317378e-40
6.0579467 -4.2274494 -0.47536299 2.7658689e-40
6.0324907 -4.2030096 -0.48001367 1.8439126e-40
6.0117116 -4.174077 -0.47860795 1.8439126e-40
6.0158653 -4.2117558 -0.48614988 1.8439126e-40
5.9973292 -4.1831427 -0.4910028 1.8439126e-40
5.9744558 -4.1553869 -0.4959985 1.8439126e-40
5.9781284 -4.1917448 -0.49100286 1.8439126e-40
5.9569993 -4.163208 -0.4959985 1.8439126e-40
6.3047967 -4.077117 -0.46160504 3.6878252e-40
6.2904129 -4.0448437 -0.45794964 3.6878252e-40
6.2692409 -4.0180206 -0.47095641 3.6878252e-40
6.2673721 -4.0551662 -0.45794964 2.7658689e-40
6.2529826 -4.0990324 -0.45546883 3.6878252e-40
6.235043 -4.143393 -0.45308152 3.6878252e-40
6.2353883 -4.1056166 -0.44933262 4.6097815e-40
6.2177496 -4.1848826 -0.44376716 4.6097815e-40
6.2193418 -4.1487131 -0.44497916 5.5317378e-40
6.1982789 -4.2252655 -0.42461312 4.6097815e-40
6.1992402 -4.1930475 -0.44316527 4.6097815e-40
6.1770568 -4.2372961 -0.43653604 5.5317378e-40
6.1766725 -4.2026491 -0.4407576 4.6097815e-40
6.1597023 -4.2460804 -0.44130522 5.5317378e-40
6.1415114 -4.2171283 -0.43473849 5.5317378e-40
6.1140146 -4.230721 -0.44075754 4.6097815e-40
6.0855665 -4.2421923 -0.43473849 4.6097815e-40
6.0790997 -4.2141151 -0.4571327 5.5317378e-40
6.0560279 -4.2231665 -0.45105594 1.8439126e-40
6.0305533 -4.1986847 -0.45546883 1.8439126e-40
6.0191464 -4.203795 -0.45546883 1.8439126e-40
5.99472 -4.177319 -0.45794964 1.8439126e-40
5.9724789 -4.1509748 -0.47095641 2.7658689e-40
6.2842898 -4.0414681 -0.42902812 5.5317378e-40
6.2900453 -4.0020771 -0.43965378 3.6878252e-40
6.267498 -4.0503016 -0.43522567 5.5317378e-40
6.2524619 -4.0927749 -0.42478776 6.4536941e-40
6.2487497 -4.0547681 -0.41663328 3.6878252e-40
6.2402897 -4.1349201 -0.42414454 4.6097815e-40
6.2235279 -4.1752901 -0.41066206 4.6097815e-40
6.2183824 -4.1465716 -0.43282565 4.6097815e-40
6.2056384 -4.2179322 -0.40553647 4.6097815e-40
6.1802444 -4.2295618 -0.40672874 3.6878252e-40
6.1525402 -4.2419739 -0.40672874 4.6097815e-40
6.1116385 -4.2254181 -0.410662 3.6878252e-40
6.0836663 -4.2379503 -0.41066206 3.6878252e-40
6.0536294 -4.2178125 -0.42067212 2.7658689e-40
6.0281315 -4.1932783 -0.42478779 1.8439126e-40
6.0087762 -4.1675248 -0.44142312 1.8439126e-40
6.0244298 -4.228323 -0.40851861 1.8439126e-40
6.0167246 -4.1983891 -0.42478776 2.7658689e-40
5.9962773 -4.1705027 -0.42902812 1.8439126e-40
5.9758272 -4.1428518 -0.43965378 2.7658689e-40
6.2812948 -3.9611845 -0.41246408 3.6878252e-40
6.2720571 -4.0035133 -0.40835124 3.6878252e-40
6.2526608 -4.0122032 -0.40835118 3.6878252e-40
6.2543263 -4.0867462 -0.40024292 3.6878252e-40
6.2467928 -4.0503998 -0.39184338 3.6878252e-40
6.2430549 -4.1589003 -0.37454739 4.6097815e-40
6.2453074 -4.1259375 -0.3923139 3.6878252e-40
6.2277594 -4.2019677 -0.37692145 4.6097815e-40
6.2278657 -4.1669788 -0.38056651 5.5317378e-40
6.2114859 -4.2417021 -0.36146873 4.6097815e-40
6.207448 -4.2117882 -0.380328 4.6097815e-40
6.187026 -4.2532849 -0.36442065 6.4536941e-40
6.180366 -4.2248826 -0.38487005 5.5317378e-40
6.1630321 -4.2659078 -0.37327644 3.6878252e-40
6.1391053 -4.2416863 -0.37692145 5.5317378e-40
6.1280236 -4.2466512 -0.37692145 7.3756504e-40
6.1060662 -4.2215481 -0.38056645 4.6097815e-40
6.0825996 -4.2325702 -0.38297415 3.6878252e-40
6.0512309 -4.2124586 -0.39028829 1.8439126e-40
6.0257092 -4.1878724 -0.39410669 1.8439126e-40
6.0053515 -4.1598806 -0.39804083 2.7658689e-40
5.9811144 -4.1338606 -0.40835118 1.8439126e-40
6.2681408 -3.99997 -0.38330907 3.6878252e-40
6.2621164 -4.03829 -0.36705348 3.6878252e-40
6.2506843 -4.0077906 -0.38330907 4.6097815e-40
6.2452321 -4.0817332 -0.3572894 5.5317378e-40
6.2458143 -4.0482159 -0.37944844 4.6097815e-40
6.2349787 -4.1230659 -0.35686612 3.6878252e-40
6.2187767 -4.1646843 -0.35047093 5.5317378e-40
6.2100873 -4.2385812 -0.3437573 6.4536941e-40
6.2147956 -4.2027311 -0.35307562 6.4536941e-40
6.2011466 -4.2736082 -0.32686019 6.4536941e-40
6.1860366 -4.2496061 -0.34493807 6.4536941e-40
6.1607018 -4.2607069 -0.3437573 6.4536941e-40
6.1372228 -4.2374849 -0.35307562 4.6097815e-40
6.1382861 -4.2695003 -0.33785349 5.5317378e-40
6.1201296 -4.2438817 -0.34711415 3.6878252e-40
6.099586 -4.2185073 -0.35247737 3.6878252e-40
6.0806208 -4.2261553 -0.34846461 3.6878252e-40
6.0662565 -4.2005849 -0.36598128 3.6878252e-40
6.0488324 -4.2071052 -0.3599045 2.7658689e-40
6.0232873 -4.1824665 -0.36342558 1.8439126e-40
6.0033946 -4.1555128 -0.37325099 2.7658689e-40
5.9825225 -4.1266074 -0.37704855 2.7658689e-40
6.2784185 -4.0283642 -0.35465854 7.3756504e-40
6.2749052 -4.0638952 -0.33581266 5.5317378e-40
6.2601595 -4.0339222 -0.34226364 5.5317378e-40
6.2432947 -4.0774083 -0.33274454 5.5317378e-40
6.2271714 -4.1207781 -0.3295207 4.6097815e-40
6.216876 -4.1604414 -0.3263945 4.6097815e-40
6.207757 -4.2333803 -0.31423828 3.6878252e-40
6.2119718 -4.1964283 -0.31730688 5.5317378e-40
6.1976418 -4.2706413 -0.30541769 8.2976067e-40
6.1757655 -4.2502108 -0.3260459 4.6097815e-40
6.1813354 -4.2779469 -0.30541769 5.5317378e-40
6.1583714 -4.2555051 -0.31423834 4.6097815e-40
6.1343994 -4.2311821 -0.31730685 4.6097815e-40
6.1272769 -4.2694368 -0.31423828 4.6097815e-40
6.1159296 -4.2394571 -0.31730685 4.6097815e-40
6.0981483 -4.2467928 -0.31432614 3.6878252e-40
6.077014 -4.2231021 -0.3263945 3.6878252e-40
6.0429492 -4.2030559 -0.32830533 1.8439126e-40
6.0213499 -4.1781416 -0.33888078 1.8439126e-40
6.0009484 -4.150053 -0.34226358 1.8439126e-40
6.0115585 -4.2836943 -0.30538392 2.7658689e-40
6.2922025 -4.0490055 -0.30206347 3.6878252e-40
6.2754831 -4.021812 -0.31747377 4.6097815e-40
6.2693892 -4.0592265 -0.30206347 3.6878252e-40
6.2597966 -4.0279655 -0.31334203 4.6097815e-40
6.2530136 -4.1027722 -0.29913691 3.6878252e-40
6.2361383 -4.0767198 -0.31433591 3.6878252e-40
6.2323041 -4.1120505 -0.29913688 5.5317378e-40
6.2211714 -4.1872625 -0.29346102 5.5317378e-40
6.2198572 -4.152102 -0.29328939 4.6097815e-40
6.2107167 -4.2561235 -0.26448196 5.5317378e-40
6.2054272 -4.228179 -0.28471923 4.6097815e-40
6.2096186 -4.1911764 -0.28749955 3.6878252e-40
6.1956482 -4.2958374 -0.26203755 4.6097815e-40
6.1966057 -4.2654152 -0.27851698 4.6097815e-40
6.1694002 -4.2767992 -0.27471587 4.6097815e-40
6.1510201 -4.2538033 -0.29062304 4.6097815e-40
6.1325169 -4.2269812 -0.29346102 4.6097815e-40
6.1405182 -4.2888107 -0.27032989 4.6097815e-40
6.1235833 -4.2660952 -0.29062304 3.6878252e-40
6.1154232 -4.2998066 -0.26916027 4.6097815e-40
6.1011682 -4.274888 -0.28471923 3.6878252e-40
6.0826492 -4.2493224 -0.29346102 5.5317378e-40
6.069994 -4.2224269 -0.30833715 2.7658689e-40
6.08424 -4.2812233 -0.27881539 2.7658689e-40
6.0650849 -4.2546687 -0.2815381 1.8439126e-40
6.0522604 -4.2278252 -0.29629895 2.7658689e-40
6.0336986 -4.2036004 -0.31129044 2.7658689e-40
6.0238128 -4.2392969 -0.29027978 2.7658689e-40
6.0111065 -4.2137222 -0.31129044 2.7658689e-40
6.0019102 -4.2503824 -0.29629895 2.7658689e-40
5.9809475 -4.2220912 -0.28698337 2.7658689e-40
5.9216585 -4.1035776 -0.32393396 2.7658689e-40
5.9288902 -4.1744699 -0.3050788 1.8439126e-40
5.9140673 -4.1453557 -0.32070383 1.8439126e-40
5.8932695 -4.1189718 -0.33658114 2.7658689e-40
5.905849 -4.184792 -0.30507883 2.7658689e-40
5.8822498 -4.1585507 -0.31569541 1.8439126e-40
5.8756371 -4.1268716 -0.33658114 1.8439126e-40
5.8712873 -4.2002764 -0.30507883 2.7658689e-40
6.2907495 -4.0457621 -0.28365484 3.6878252e-40
6.2735267 -4.0174437 -0.29268387 4.6097815e-40
6.2634878 -4.0562449 -0.27547324 4.6097815e-40
6.2620058 -4.0226049 -0.29268387 6.4536941e-40
6.2506151 -4.0974188 -0.26875308 4.6097815e-40
6.2340269 -4.1387501 -0.26018426 5.5317378e-40
6.2357135 -4.1045232 -0.27077869 4.6097815e-40
6.2245798 -4.2121034 -0.24929638 3.6878252e-40
6.2257352 -4.1776495 -0.25769225 4.6097815e-40
6.2237883 -4.1458836 -0.27222249 5.5317378e-40
6.216733 -4.2501287 -0.24888739 4.6097815e-40
6.2150035 -4.2201409 -0.2670078 5.5317378e-40
6.2065601 -4.2855549 -0.23654436 5.5317378e-40
6.1989226 -4.2589331 -0.25278604 4.6097815e-40
6.1893859 -4.3255348 -0.23089388 4.6097815e-40
6.1785779 -4.3010335 -0.25044975 4.6097815e-40
6.1643381 -4.3363514 -0.22898062 3.6878252e-40
6.1514235 -4.3125863 -0.2475528 5.5317378e-40
6.1429987 -4.345912 -0.22898062 3.6878252e-40
6.1229172 -4.3240089 -0.24117951 4.6097815e-40
6.1010852 -4.3027658 -0.25278604 4.6097815e-40
6.1071987 -4.3293352 -0.23306802 3.6878252e-40
6.0843177 -4.3090405 -0.24693805 1.8439126e-40
6.0720229 -4.2833662 -0.26307189 3.6878252e-40
6.053062 -4.2575326 -0.26961517 1.8439126e-40
6.0675497 -4.3153157 -0.24109012 1.8439126e-40
6.0415144 -4.293704 -0.24732843 1.8439126e-40
6.0379725 -4.2634525 -0.26564085 1.8439126e-40
6.0107231 -4.240067 -0.26620337 2.7658689e-40
5.9990592 -4.2440195 -0.26018426 2.7658689e-40
5.977345 -4.2201052 -0.26996845 2.7658689e-40
5.9569159 -4.229001 -0.26875308 2.7658689e-40
5.9397531 -4.2023649 -0.28058675 1.8439126e-40
5.9252529 -4.2082129 -0.27751863 2.7658689e-40
5.9007044 -4.1836004 -0.28855219 1.8439126e-40
5.8745785 -4.155983 -0.28731439 1.8439126e-40
5.8623028 -4.2008057 -0.28855219 1.8439126e-40
5.8587322 -4.1621995 -0.28314069 1.8439126e-40
6.2710805 -4.0119839 -0.26169655 4.6097815e-40
6.2626514 -4.0503016 -0.24561031 3.6878252e-40
6.2486963 -4.0931358 -0.24444605 5.5317378e-40
6.2321262 -4.1345072 -0.23610792 3.6878252e-40
6.2374001 -4.0981965 -0.24444605 4.6097815e-40
6.2222495 -4.206902 -0.21977733 3.6878252e-40
6.2270765 -4.170743 -0.22788496 4.6097815e-40
6.2222428 -4.2410617 -0.21769822 4.6097815e-40
6.2139568 -4.3380227 -0.18897888 5.5317378e-40
6.2089128 -4.3119287 -0.20793444 3.6878252e-40
6.2130723 -4.276999 -0.20989236 6.4536941e-40
6.2101049 -4.3718348 -0.19293998 7.3756504e-40
6.1965771 -4.3488173 -0.20319791 4.6097815e-40
6.1778502 -4.3566055 -0.20035411 5.5317378e-40
6.1555638 -4.3358297 -0.20793444 4.6097815e-40
6.1448936 -4.3406105 -0.20793444 3.6878252e-40
6.1234717 -4.3175497 -0.21182373 3.6878252e-40
6.1032891 -4.2931175 -0.21185032 3.6878252e-40
6.0883679 -4.303514 -0.2293942 1.8439126e-40
6.0795794 -4.2708206 -0.21977733 1.8439126e-40
6.0557795 -4.2487478 -0.23384641 1.8439126e-40
6.0465584 -4.2150984 -0.22406961 1.8439126e-40
6.0336161 -4.2586775 -0.23384641 1.8439126e-40
6.0192199 -4.229044 -0.23209512 1.8439126e-40
5.999702 -4.2034035 -0.23836929 1.8439126e-40
5.983717 -4.2131367 -0.25052282 2.7658689e-40
5.9575353 -4.1885567 -0.25297379 2.7658689e-40
5.9404249 -4.1962223 -0.25297379 1.8439126e-40
5.9134555 -4.1708946 -0.25549906 1.8439126e-40
5.9029136 -4.1782398 -0.26789403 3.6878252e-40
5.8805251 -4.1484623 -0.26435912 2.7658689e-40
5.857892 -4.1187677 -0.26069817 1.8439126e-40
5.8519249 -4.1626005 -0.27061963 1.8439126e-40
5.846137 -4.1240339 -0.26069817 1.8439126e-40
6.2681451 -4.0054321 -0.22451174 3.6878252e-40
6.2592101 -4.0452409 -0.21440333 5.5317378e-40
6.2462978 -4.0877819 -0.21406226 1.0141519e-39
6.2348638 -4.1584253 -0.18615475 6.4536941e-40
6.2297506 -4.1292048 -0.20601229 1.1063476e-39
6.2350016 -4.0928431 -0.21406226 5.5317378e-40
6.2308941 -4.196784 -0.19025828 5.5317378e-40
6.2256646 -4.1675916 -0.21000059 4.6097815e-40
6.2206411 -4.265027 -0.16933499 5.5317378e-40
6.2210212 -4.2354221 -0.1884585 7.3756504e-40
6.2126098 -4.3350163 -0.17191601 9.219563e-40
6.2164111 -4.3000689 -0.1677554 5.5317378e-40
6.2112427 -4.2729154 -0.18671674 4.6097815e-40
6.2059851 -4.3673196 -0.16287503 4.6097815e-40
6.1910152 -4.3434877 -0.1662284 6.4536941e-40
6.1775169 -4.3511391 -0.17381197 4.6097815e-40
6.1557388 -4.329072 -0.17636518 4.6097815e-40
6.1344786 -4.3036299 -0.16933499 5.5317378e-40
6.1430817 -4.336565 -0.18497497 5.5317378e-40
6.1246228 -4.3104963 -0.18092288 3.6878252e-40
6.1068778 -4.2865605 -0.1884585 5.5317378e-40
6.0886903 -4.2617435 -0.1961621 2.7658689e-40
6.0695782 -4.2349977 -0.19807766 1.8439126e-40
6.0471563 -4.2114344 -0.20801872 1.8439126e-40
6.0235009 -4.1858845 -0.2059599 1.8439126e-40
6.009079 -4.1940603 -0.21406226 2.7658689e-40
5.9940672 -4.1631021 -0.21002027 2.7658689e-40
5.8804035 -4.1060061 -0.24805102 2.7658689e-40
5.8686485 -4.1112728 -0.24805102 2.7658689e-40
6.2781978 -3.9969945 -0.20591934 5.5317378e-40
6.2601857 -4.0386834 -0.18547542 4.6097815e-40
6.2438989 -4.082428 -0.18367846 6.4536941e-40
6.2334518 -4.1552739 -0.16827038 4.6097815e-40
6.2385635 -4.1188889 -0.17591682 5.5317378e-40
6.2290297 -4.1926231 -0.16664305 4.6097815e-40
6.2251115 -4.2605729 -0.15774716 5.5317378e-40
6.2202172 -4.2287717 -0.15532005 4.6097815e-40
6.215651 -4.3276372 -0.14347795 4.6097815e-40
6.2136927 -4.2940006 -0.13331619 4.6097815e-40
6.2080412 -4.265769 -0.14615937 2.0283039e-39
6.2113395 -4.360548 -0.14220542 7.3756504e-40
6.1921449 -4.3365636 -0.13589452 5.5317378e-40
6.1719193 -4.3151445 -0.14479592 4.6097815e-40
6.1702681 -4.3467665 -0.13779031 5.5317378e-40
6.1563673 -4.3233261 -0.15053582 4.6097815e-40
6.1331062 -4.3005667 -0.15195328 3.6878252e-40
6.1336684 -4.3298521 -0.13331619 4.6097815e-40
6.1169505 -4.3078051 -0.15195328 2.7658689e-40
6.0991344 -4.283844 -0.1592187 2.7658689e-40
6.0858936 -4.2555017 -0.16073926 1.8439126e-40
6.0710759 -4.2284412 -0.17025755 1.8439126e-40
6.0483518 -4.2041068 -0.17591682 1.8439126e-40
6.0236249 -4.1811152 -0.18367846 2.7658689e-40
6.0066805 -4.1887064 -0.18367846 2.7658689e-40
5.9864264 -4.1613321 -0.18547545 2.7658689e-40
5.9786649 -4.1311903 -0.20591934 3.6878252e-40
6.2804685 -4.092474 -0.13980208 4.6097815e-40
6.2716236 -4.0635791 -0.15329462 3.6878252e-40
6.2525449 -4.0369139 -0.16093057 4.6097815e-40
6.2415004 -4.077075 -0.15329465 4.6097815e-40
6.2315698 -4.151072 -0.14442454 4.6097815e-40
6.2361879 -4.1135859 -0.14582118 8.2976067e-40
6.2327113 -4.217813 -0.1299789 4.6097815e-40
6.2321868 -4.1849637 -0.137124 6.4536941e-40
6.221107 -4.2545214 -0.12066614 4.6097815e-40
6.222302 -4.2237139 -0.13582686 1.1063476e-39
6.211195 -4.3224134 -0.10935222 4.6097815e-40
6.2123332 -4.2909665 -0.11609656 6.4536941e-40
6.2003088 -4.3579931 -0.10677166 4.6097815e-40
6.171103 -4.3690333 -0.097107984 5.5317378e-40
6.1692038 -4.3420291 -0.11314386 3.6878252e-40
6.1610689 -4.3747215 -0.10274517 3.6878252e-40
6.138948 -4.3547821 -0.10935216 5.5317378e-40
6.1092787 -4.3051128 -0.12298375 9.219563e-40
6.0918522 -4.2821569 -0.13582686 2.7658689e-40
6.0980511 -4.308917 -0.11718974 2.7658689e-40
6.0800586 -4.2849665 -0.1241309 2.7658689e-40
6.0735211 -4.2572975 -0.14302783 1.8439126e-40
6.0403814 -4.2013106 -0.14582118 2.7658689e-40
6.0199833 -4.1780324 -0.16139695 2.7658689e-40
6.0231228 -4.2077694 -0.13980208 2.7658689e-40
6.0014582 -4.184618 -0.15329465 1.8439126e-40
6.2795181 -4.090353 -0.12776379 3.6878252e-40
6.2673421 -4.0590687 -0.12291081 6.4536941e-40
6.2470288 -4.0322447 -0.12718137 4.6097815e-40
6.2391019 -4.0717211 -0.12291081 4.6097815e-40
6.2338123 -4.108283 -0.11572562 4.6097815e-40
6.2304029 -4.2126608 -0.10073906 4.6097815e-40
6.2353439 -4.1773038 -0.10760496 5.5317378e-40
6.2254653 -4.2469301 -0.094014145 4.6097815e-40
6.2107124 -4.3166132 -0.08091408 1.0141519e-39
6.2207375 -4.2811289 -0.087397255 1.0141519e-39
6.192678 -4.3540006 -0.071740724 5.5317378e-40
6.1948533 -4.3237185 -0.08091408 3.6878252e-40
6.1651597 -4.336781 -0.079776615 4.6097815e-40
6.1597338 -4.3717413 -0.085833661 3.6878252e-40
6.136703 -4.3497705 -0.08091408 5.5317378e-40
6.1140389 -4.3289318 -0.087397255 2.7658689e-40
6.0962214 -4.3048339 -0.094014145 1.8439126e-40
6.0782118 -4.2808452 -0.10073906 2.7658689e-40
6.0597501 -4.2559729 -0.10760496 1.8439126e-40
6.0445204 -4.2285671 -0.1146172 1.8439126e-40
6.0333614 -4.200635 -0.12776379 2.7658689e-40
6.0181875 -4.2042499 -0.11271603 2.7658689e-40
6.0018835 -4.1779985 -0.12291081 2.7658689e-40
5.9820671 -4.1516013 -0.13024947 2.7658689e-40
6.2715511 -4.0533266 -0.10468052 3.6878252e-40
6.2510262 -4.0243526 -0.098341197 3.6878252e-40
6.2426252 -4.0979671 -0.085630052 4.6097815e-40
6.2423515 -4.0638371 -0.09252701 4.6097815e-40
6.2379456 -4.135603 -0.084809922 9.219563e-40
6.2280946 -4.207509 -0.071499236 5.5317378e-40
6.2330136 -4.1721025 -0.078085907 5.5317378e-40
6.2286887 -4.2702808 -0.052958053 4.6097815e-40
6.2236362 -4.2428465 -0.070838489 4.6097815e-40
6.2106047 -4.3103013 -0.050850935 3.6878252e-40
6.218472 -4.2760725 -0.05869795 4.6097815e-40
6.1932955 -4.3483572 -0.046373472 4.6097815e-40
6.1723375 -4.3577466 -0.046373472 3.6878252e-40
6.1570201 -4.3356142 -0.057026073 3.6878252e-40
6.1392956 -4.3413897 -0.046788387 3.6878252e-40
6.1204 -4.3202534 -0.05984595 4.6097815e-40
6.0939345 -4.2997293 -0.065044634 7.3756504e-40
6.0759039 -4.2756929 -0.071499236 2.7658689e-40
6.0574198 -4.2507715 -0.078085847 3.6878252e-40
6.0384731 -4.2249699 -0.084809922 2.7658689e-40
6.0269208 -4.2288842 -0.078848451 4.6097815e-40
6.0115457 -4.2019196 -0.087636486 4.6097815e-40
5.9881887 -4.1777058 -0.09252701 6.4536941e-40
5.9801292 -4.1472764 -0.1057046 3.6878252e-40
6.2564173 -4.0498219 -0.05606645 6.4536941e-40
6.2514668 -4.0192218 -0.075023562 3.6878252e-40
6.240725 -4.0937252 -0.061553601 4.6097815e-40
6.2456012 -4.055953 -0.06214321 4.6097815e-40
6.2355924 -4.1303511 -0.055002581 3.6878252e-40
6.2341704 -4.1992192 -0.045183424 3.6878252e-40
6.2277822 -4.2682581 -0.041478377 5.5317378e-40
6.2279191 -4.2331643 -0.034143779 3.6878252e-40
6.2094841 -4.3053713 -0.025175493 3.6878252e-40
6.2153001 -4.2689924 -0.018518908 4.6097815e-40
6.1850772 -4.3160648 -0.024037967 3.6878252e-40
6.1648731 -4.3551273 -0.018187594 4.6097815e-40
6.165843 -4.3250828 -0.025933905 3.6878252e-40
6.154839 -4.3608155 -0.023824722 4.6097815e-40
6.1374998 -4.3373804 -0.024037967 3.6878252e-40
6.1177368 -4.3157387 -0.03286859 3.6878252e-40
6.1019607 -4.2887788 -0.030281089 4.6097815e-40
6.0916476 -4.2946253 -0.036075003 3.6878252e-40
6.0690627 -4.2720766 -0.039920203 2.7658689e-40
6.0555553 -4.2466106 -0.054470677 4.6097815e-40
6.0361204 -4.219718 -0.055002581 3.6878252e-40
6.0225034 -4.226449 -0.057983316 5.5317378e-40
6.2606263 -4.0440788 -0.037836172 3.6878252e-40
6.238349 -4.0884218 -0.031458091 4.6097815e-40
6.2436824 -4.0516701 -0.037836172 6.4536941e-40
6.2393274 -4.1567831 -0.019047806 4.6097815e-40
6.2337103 -4.1261497 -0.031156771 4.6097815e-40
6.2305717 -4.193614 -0.011070374 7.3756504e-40
6.2202473 -4.2304726 -0.005174031 3.6878252e-40
6.1986909 -4.3039489 0.0044000889 4.6097815e-40
6.2069783 -4.2694826 -0.0032125956 5.5317378e-40
6.1840506 -4.3417649 0.0043610968 2.7658689e-40
6.1838894 -4.3105807 0.0044001485 3.6878252e-40
6.1662893 -4.3489275 0.0081192022 3.6878252e-40
6.154788 -4.3240204 0.0025042701 2.7658689e-40
6.1352549 -4.3323698 0.0044000889 2.7658689e-40
6.1179118 -4.3089809 -0.0012993356 3.6878252e-40
6.100131 -4.2846947 -0.0071054939 3.6878252e-40
6.0821581 -4.2605186 -0.013019685 2.7658689e-40
6.0884461 -4.2874784 0.0044823936 2.7658689e-40
6.0712872 -4.2653885 -0.013019685 2.7658689e-40
6.0422506 -4.246326 -0.024951629 3.6878252e-40
6.0443783 -4.2084503 -0.019233895 4.6097815e-40
6.250586 -4.0070667 -0.015706828 4.6097815e-40
6.2359734 -4.0831194 -0.0013625242 7.3756504e-40
6.2412839 -4.0463161 -0.0074523743 4.6097815e-40
6.2313571 -4.1208973 -0.0013494922 5.5317378e-40
6.2247939 -4.1904292 0.016220089 3.6878252e-40
6.2255569 -4.1554585 0.016375005 4.6097815e-40
6.20929 -4.2300696 0.019932732 3.6878252e-40
6.2093759 -4.1948624 0.02791601 4.6097815e-40
6.1956701 -4.2680721 0.02740003 2.7658689e-40
6.1753006 -4.3084116 0.032838263 4.6097815e-40
6.1792126 -4.2742314 0.033139866 5.5317378e-40
6.1604228 -4.3451948 0.038184162 2.7658689e-40
6.157023 -4.3172026 0.029994475 4.6097815e-40
6.1499438 -4.3498898 0.038184162 3.6878252e-40
6.1197333 -4.3016076 0.029695919 3.6878252e-40
6.0978441 -4.2795906 0.021864077 2.7658689e-40
6.0793881 -4.2543364 0.02206802 1.8439126e-40
6.0689793 -4.2602367 0.016220089 1.8439126e-40
6.0504289 -4.2351675 0.010471242 1.8439126e-40
6.0434375 -4.2063494 -0.00731096 2.7658689e-40
6.2451692 -4.0051661 0.0047471789 3.6878252e-40
6.2345481 -4.0799379 0.016694816 4.6097815e-40
6.2388854 -4.0409627 0.022931423 4.6097815e-40
6.2285333 -4.1145949 0.034419253 4.6097815e-40
6.2233591 -4.0849504 0.016694816 4.6097815e-40
6.2122517 -4.1551743 0.045894057 4.6097815e-40
6.2037182 -4.2272544 0.045039732 3.6878252e-40
6.2079911 -4.191771 0.045459863 6.4536941e-40
6.1905107 -4.2637048 0.058969285 3.6878252e-40
6.1924906 -4.2310591 0.050833646 2.7658689e-40
6.173954 -4.3054056 0.049901109 4.6097815e-40
6.1696825 -4.2720242 0.063752495 4.6097815e-40
6.1528082 -4.3148789 0.04990105 7.3756504e-40
6.1396027 -4.2859058 0.061839234 4.6097815e-40
6.1240506 -4.2940874 0.056099337 2.7658689e-40
6.0996828 -4.2721481 0.053151246 2.7658689e-40
6.0775414 -4.2502146 0.045459863 1.8439126e-40
6.0838723 -4.2772698 0.062421534 2.7658689e-40
6.0671325 -4.256115 0.039611932 1.8439126e-40
6.0490308 -4.2320471 0.028182648 2.7658689e-40
6.2328029 -4.1422195 0.063605517 3.6878252e-40
6.2271214 -4.1114435 0.052303657 5.5317378e-40
6.2165537 -4.1817484 0.074699752 4.6097815e-40
6.2178597 -4.1480823 0.06754142 4.6097815e-40
6.1971712 -4.1909275 0.07236062 3.6878252e-40
6.1792808 -4.2304392 0.081734501 2.7658689e-40
6.1505599 -4.2433062 0.081734501 3.6878252e-40
6.1278272 -4.2541451 0.078644447 5.5317378e-40
6.1069226 -4.2283907 0.086395614 3.6878252e-40
6.1044984 -4.2655773 0.074009359 1.1063476e-39
6.0910778 -4.2367268 0.080547683 2.7658689e-40
6.0829577 -4.275228 0.074009359 1.8439126e-40
6.2035022 -4.1503506 0.087220751 3.6878252e-40
6.1854105 -4.1899271 0.10199016 4.6097815e-40
6.1861081 -4.1556454 0.099028394 4.6097815e-40
6.1653266 -4.198513 0.10393953 3.6878252e-40
6.1381497 -4.2106886 0.10393953 3.6878252e-40
6.1168699 -4.2214594 0.098091535 3.6878252e-40
6.1013479 -4.1919541 0.10690013 2.7658689e-40
6.0792937 -4.1675835 0.099995337 2.7658689e-40
6.0718069 -4.2093525 0.087220751 1.8439126e-40
6.054595 -4.1792793 0.097014606 1.8439126e-40
6.0298963 -4.1909752 0.094033875 1.8439126e-40
6.0264945 -4.1553211 0.10096241 1.8439126e-40
6.0041165 -4.1653466 0.10096241 1.8439126e-40
6.1802483 -4.1881161 0.12148338 4.6097815e-40
6.1508541 -4.1651945 0.12854733 4.6097815e-40
6.1258941 -4.2124677 0.12148338 4.6097815e-40
6.1250916 -4.1763201 0.13051537 6.4536941e-40
6.0980825 -4.1885872 0.12972821 4.6097815e-40
6.0778818 -4.1644316 0.11787974 2.7658689e-40
6.0665603 -4.2025433 0.13051537 2.7658689e-40
6.0587239 -4.173645 0.11489901 2.7658689e-40
6.0588226 -4.2375674 0.14487523 1.8439126e-40
6.0482693 -4.2107382 0.13051537 1.8439126e-40
6.0266232 -4.1866398 0.1214566 1.8439126e-40
6.0104499 -4.1921196 0.12980267 1.8439126e-40
5.997097 -4.1646709 0.11901975 1.8439126e-40
6.1435022 -4.1634917 0.15216267 3.6878252e-40
6.1572151 -4.2537279 0.17663652 7.3756504e-40
6.1439424 -4.1944838 0.16826707 4.6097815e-40
6.1198034 -4.1723604 0.16042793 5.5317378e-40
6.1198559 -4.1393204 0.14768702 2.7658689e-40
6.1004596 -4.2139645 0.16826707 4.6097815e-40
6.0954847 -4.1844692 0.15469271 3.6878252e-40
6.0895886 -4.2188349 0.16826707 2.7658689e-40
6.0662141 -4.1968689 0.15806638 1.8439126e-40
6.0369487 -4.2099805 0.15806638 1.8439126e-40
6.0302606 -4.1769381 0.15960996 2.7658689e-40
6.0085673 -4.1879182 0.1536485 1.8439126e-40
5.9844608 -4.1634555 0.15152292 1.8439126e-40
6.138432 -4.2258587 0.18988758 4.6097815e-40
6.1233029 -4.1994004 0.18873489 4.6097815e-40
6.1049509 -4.2065091 0.19399816 2.7658689e-40
6.0917864 -4.1804161 0.18168166 2.7658689e-40
6.0801868 -4.2172737 0.19555753 1.8439126e-40
6.0622101 -4.1928344 0.18561763 1.8439126e-40
6.0521812 -4.2300267 0.19458288 1.8439126e-40
6.0309601 -4.2064185 0.18758553 3.6878252e-40
6.0293193 -4.1748371 0.17153284 2.7658689e-40
6.032465 -4.2370043 0.20335484 2.7658689e-40
6.0006733 -4.1851482 0.18345582 1.8439126e-40
5.9755621 -4.1615849 0.17921083 1.8439126e-40
5.9643731 -4.1665974 0.17921083 2.7658689e-40
6.1285872 -4.1893444 0.22507587 3.6878252e-40
6.1209822 -4.1573439 0.22891212 4.6097815e-40
6.1012783 -4.2012253 0.22674674 2.7658689e-40
6.0741014 -4.2134008 0.22674668 1.8439126e-40
6.0469246 -4.2255769 0.22674674 1.8439126e-40
6.0279007 -4.2340999 0.22674668 2.7658689e-40
6.0085096 -4.2102318 0.21710452 1.8439126e-40
5.9889288 -4.1836839 0.21525022 2.7658689e-40
5.9736614 -4.1573424 0.20328721 1.8439126e-40
5.9892869 -4.2163458 0.22891212 1.8439126e-40
5.9585843 -4.1636724 0.20529354 2.7658689e-40
6.1300926 -4.1482658 0.25252736 4.6097815e-40
6.1157379 -4.1897984 0.25013846 2.7658689e-40
6.1195841 -4.154223 0.24662358 3.6878252e-40
6.0989704 -4.1960735 0.25598645 1.8439126e-40
6.078177 -4.2356925 0.27100232 3.6878252e-40
6.0717931 -4.2082491 0.25598645 1.8439126e-40
6.0446162 -4.2204247 0.25598645 1.8439126e-40
6.0228748 -4.2301655 0.25598645 1.8439126e-40
6.0026765 -4.207016 0.24465565 1.8439126e-40
5.9794245 -4.216392 0.24957547 1.8439126e-40
5.9648829 -4.1894121 0.23909609 2.7658689e-40
5.9610467 -4.159174 0.22134462 2.7658689e-40
5.9451585 -4.1948853 0.25499326 2.7658689e-40
6.1564512 -4.1641345 0.28522629 4.6097815e-40
6.1321969 -4.1431599 0.27220678 3.6878252e-40
6.1261253 -4.1087642 0.27883908 7.3756504e-40
6.1117663 -4.1514797 0.27614257 1.8439126e-40
6.0941749 -4.1926541 0.28230226 3.6878252e-40
6.0943723 -4.1567745 0.28795028 1.8439126e-40
6.0772624 -4.2336507 0.28259015 4.6097815e-40
