# .PCD v0.7 - Point Cloud Data file format
VERSION 0.7
FIELDS x y z rgb
SIZE 4 4 4 4
TYPE F F F F
COUNT 1 1 1 1
WIDTH 1024
HEIGHT 1
VIEWPOINT 0 0 0 1 0 0 0
POINTS 1024
DATA ascii
5.4524326 -4.5369487 -1.0085676 3.6878252e-40
5.4552231 -4.5181541 -1.0223762 4.6097815e-40
5.426662 -4.5648575 -1.0143245 6.4536941e-40
5.4307218 -4.5421677 -1.0099208 3.6878252e-40
5.4092107 -4.568305 -1.0116386 3.6878252e-40
5.3927407 -4.5520792 -1.0162361 3.6878252e-40
5.3659201 -4.5574141 -1.012289 3.6878252e-40
5.3371935 -4.5616198 -1.0004481 2.7658689e-40
5.3301573 -4.5468631 -1.0233307 2.7658689e-40
5.2577124 -4.6773748 -0.9817819 2.7658689e-40
5.2564435 -4.6620064 -1.0029367 2.7658689e-40
5.2331152 -4.7048893 -0.99744838 3.6878252e-40
5.2401814 -4.684083 -0.99546671 3.6878252e-40
5.2473164 -4.6640878 -1.0029367 2.7658689e-40
5.2166853 -4.7445507 -0.98890495 2.7658689e-40
5.2192745 -4.7160692 -0.99048877 3.6878252e-40
5.2171421 -4.68753 -0.98634356 3.6878252e-40
5.1953931 -4.7485638 -0.98465323 3.6878252e-40
5.1590967 -4.7360344 -0.98810112 3.6878252e-40
5.1415582 -4.7364683 -0.98817974 2.7658689e-40
5.1263542 -4.7073298 -0.9817819 3.6878252e-40
5.4696164 -4.5017834 -0.99145025 3.6878252e-40
5.4724503 -4.4668527 -0.99942988 2.7658689e-40
5.4496026 -4.5516481 -0.97403586 8.2976067e-40
5.4567037 -4.5308828 -0.98285586 4.6097815e-40
5.4318419 -4.5935545 -0.9594757 3.6878252e-40
5.4301066 -4.5667868 -0.98114651 3.6878252e-40
5.4355521 -4.5373144 -0.99097532 4.6097815e-40
5.4180493 -4.5966997 -0.9594757 2.7658689e-40
5.3963189 -4.5714731 -0.98264611 3.6878252e-40
5.3721519 -4.5739446 -0.98236984 3.6878252e-40
5.3515882 -4.5739989 -0.97403586 2.7658689e-40
5.3317785 -4.5595713 -0.98387074 1.8439126e-40
5.3116221 -4.5442853 -0.98896933 1.8439126e-40
5.2571249 -4.674799 -0.96809703 3.6878252e-40
5.241673 -4.6184773 -0.96656907 3.6878252e-40
5.2374315 -4.6789885 -0.96657646 2.7658689e-40
5.2342305 -4.6593351 -0.96387196 3.6878252e-40
5.23241 -4.6205897 -0.96656907 2.7658689e-40
5.2114596 -4.7406273 -0.96307552 4.6097815e-40
5.2113819 -4.7125068 -0.96341085 3.6878252e-40
5.2161627 -4.6832371 -0.96353537 3.6878252e-40
5.1944985 -4.7446423 -0.96381962 3.6878252e-40
5.183722 -4.715416 -0.95574445 4.6097815e-40
5.1590261 -4.7213154 -0.96342832 2.7658689e-40
5.1265554 -4.7040319 -0.96536005 3.6878252e-40
5.108633 -4.687521 -0.96157402 3.6878252e-40
5.1000977 -4.6921983 -0.97536159 2.7658689e-40
5.4705172 -4.4981508 -0.95815605 3.6878252e-40
5.4479427 -4.5486755 -0.95711458 5.5317378e-40
5.4511704 -4.5262489 -0.95308429 3.6878252e-40
5.4523554 -4.5055771 -0.95556247 4.6097815e-40
5.4314446 -4.5918112 -0.95021552 3.6878252e-40
5.4305649 -4.5674486 -0.94750351 3.6878252e-40
5.4105568 -4.5956578 -0.94558543 3.6878252e-40
5.3963323 -4.5787754 -0.94418043 2.7658689e-40
5.3731451 -4.584538 -0.94657916 2.7658689e-40
5.3429689 -4.5750208 -0.95419866 1.8439126e-40
5.2521391 -4.6327 -0.95021552 2.7658689e-40
5.2396169 -4.604599 -0.94687277 2.7658689e-40
5.2285767 -4.6749859 -0.93616569 2.7658689e-40
5.2342567 -4.6511745 -0.94273674 2.7658689e-40
5.2280846 -4.6076908 -0.94920492 2.7658689e-40
5.2265816 -4.5755873 -0.9436115 2.7658689e-40
5.2068605 -4.7004128 -0.94460773 2.7658689e-40
5.2104583 -4.6791172 -0.93616557 4.6097815e-40
5.1854191 -4.7032089 -0.93403965 4.6097815e-40
5.1921444 -4.6823902 -0.93160403 5.5317378e-40
5.1558094 -4.7097049 -0.93274564 3.6878252e-40
5.1293173 -4.6994271 -0.94528896 3.6878252e-40
5.4610271 -4.4900694 -0.93998998 3.6878252e-40
5.4605374 -4.4590125 -0.94612086 2.7658689e-40
5.452445 -4.5778532 -0.90391469 6.4536941e-40
5.4483709 -4.5454035 -0.91998512 2.7658689e-40
5.4483829 -4.5212569 -0.92466605 3.6878252e-40
5.4484754 -4.4928331 -0.93195719 3.6878252e-40
5.4470115 -4.4588981 -0.92996651 3.6878252e-40
5.4342537 -4.5829182 -0.90854478 4.6097815e-40
5.4306893 -4.5637212 -0.92882454 3.6878252e-40
5.4097991 -4.5888004 -0.91008812 3.6878252e-40
5.3912354 -4.5763659 -0.92614502 2.7658689e-40
5.3737998 -4.5965738 -0.90788335 3.6878252e-40
5.3696547 -4.5814409 -0.92692238 3.6878252e-40
5.356071 -4.6161113 -0.90594941 2.7658689e-40
5.3512287 -4.5861049 -0.92925459 2.7658689e-40
5.2379923 -4.5958533 -0.91842049 1.8439126e-40
5.2274017 -4.6698332 -0.90879595 2.7658689e-40
5.2301359 -4.6457348 -0.91052479 2.7658689e-40
5.2244282 -4.6008034 -0.92779714 2.7658689e-40
5.2253618 -4.5702381 -0.91519326 2.7658689e-40
5.209702 -4.6911373 -0.90104121 2.7658689e-40
5.2129855 -4.6734819 -0.91062057 3.6878252e-40
5.1829338 -4.6974974 -0.90233529 3.6878252e-40
5.182106 -4.6801624 -0.90879595 7.3756504e-40
5.1530771 -4.7402372 -0.89387834 3.6878252e-40
5.156322 -4.7094069 -0.90018177 4.6097815e-40
5.4516501 -4.5743675 -0.88539433 3.6878252e-40
5.4544706 -4.544014 -0.88834369 2.7658689e-40
5.4507051 -4.5169754 -0.90572053 4.6097815e-40
5.4434066 -4.4764099 -0.90347284 3.6878252e-40
5.4299998 -4.4582987 -0.9073506 2.7658689e-40
5.4343262 -4.5803804 -0.88467461 2.7658689e-40
5.4047823 -4.5867281 -0.88382053 2.7658689e-40
5.3768272 -4.6000319 -0.88327956 2.7658689e-40
5.3493085 -4.6038904 -0.88322383 1.8439126e-40
5.2388697 -4.606185 -0.90126866 2.7658689e-40
5.2283072 -4.6861591 -0.87359357 3.6878252e-40
5.2298298 -4.662569 -0.87490952 2.7658689e-40
5.2355886 -4.6390939 -0.87992823 2.7658689e-40
5.2239923 -4.5952659 -0.89229953 1.8439126e-40
5.2149391 -4.5679255 -0.89151138 1.8439126e-40
5.2131567 -4.5497274 -0.90306592 1.8439126e-40
5.2087517 -4.6862288 -0.87516016 2.7658689e-40
5.1841235 -4.6937971 -0.87447107 2.7658689e-40
5.1514101 -4.6993046 -0.8751601 2.7658689e-40
5.4504576 -4.5691376 -0.8576138 2.7658689e-40
5.4499559 -4.54321 -0.86150247 2.7658689e-40
5.4505105 -4.5088911 -0.86467189 3.6878252e-40
5.4331341 -4.5751524 -0.85690171 3.6878252e-40
5.4047995 -4.5888438 -0.85443795 2.7658689e-40
5.3777132 -4.6043177 -0.8512736 2.7658689e-40
5.3497992 -4.6013894 -0.85445511 2.7658689e-40
5.2345281 -4.5774221 -0.85652715 1.8439126e-40
5.2268934 -4.6776066 -0.85251415 2.7658689e-40
5.2291899 -4.6567788 -0.84493315 1.8439126e-40
5.2334232 -4.628993 -0.85267776 1.8439126e-40
5.2261305 -4.5867915 -0.85900283 1.8439126e-40
5.2190323 -4.564178 -0.87730223 1.8439126e-40
5.2079291 -4.6829915 -0.84731752 3.6878252e-40
5.2063069 -4.6609125 -0.83945924 2.7658689e-40
5.1820354 -4.6893616 -0.84835017 3.6878252e-40
5.1529326 -4.6964483 -0.85062289 3.6878252e-40
5.1394258 -4.676887 -0.84310853 2.7658689e-40
5.1248136 -4.679677 -0.84037155 2.7658689e-40
5.4505138 -4.5652027 -0.82110542 3.6878252e-40
5.4484978 -4.532196 -0.83233684 4.6097815e-40
5.4478588 -4.5044932 -0.8394112 2.7658689e-40
5.4468241 -4.4813213 -0.82670736 4.6097815e-40
5.4297748 -4.5685816 -0.83099079 2.7658689e-40
5.3997478 -4.6106582 -0.80844021 3.6878252e-40
5.407496 -4.5857 -0.82496601 3.6878252e-40
5.3803806 -4.6162791 -0.81452239 2.7658689e-40
5.3785129 -4.5994024 -0.82737511 2.7658689e-40
5.3467741 -4.5928793 -0.82470161 5.5317378e-40
5.3286982 -4.5727692 -0.83596826 3.6878252e-40
5.3140025 -4.5724258 -0.81731099 2.7658689e-40
5.2975621 -4.5397043 -0.84414756 2.7658689e-40
5.2508841 -4.6144013 -0.81628084 1.8439126e-40
5.2390213 -4.5926027 -0.83285868 1.8439126e-40
5.2313633 -4.6506376 -0.81642294 2.7658689e-40
5.237586 -4.6278157 -0.82861578 1.8439126e-40
5.203299 -4.6749148 -0.81175137 2.7658689e-40
5.2085176 -4.6566753 -0.82060444 2.7658689e-40
5.1822386 -4.6824636 -0.8169874 2.7658689e-40
5.1623745 -4.6851439 -0.81628054 2.7658689e-40
5.1420088 -4.6714973 -0.81886673 2.7658689e-40
5.1242261 -4.6771011 -0.82668668 2.7658689e-40
5.1087337 -4.6598911 -0.8221665 2.7658689e-40
5.448019 -4.5671101 -0.79445797 4.6097815e-40
5.4472613 -4.5285072 -0.80173856 3.6878252e-40
5.4466386 -4.4991436 -0.81099296 2.7658689e-40
5.4431181 -4.4796457 -0.81398094 2.7658689e-40
5.4312005 -4.5809717 -0.79497439 5.5317378e-40
5.4105196 -4.6258078 -0.77865881 3.6878252e-40
5.4072742 -4.606051 -0.79384297 3.6878252e-40
5.4118547 -4.5856109 -0.79612327 4.6097815e-40
5.3916206 -4.6253929 -0.77853721 7.3756504e-40
5.3795977 -4.6128445 -0.79627585 3.6878252e-40
5.3476839 -4.5970564 -0.79434419 2.7658689e-40
5.3147392 -4.5923796 -0.7936424 1.8439126e-40
5.2997074 -4.5738378 -0.80798239 1.8439126e-40
5.2505045 -4.6133556 -0.79338282 1.8439126e-40
5.2441287 -4.5865116 -0.80798239 1.8439126e-40
5.2282801 -4.66294 -0.780047 2.7658689e-40
5.234014 -4.6450968 -0.79149699 2.7658689e-40
5.2384386 -4.6251564 -0.79612327 2.7658689e-40
5.2059879 -4.6689205 -0.78457618 3.6878252e-40
5.2136431 -4.6512899 -0.79931694 3.6878252e-40
5.1826191 -4.6816797 -0.78412145 3.6878252e-40
5.1586676 -4.6792622 -0.78231156 2.7658689e-40
5.1362481 -4.6671324 -0.79019368 4.6097815e-40
5.1224637 -4.6693726 -0.78563207 2.7658689e-40
5.1071653 -4.6558199 -0.79979998 2.7658689e-40
5.4513683 -4.5672035 -0.76120383 3.6878252e-40
5.4498272 -4.5243301 -0.77304924 3.6878252e-40
5.4424191 -4.4951038 -0.78573227 2.7658689e-40
5.4381647 -4.5910578 -0.75370067 3.6878252e-40
5.4289746 -4.5764732 -0.76969713 3.6878252e-40
5.4141026 -4.6227293 -0.7553674 3.6878252e-40
5.4181728 -4.5974236 -0.76282394 3.6878252e-40
5.3826313 -4.6228585 -0.75538802 2.7658689e-40
5.3662786 -4.6101608 -0.7673856 2.7658689e-40
5.3528461 -4.6282558 -0.74834263 3.6878252e-40
5.3480949 -4.6140056 -0.76586503 4.6097815e-40
5.338048 -4.5988007 -0.77773982 3.6878252e-40
5.3249245 -4.6168804 -0.75370067 1.8439126e-40
5.3115611 -4.6037035 -0.77199507 1.8439126e-40
5.2823358 -4.6048503 -0.76417798 2.7658689e-40
5.2552805 -4.6135731 -0.76816285 1.8439126e-40
5.2306995 -4.6692052 -0.75512779 2.7658689e-40
5.2347245 -4.6392565 -0.76282388 2.7658689e-40
5.2372546 -4.6199656 -0.76854813 2.7658689e-40
5.2021956 -4.6641474 -0.75610691 2.7658689e-40
5.1778364 -4.6699581 -0.75740099 2.7658689e-40
5.1598473 -4.6740599 -0.75740099 2.7658689e-40
5.1350737 -4.6619806 -0.76282388 2.7658689e-40
5.1169553 -4.6661124 -0.76282388 2.7658689e-40
5.4724779 -4.5384426 -0.72797143 1.8439126e-40
5.4508848 -4.5525227 -0.7341187 3.6878252e-40
5.4567795 -4.5210762 -0.74879861 2.7658689e-40
5.4284687 -4.6234097 -0.71600395 2.7658689e-40
5.4334989 -4.5885086 -0.73545414 2.7658689e-40
5.432744 -4.5677414 -0.72994292 2.7658689e-40
5.4135942 -4.62503 -0.72604966 3.6878252e-40
5.4190669 -4.5908957 -0.73089254 3.6878252e-40
5.3757353 -4.6532154 -0.7108404 3.6878252e-40
5.3831596 -4.630373 -0.72747833 2.7658689e-40
5.3551064 -4.6399236 -0.72678334 2.7658689e-40
5.3240418 -4.6418943 -0.72074461 1.8439126e-40
5.3138332 -4.6170011 -0.74153632 1.8439126e-40
5.2945127 -4.6539564 -0.71600395 2.7658689e-40
5.2861872 -4.6231337 -0.7406674 2.7658689e-40
5.2662292 -4.6426258 -0.72116745 2.7658689e-40
5.2550154 -4.6297255 -0.73806077 2.7658689e-40
5.2216439 -4.6545868 -0.7302258 2.7658689e-40
5.2290201 -4.6351376 -0.73545414 2.7658689e-40
5.2018356 -4.6608801 -0.72864562 2.7658689e-40
5.2063723 -4.6403017 -0.7354542 3.6878252e-40
5.1773825 -4.6706071 -0.72850466 2.7658689e-40
5.1556826 -4.6696281 -0.7302258 3.6878252e-40
5.1323233 -4.6568871 -0.73393357 3.6878252e-40
5.114501 -4.660574 -0.7320329 2.7658689e-40
5.0983744 -4.6425343 -0.72258955 8.2976067e-40
5.0846834 -4.6456556 -0.72258955 2.7658689e-40
5.4765034 -4.544178 -0.71145874 2.7658689e-40
5.4535642 -4.592731 -0.68493384 2.7658689e-40
5.4535413 -4.5749044 -0.68983793 3.6878252e-40
5.4568434 -4.552187 -0.70648468 3.6878252e-40
5.4346795 -4.6093731 -0.69183779 3.6878252e-40
5.4421153 -4.5805211 -0.70504338 3.6878252e-40
5.4165621 -4.6400151 -0.6911974 3.6878252e-40
5.4012914 -4.6278257 -0.70701045 2.7658689e-40
5.3807516 -4.6479454 -0.69000685 2.7658689e-40
5.3833342 -4.6314754 -0.70476204 2.7658689e-40
5.3571272 -4.6534171 -0.69043207 2.7658689e-40
5.3566399 -4.6380081 -0.70701045 2.7658689e-40
5.3321819 -4.6585503 -0.68762589 2.7658689e-40
5.3226271 -4.6454086 -0.7052117 1.8439126e-40
5.2967181 -4.6666374 -0.68762589 2.7658689e-40
5.2974672 -4.6504335 -0.70161432 2.7658689e-40
5.2726269 -4.6714239 -0.68405437 3.6878252e-40
5.2583895 -4.6446905 -0.70674086 3.6878252e-40
5.2318249 -4.6565318 -0.69638324 3.6878252e-40
5.204011 -4.6605139 -0.69669235 2.7658689e-40
5.1796417 -4.6722651 -0.69652599 3.6878252e-40
5.1501551 -4.6706152 -0.69323689 3.6878252e-40
5.1150413 -4.6535406 -0.69713652 2.7658689e-40
5.09798 -4.6408038 -0.71339786 3.6878252e-40
5.0919571 -4.6609726 -0.70808446 3.6878252e-40
5.0847282 -4.6416411 -0.70236784 2.7658689e-40
5.4523973 -4.5876155 -0.65775865 3.6878252e-40
5.4525623 -4.570611 -0.6670298 3.6878252e-40
5.459702 -4.551218 -0.67755032 3.6878252e-40
5.4351144 -4.6272974 -0.64833969 3.6878252e-40
5.4366293 -4.6029091 -0.66503638 3.6878252e-40
5.4438949 -4.5743942 -0.67615306 6.4536941e-40
5.4135242 -4.6348734 -0.66173273 4.6097815e-40
5.3833098 -4.6432524 -0.66134036 3.6878252e-40
5.3575892 -4.6550322 -0.65842497 2.7658689e-40
5.330708 -4.6619582 -0.65998018 2.7658689e-40
5.3050756 -4.6934423 -0.64798492 3.6878252e-40
5.3032622 -4.6732564 -0.66285181 2.7658689e-40
5.266705 -4.6734829 -0.66389549 2.7658689e-40
5.2414093 -4.6735916 -0.65905416 2.7658689e-40
5.2134647 -4.6778421 -0.64833969 5.5317378e-40
5.2029409 -4.6643748 -0.66316694 2.7658689e-40
5.1771698 -4.6698065 -0.66091853 3.6878252e-40
5.149375 -4.6627989 -0.66948557 3.6878252e-40
5.1264315 -4.6449809 -0.6670298 3.6878252e-40
5.1085091 -4.649971 -0.6715914 2.7658689e-40
5.4783692 -4.5584021 -0.63509846 1.8439126e-40
5.4516201 -4.5842052 -0.63964188 4.6097815e-40
5.4515834 -4.5663171 -0.64422172 3.6878252e-40
5.4592128 -4.5459146 -0.6502049 3.6878252e-40
5.4343476 -4.6239362 -0.63048232 7.3756504e-40
5.4408188 -4.6005859 -0.6360727 5.5317378e-40
5.4121828 -4.6289902 -0.63048238 3.6878252e-40
5.3824196 -4.669704 -0.61717594 3.6878252e-40
5.3833447 -4.6429005 -0.62953681 2.7658689e-40
5.3655138 -4.6896014 -0.60851061 3.6878252e-40
5.362505 -4.6751165 -0.62157732 3.6878252e-40
5.3224897 -4.7011433 -0.61725193 2.7658689e-40
5.3273134 -4.6834326 -0.62304431 2.7658689e-40
5.325912 -4.6672616 -0.62944812 2.7658689e-40
5.3033533 -4.6895561 -0.62637872 2.7658689e-40
5.2820902 -4.6934543 -0.62157726 2.7658689e-40
5.2648625 -4.681066 -0.6288572 2.7658689e-40
5.2402735 -4.677145 -0.6282168 2.7658689e-40
5.2100992 -4.6801181 -0.63006276 2.7658689e-40
5.181922 -4.6838942 -0.62675357 5.5317378e-40
5.166399 -4.6689234 -0.64405566 3.6878252e-40
5.1430511 -4.6613722 -0.6360113 3.6878252e-40
5.125844 -4.6424046 -0.65334493 2.7658689e-40
5.1110363 -4.6443362 -0.64604634 3.6878252e-40
5.0823612 -4.6312594 -0.64721757 2.7658689e-40
5.481288 -4.5544844 -0.6186766 1.8439126e-40
5.4504533 -4.5790896 -0.61246675 4.6097815e-40
5.4550362 -4.5605612 -0.61913276 3.6878252e-40
5.4536557 -4.5396738 -0.61228913 2.7658689e-40
5.4366674 -4.6177492 -0.60191059 5.5317378e-40
5.4416842 -4.5941563 -0.61062849 3.6878252e-40
5.4142237 -4.6292019 -0.60225081 4.6097815e-40
5.3817482 -4.680706 -0.58228666 2.7658689e-40
5.3848958 -4.6644325 -0.59340906 2.7658689e-40
5.3923192 -4.6464009 -0.60057747 2.7658689e-40
5.3647637 -4.6863098 -0.59102803 3.6878252e-40
5.3729234 -4.6683831 -0.59957081 3.6878252e-40
5.3375134 -4.6985283 -0.5887385 3.6878252e-40
5.3294086 -4.6791773 -0.60397214 3.6878252e-40
5.3072062 -4.7077365 -0.58810759 2.7658689e-40
5.276926 -4.7065568 -0.59212071 2.7658689e-40
5.2515492 -4.7103963 -0.58228666 3.6878252e-40
5.2414722 -4.6967897 -0.59164852 2.7658689e-40
5.2361031 -4.6835289 -0.60817492 4.6097815e-40
5.2138181 -4.7032123 -0.59223539 3.6878252e-40
5.2169061 -4.6873212 -0.60522032 5.5317378e-40
5.1975412 -4.7057619 -0.58636695 3.6878252e-40
5.1807256 -4.6920919 -0.6012131 3.6878252e-40
5.1511831 -4.6828499 -0.60191059 3.6878252e-40
5.1384497 -4.6699533 -0.61707509 3.6878252e-40
5.1149812 -4.6624074 -0.60891396 2.7658689e-40
5.0974917 -4.6434498 -0.62597519 8.2976067e-40
5.0759773 -4.6285286 -0.62607664 2.7658689e-40
5.4536505 -4.5810781 -0.57871568 4.6097815e-40
5.448842 -4.5542955 -0.58035892 2.7658689e-40
5.4529276 -4.5274854 -0.58748746 2.7658689e-40
5.4475698 -4.4957829 -0.58409524 1.8439126e-40
5.4383039 -4.6129336 -0.57084745 3.6878252e-40
5.4464278 -4.5923023 -0.579602 3.6878252e-40
5.4141645 -4.6526594 -0.56766152 2.7658689e-40
5.4214358 -4.6272755 -0.56917781 2.7658689e-40
5.3895168 -4.6747303 -0.56105781 3.6878252e-40
5.391057 -4.6591926 -0.57404339 3.6878252e-40
5.3636379 -4.6813736 -0.56480408 2.7658689e-40
5.3398838 -4.7207403 -0.55688834 2.7658689e-40
5.3389544 -4.696104 -0.56185061 3.6878252e-40
5.3122754 -4.7260122 -0.5517171 3.6878252e-40
5.311635 -4.7113533 -0.56663293 3.6878252e-40
5.2900238 -4.7310858 -0.5517171 2.7658689e-40
5.278595 -4.7188873 -0.56663287 3.6878252e-40
5.253931 -4.7386341 -0.54826957 2.7658689e-40
5.2506924 -4.7162676 -0.56611079 2.7658689e-40
5.2368145 -4.742537 -0.54826957 2.7658689e-40
5.2214184 -4.7225828 -0.56429225 3.6878252e-40
5.1985316 -4.7181587 -0.56043339 3.6878252e-40
5.1881709 -4.7049932 -0.57169604 3.6878252e-40
5.1687593 -4.6927419 -0.57715154 2.7658689e-40
5.1517849 -4.6929188 -0.5720613 3.6878252e-40
5.1241069 -4.691277 -0.57259107 2.7658689e-40
5.1105003 -4.6709843 -0.59009445 2.7658689e-40
5.0936022 -4.7003727 -0.56078833 3.6878252e-40
5.0677762 -4.6933827 -0.55905288 2.7658689e-40
5.0468297 -4.6801605 -0.56311387 3.6878252e-40
5.4568815 -4.5762405 -0.54851097 2.7658689e-40
5.4543633 -4.5471644 -0.55070841 3.6878252e-40
5.4532175 -4.5225143 -0.55854481 1.8439126e-40
5.4312744 -4.6420031 -0.53355157 2.7658689e-40
5.4388733 -4.6127338 -0.53956294 3.6878252e-40
5.4479246 -4.5851336 -0.5451268 4.6097815e-40
5.4174223 -4.6636271 -0.53712326 2.7658689e-40
5.418962 -4.6444616 -0.53179109 3.6878252e-40
5.3922453 -4.6741228 -0.53281015 2.7658689e-40
5.3628531 -4.6860933 -0.53066593 3.6878252e-40
5.3386068 -4.7162814 -0.52522957 2.7658689e-40
5.3418827 -4.6884356 -0.53698015 3.6878252e-40
5.3064857 -4.7528906 -0.50670606 2.7658689e-40
5.3126264 -4.7261524 -0.52469587 2.7658689e-40
5.2985926 -4.7605963 -0.5083937 4.6097815e-40
5.2862134 -4.7371349 -0.53098667 2.7658689e-40
5.253006 -4.7345777 -0.52672255 3.6878252e-40
5.2252569 -4.7404461 -0.52440214 3.6878252e-40
5.2086487 -4.7302542 -0.54348606 3.6878252e-40
5.2012863 -4.7446651 -0.51810378 2.7658689e-40
5.1887407 -4.7289877 -0.53210104 3.6878252e-40
5.1698079 -4.7051134 -0.5511567 3.6878252e-40
5.159976 -4.7278767 -0.52924013 2.7658689e-40
5.1523261 -4.7090998 -0.5511567 2.7658689e-40
5.1274037 -4.7265887 -0.52109748 2.7658689e-40
5.1243696 -4.7132339 -0.53983915 2.7658689e-40
5.105587 -4.715836 -0.53135091 2.7658689e-40
5.0804434 -4.7004795 -0.53826338 2.7658689e-40
5.0566659 -4.69238 -0.54119557 2.7658689e-40
5.0375133 -4.6805038 -0.5541203 3.6878252e-40
5.4557714 -4.5951805 -0.50994521 3.6878252e-40
5.4570627 -4.5683765 -0.5185048 2.7658689e-40
5.452662 -4.5431862 -0.52866054 3.6878252e-40
5.4373622 -4.6350946 -0.50567681 3.6878252e-40
5.4394474 -4.6060028 -0.51414889 3.6878252e-40
5.4471526 -4.581748 -0.52713972 3.6878252e-40
5.4181485 -4.6561337 -0.50011832 5.5317378e-40
5.4172187 -4.6408501 -0.51154518 3.6878252e-40
5.3927002 -4.6728649 -0.50149745 3.6878252e-40
5.3542256 -4.704669 -0.49224734 2.7658689e-40
5.3619294 -4.6867056 -0.50008583 3.6878252e-40
5.3400693 -4.7188168 -0.49368048 2.7658689e-40
5.3450637 -4.6922712 -0.50876582 4.6097815e-40
5.3057561 -4.7496905 -0.48970625 3.6878252e-40
5.3133516 -4.7294645 -0.49442926 2.7658689e-40
5.2949896 -4.7577767 -0.49000612 3.6878252e-40
5.2784562 -4.7384329 -0.49109501 3.6878252e-40
5.2719951 -4.7573891 -0.48970625 3.6878252e-40
5.2527523 -4.7417612 -0.49237162 2.7658689e-40
5.2224436 -4.7386489 -0.49674165 2.7658689e-40
5.1973853 -4.7407188 -0.49368382 2.7658689e-40
5.1839252 -4.72787 -0.5029791 2.7658689e-40
5.1575732 -4.7238278 -0.50203955 2.7658689e-40
5.1300502 -4.722177 -0.50186658 2.7658689e-40
5.1245923 -4.7084513 -0.51594645 2.7658689e-40
5.1046424 -4.7116938 -0.50934452 2.7658689e-40
5.0813346 -4.6991625 -0.50890017 2.7658689e-40
5.0545764 -4.6905608 -0.51377589 3.6878252e-40
5.0392618 -4.6910443 -0.51440954 4.6097815e-40
5.4594378 -4.5908079 -0.49208784 3.6878252e-40
5.4604921 -4.5715818 -0.49116558 2.7658689e-40
5.4452591 -4.5215654 -0.51118022 2.7658689e-40
5.4383802 -4.6487503 -0.4861322 4.6097815e-40
5.4288187 -4.6312323 -0.4763349 3.6878252e-40
5.4365797 -4.6026773 -0.48614231 4.6097815e-40
5.4452224 -4.5732827 -0.48217204 2.7658689e-40
5.4206448 -4.651063 -0.47739097 3.6878252e-40
5.391222 -4.6652241 -0.47658598 3.6878252e-40
5.3635607 -4.7306175 -0.45995662 4.6097815e-40
5.3630714 -4.7024102 -0.46992764 3.6878252e-40
5.3674588 -4.6765232 -0.4729664 2.7658689e-40
5.3549376 -4.7317419 -0.45570666 1.0694693e-38
5.3379788 -4.7205739 -0.46945426 4.6097815e-40
5.3095794 -4.7430954 -0.46080661 3.6878252e-40
5.3127689 -4.7264299 -0.46999782 2.7658689e-40
5.2905335 -4.7478318 -0.46278992 2.7658689e-40
5.2719007 -4.7358303 -0.47040555 2.7658689e-40
5.2686996 -4.7526703 -0.46208158 2.7658689e-40
5.2469153 -4.741302 -0.46926406 3.6878252e-40
5.221951 -4.7395072 -0.46896398 3.6878252e-40
5.1906934 -4.7376928 -0.47070032 2.7658689e-40
5.1733918 -4.7407856 -0.46639094 2.7658689e-40
5.1562009 -4.7288928 -0.4762156 2.7658689e-40
5.1306605 -4.7168446 -0.47564265 2.7658689e-40
5.1147184 -4.7054734 -0.48953873 2.7658689e-40
5.0979996 -4.7070446 -0.47822115 2.7658689e-40
5.0815296 -4.6959581 -0.49294525 2.7658689e-40
5.0594912 -4.6931973 -0.48527291 2.7658689e-40
5.0344892 -4.6864748 -0.48583776 2.7658689e-40
5.4968882 -4.6250219 -0.43368435 1.8439126e-40
5.4886813 -4.6114798 -0.44552591 3.6878252e-40
5.4838686 -4.6279907 -0.43368435 3.6878252e-40
5.4710736 -4.6149139 -0.44259173 2.7658689e-40
5.4640899 -4.5967703 -0.45973122 2.7658689e-40
5.4537668 -4.5695534 -0.47317851 3.6878252e-40
5.4404688 -4.6378875 -0.43368435 3.6878252e-40
5.4362998 -4.6237154 -0.44699299 3.6878252e-40
5.436377 -4.6023664 -0.4605971 4.6097815e-40
5.4208589 -4.6478152 -0.44628987 3.6878252e-40
5.3942423 -4.6827421 -0.42760631 5.5317378e-40
5.3925195 -4.6650844 -0.44500989 2.7658689e-40
5.3630133 -4.7282176 -0.44720677 3.6878252e-40
5.3608351 -4.6971655 -0.44321218 4.6097815e-40
5.3630152 -4.6744251 -0.43932539 2.7658689e-40
5.3470654 -4.732234 -0.43706751 3.6878252e-40
5.3393021 -4.7133026 -0.4342584 3.6878252e-40
5.3125582 -4.737339 -0.43516517 2.7658689e-40
5.3156471 -4.7185078 -0.43330723 2.7658689e-40
5.2889643 -4.7520914 -0.43185231 3.6878252e-40
5.2576981 -4.75388 -0.432502 4.6097815e-40
5.2427063 -4.7385321 -0.45042953 2.7658689e-40
5.2268753 -4.7542124 -0.42170706 3.6878252e-40
5.2229605 -4.7415819 -0.44309133 2.7658689e-40
5.1951952 -4.7411938 -0.43985295 3.6878252e-40
5.165678 -4.7365704 -0.43622512 2.7658689e-40
5.1487122 -4.725873 -0.45234546 2.7658689e-40
5.1268883 -4.7227092 -0.44486633 2.7658689e-40
5.1064792 -4.7149153 -0.43805501 5.5317378e-40
5.0898352 -4.7038841 -0.45286137 2.7658689e-40
5.0512657 -4.7094841 -0.43672335 3.6878252e-40
5.0594978 -4.6927323 -0.45128527 2.7658689e-40
5.0366416 -4.6886454 -0.46129715 3.6878252e-40
5.5021033 -4.6386976 -0.41907188 3.6878252e-40
5.4732199 -4.6267996 -0.41540712 3.6878252e-40
5.445734 -4.6446795 -0.41426253 3.6878252e-40
5.4245124 -4.6707191 -0.40174988 3.6878252e-40
5.4174118 -4.6573553 -0.41576523 2.7658689e-40
5.3933172 -4.6786861 -0.40605929 4.6097815e-40
5.3891454 -4.6640468 -0.41700524 3.6878252e-40
5.3610063 -4.7194171 -0.40045732 5.5317378e-40
5.3645091 -4.6906214 -0.40783295 4.6097815e-40
5.3628855 -4.6710176 -0.42196524 3.6878252e-40
5.3443408 -4.7254834 -0.40251976 5.5317378e-40
5.3389983 -4.7097921 -0.41618493 4.6097815e-40
5.3153858 -4.733757 -0.40499136 6.4536941e-40
5.2883587 -4.7489533 -0.40264854 5.5317378e-40
5.2547822 -4.7525673 -0.40333486 7.3756504e-40
5.2246442 -4.7562389 -0.40827098 6.4536941e-40
5.2209105 -4.7344599 -0.40477005 5.5317378e-40
5.20046 -4.7551861 -0.39620736 5.5317378e-40
5.1917515 -4.7416749 -0.40762371 7.3756504e-40
5.1575022 -4.7371454 -0.40861234 4.6097815e-40
5.1230779 -4.7242289 -0.41452524 3.6878252e-40
5.0966735 -4.7119579 -0.41183105 4.6097815e-40
5.0790119 -4.7001061 -0.42131886 4.6097815e-40
5.0621643 -4.7035122 -0.4191182 4.6097815e-40
5.0524616 -4.6902995 -0.43089852 6.4536941e-40
5.0305696 -4.6779222 -0.41914797 4.6097815e-40
5.4715638 -4.6599922 -0.37764585 3.6878252e-40
5.4695063 -4.6415472 -0.39592507 4.6097815e-40
5.4649401 -4.6081781 -0.40151307 2.7658689e-40
5.4522982 -4.6914454 -0.36433277 4.6097815e-40
5.4521847 -4.6718321 -0.38015506 3.6878252e-40
5.4562054 -4.6428614 -0.38724503 2.7658689e-40
5.4282732 -4.7050247 -0.36772695 6.4536941e-40
5.4269342 -4.675992 -0.38896254 4.6097815e-40
5.3983355 -4.7040038 -0.36560774 6.4536941e-40
5.3927703 -4.6866064 -0.38513768 4.6097815e-40
5.3638206 -4.7221537 -0.36928743 6.4536941e-40
5.3671408 -4.6934948 -0.38164011 5.5317378e-40
5.3445902 -4.733139 -0.37293702 6.4536941e-40
5.3421459 -4.7039881 -0.39050147 8.2976067e-40
5.3112431 -4.7556458 -0.35729438 7.3756504e-40
5.3155355 -4.7411141 -0.37325865 5.5317378e-40
5.3029175 -4.757544 -0.35729438 4.6097815e-40
5.2843399 -4.7464409 -0.37267748 5.5317378e-40
5.2576733 -4.7481031 -0.3743822 5.5317378e-40
5.223722 -4.7452526 -0.37283266 5.5317378e-40
5.2163882 -4.7309704 -0.38194031 4.6097815e-40
5.1949625 -4.7505484 -0.36645773 4.6097815e-40
5.1889439 -4.7380762 -0.38622081 4.6097815e-40
5.1740446 -4.7561603 -0.37070769 3.6878252e-40
5.1566086 -4.7370262 -0.38119373 4.6097815e-40
5.1356955 -4.7350903 -0.37312463 4.6097815e-40
5.1179986 -4.7204151 -0.38941503 4.6097815e-40
5.0940576 -4.7116699 -0.38494697 4.6097815e-40
5.0648074 -4.6962852 -0.38566846 4.6097815e-40
5.0463486 -4.683794 -0.39101133 3.6878252e-40
5.022522 -4.6721702 -0.39982483 3.6878252e-40
5.0130897 -4.6557961 -0.40123022 4.6097815e-40
5.0080647 -4.6769404 -0.40726539 3.6878252e-40
4.9952288 -4.6598692 -0.40123022 7.3756504e-40
5.4802465 -4.6816216 -0.34690794 4.6097815e-40
5.4564204 -4.6880736 -0.34501758 9.219563e-40
5.4317188 -4.7231913 -0.33214059 8.2976067e-40
5.4331226 -4.7084665 -0.34380466 6.4536941e-40
5.4127007 -4.7340488 -0.32550737 4.6097815e-40
5.3990235 -4.7142148 -0.34562138 5.5317378e-40
5.3764091 -4.7341433 -0.32375601 5.5317378e-40
5.369781 -4.7186642 -0.34346157 7.3756504e-40
5.3351402 -4.7452145 -0.33214059 5.5317378e-40
5.3427329 -4.7288933 -0.34286663 6.4536941e-40
5.31668 -4.7487602 -0.32878676 7.3756504e-40
5.3135738 -4.7363782 -0.34708774 6.4536941e-40
5.2904482 -4.7560444 -0.33536544 8.2976067e-40
5.2927976 -4.7419519 -0.35130882 5.5317378e-40
5.2560282 -4.7482934 -0.34099057 6.4536941e-40
5.2238526 -4.7419953 -0.345985 5.5317378e-40
5.1962976 -4.7466669 -0.34839544 4.6097815e-40
5.1813774 -4.7310419 -0.34198827 5.5317378e-40
5.1703796 -4.753068 -0.35087457 3.6878252e-40
5.1593862 -4.7359157 -0.34127483 5.5317378e-40
5.1291461 -4.7332501 -0.3492566 3.6878252e-40
5.108119 -4.7309208 -0.34141827 5.5317378e-40
5.0869474 -4.7115545 -0.35375336 3.6878252e-40
5.0611649 -4.6924095 -0.36190152 4.6097815e-40
5.0450168 -4.6779547 -0.35998794 3.6878252e-40
5.0304742 -4.6818562 -0.36294258 3.6878252e-40
5.4504409 -4.71311 -0.30279449 4.6097815e-40
5.4480062 -4.6859169 -0.31941494 5.5317378e-40
5.4470172 -4.6606455 -0.31650838 4.6097815e-40
5.4259195 -4.7500868 -0.30302909 1.0141519e-39
5.4357514 -4.7254124 -0.30404222 5.5317378e-40
5.438231 -4.7029366 -0.32176095 7.3756504e-40
5.4102802 -4.7819929 -0.28260985 8.2976067e-40
5.4115415 -4.7611899 -0.30034149 6.4536941e-40
5.4174976 -4.7222829 -0.31117907 4.6097815e-40
5.3807268 -4.7632403 -0.29630846 7.3756504e-40
5.3739929 -4.7364378 -0.3127805 5.5317378e-40
5.367157 -4.7199802 -0.32598206 5.5317378e-40
5.3450193 -4.7464676 -0.3066844 5.5317378e-40
5.3420081 -4.7257147 -0.32598206 4.6097815e-40
5.3150821 -4.7450447 -0.30818459 5.5317378e-40
5.3210506 -4.7304935 -0.32598206 7.3756504e-40
5.288269 -4.7509217 -0.30698678 6.4536941e-40
5.2588592 -4.7563829 -0.30069834 5.5317378e-40
5.2494783 -4.7453518 -0.31859514 5.5317378e-40
5.2379551 -4.7607346 -0.29860219 6.4536941e-40
5.2241635 -4.7503586 -0.31472582 5.5317378e-40
5.1925302 -4.7398815 -0.30979171 3.6878252e-40
5.1821208 -4.7277646 -0.32629281 7.3756504e-40
5.1606016 -4.749126 -0.31970829 4.6097815e-40
5.1596875 -4.7313547 -0.31858772 3.6878252e-40
5.1461701 -4.7507339 -0.31120837 4.6097815e-40
5.1293678 -4.7365427 -0.31754485 3.6878252e-40
5.1027298 -4.7270298 -0.31556186 2.7658689e-40
5.087471 -4.7157731 -0.33082464 3.6878252e-40
5.074801 -4.7120399 -0.32727301 3.6878252e-40
5.0463533 -4.6879425 -0.32228997 4.6097815e-40
5.0245543 -4.6749887 -0.33501124 3.6878252e-40
5.0049982 -4.6634941 -0.33583596 3.6878252e-40
5.4491811 -4.7075863 -0.27344841 4.6097815e-40
5.4491749 -4.6929178 -0.28377083 4.6097815e-40
5.4401159 -4.6629982 -0.29632878 4.6097815e-40
5.4272971 -4.7434902 -0.27130249 6.4536941e-40
5.4369388 -4.7234769 -0.27742654 6.4536941e-40
5.4409728 -4.6956239 -0.28799194 5.5317378e-40
5.4316149 -4.6649365 -0.29632878 5.5317378e-40
5.4100223 -4.8068399 -0.25481209 1.1063476e-39
5.4068861 -4.7819176 -0.26601443 6.4536941e-40
5.4173903 -4.7626309 -0.2721523 6.4536941e-40
5.4020004 -4.8150306 -0.25000983 4.6097815e-40
5.3852205 -4.7876463 -0.26384038 1.2907388e-39
5.3816152 -4.7693157 -0.28159213 6.4536941e-40
5.3578434 -4.7665749 -0.27413693 6.4536941e-40
5.3352451 -4.7502074 -0.2783502 5.5317378e-40
5.3119869 -4.7397017 -0.2776407 7.3756504e-40
5.2859659 -4.7507424 -0.27705312 5.5317378e-40
5.2562027 -4.7544003 -0.27883625 4.6097815e-40
5.2289805 -4.7583113 -0.27602828 5.5317378e-40
5.2228346 -4.7445316 -0.28377083 5.5317378e-40
5.2073755 -4.7610664 -0.26506379 5.5317378e-40
5.1908655 -4.7450652 -0.28582391 5.5317378e-40
5.163425 -4.7407393 -0.28060874 5.5317378e-40
5.1553316 -4.7279396 -0.29632878 3.6878252e-40
5.1370001 -4.7494583 -0.29420859 4.6097815e-40
5.1286106 -4.732338 -0.28776756 6.4536941e-40
5.0978265 -4.7266865 -0.28708071 3.6878252e-40
5.0652308 -4.7087679 -0.29674053 3.6878252e-40
5.0372643 -4.7017035 -0.29163802 4.6097815e-40
5.0211105 -4.6746292 -0.31566885 3.6878252e-40
5.4359193 -4.7413869 -0.24247941 5.5317378e-40
5.4144931 -4.8018303 -0.23466125 6.4536941e-40
5.4097452 -4.7851691 -0.23649219 1.1063476e-39
5.4159794 -4.7564425 -0.23927692 8.2976067e-40
5.3955045 -4.8085475 -0.23194443 7.3756504e-40
5.3767042 -4.7975001 -0.24840638 5.5317378e-40
5.3612728 -4.7942929 -0.2292105 1.1985432e-39
5.3422208 -4.7686214 -0.24397467 6.4536941e-40
5.3341913 -4.7742796 -0.2351675 5.5317378e-40
5.3134971 -4.7454748 -0.24919039 7.3756504e-40
5.2839856 -4.774807 -0.23628643 4.6097815e-40
5.2850204 -4.7457724 -0.2484699 6.4536941e-40
5.2889924 -4.7252655 -0.26266518 5.5317378e-40
5.2646608 -4.7775741 -0.23738292 6.4536941e-40
5.2607794 -4.7620192 -0.25224781 4.6097815e-40
5.2294483 -4.7627239 -0.24939716 5.5317378e-40
5.2064753 -4.7571206 -0.2441023 7.3756504e-40
5.1897473 -4.7463923 -0.25506717 4.6097815e-40
5.1616039 -4.7372389 -0.25239405 6.4536941e-40
5.149611 -4.7224627 -0.26208416 3.6878252e-40
5.1341619 -4.7475233 -0.25303525 5.5317378e-40
5.1345296 -4.7269192 -0.26722085 4.6097815e-40
5.0989676 -4.728611 -0.25892755 4.6097815e-40
5.0789294 -4.7213631 -0.25953963 3.6878252e-40
5.0610676 -4.7093325 -0.26789421 3.6878252e-40
5.0340624 -4.6976728 -0.26759943 3.6878252e-40
5.4293165 -4.7375746 -0.21562402 5.5317378e-40
5.4123783 -4.797688 -0.19653964 7.3756504e-40
5.4097977 -4.7768602 -0.20690443 4.6097815e-40
5.4137316 -4.7494326 -0.21066855 5.5317378e-40
5.3943763 -4.799767 -0.20107664 6.4536941e-40
5.381093 -4.7888665 -0.20986319 6.4536941e-40
5.3726869 -4.8031163 -0.19301637 4.6097815e-40
5.3552518 -4.7884293 -0.20954747 6.4536941e-40
5.3198328 -4.7679806 -0.21094111 6.4536941e-40
5.2903957 -4.7711773 -0.21127088 5.5317378e-40
5.2910829 -4.7495317 -0.22408263 6.4536941e-40
5.2606373 -4.7715254 -0.21392885 5.5317378e-40
5.2326336 -4.7744951 -0.20371106 5.5317378e-40
5.2241821 -4.7616911 -0.2172402 5.5317378e-40
5.1969929 -4.7539463 -0.21715185 5.5317378e-40
5.1814189 -4.7433877 -0.23030326 5.5317378e-40
5.1594973 -4.7404785 -0.22653867 4.6097815e-40
5.1333122 -4.7396574 -0.22841048 4.6097815e-40
5.1180201 -4.7211895 -0.2192784 4.6097815e-40
5.0955191 -4.7254295 -0.22683567 3.6878252e-40
5.069706 -4.7210789 -0.23341793 4.6097815e-40
5.0507317 -4.705759 -0.23794802 4.6097815e-40
5.040277 -4.7076273 -0.23534399 3.6878252e-40
5.0171084 -4.680666 -0.25186944 1.2907388e-39
5.4097638 -4.7909374 -0.17420897 6.4536941e-40
5.4118419 -4.7750254 -0.17537715 5.5317378e-40
5.4062996 -4.7429023 -0.18387038 4.6097815e-40
5.3943925 -4.8059797 -0.16846485 6.4536941e-40
5.370059 -4.8073201 -0.16901611 9.219563e-40
5.3469028 -4.7866445 -0.18388857 5.5317378e-40
5.3327885 -4.7818441 -0.17416625 1.0141519e-39
5.3126311 -4.7661471 -0.18334165 5.5317378e-40
5.2891989 -4.7671423 -0.18349016 5.5317378e-40
5.2605858 -4.7743778 -0.18104881 7.3756504e-40
5.2316265 -4.7800951 -0.18159851 5.5317378e-40
5.2308216 -4.7578526 -0.1967108 1.1063476e-39
5.2074547 -4.7797194 -0.17296778 4.6097815e-40
5.1974654 -4.7642217 -0.19046287 7.3756504e-40
5.1722622 -4.7563353 -0.18943553 5.5317378e-40
5.1607714 -4.7430811 -0.2049765 5.5317378e-40
5.1328163 -4.7407942 -0.1964076 5.5317378e-40
5.1026049 -4.7397227 -0.18856063 5.5317378e-40
5.0944791 -4.7238455 -0.20558055 9.219563e-40
5.0673304 -4.7198305 -0.20468505 4.6097815e-40
5.0422916 -4.7186236 -0.20351738 3.6878252e-40
5.0349493 -4.6996803 -0.20701361 4.6097815e-40
5.4105539 -4.7867823 -0.14182805 4.6097815e-40
5.4074264 -4.7688055 -0.15119049 5.5317378e-40
5.4037743 -4.7358632 -0.15506352 5.5317378e-40
5.3951902 -4.7154212 -0.17171916 5.5317378e-40
5.3880768 -4.8166704 -0.12620462 5.5317378e-40
5.3921537 -4.8006096 -0.14123149 5.5317378e-40
5.3637042 -4.823266 -0.13144824 5.5317378e-40
5.361959 -4.8090839 -0.14925399 5.5317378e-40
5.3425665 -4.8266544 -0.12421567 6.4536941e-40
5.3336663 -4.8106213 -0.14377737 5.5317378e-40
5.3245287 -4.7917223 -0.15914844 5.5317378e-40
5.3087878 -4.8059826 -0.13390744 4.6097815e-40
5.2965117 -4.7836657 -0.14774247 9.219563e-40
5.28613 -4.7705908 -0.16119786 6.4536941e-40
5.2609735 -4.7880139 -0.14108655 8.2976067e-40
5.2627716 -4.7748322 -0.15571862 6.4536941e-40
5.2340212 -4.7944965 -0.14278755 5.5317378e-40
5.2309542 -4.7827663 -0.15914313 4.6097815e-40
5.2178507 -4.7983866 -0.14380817 4.6097815e-40
5.2009559 -4.7805395 -0.15555583 4.6097815e-40
5.1662645 -4.7574182 -0.15973982 4.6097815e-40
5.1442366 -4.7530489 -0.15187177 6.4536941e-40
5.1328373 -4.742126 -0.16799149 4.6097815e-40
5.1033254 -4.7366018 -0.16639531 4.6097815e-40
5.0607381 -4.7162604 -0.17062674 4.6097815e-40
5.0395436 -4.7174015 -0.17308331 5.5317378e-40
5.0296087 -4.7006054 -0.18760368 3.6878252e-40
5.4434667 -4.7688856 -0.10166619 2.7658689e-40
5.4271846 -4.7586718 -0.11046229 5.5317378e-40
5.4233379 -4.8309517 -0.096501611 8.2976067e-40
5.4170651 -4.8091917 -0.10951557 5.5317378e-40
5.4180775 -4.7843122 -0.11340066 5.5317378e-40
5.4140906 -4.7584381 -0.11882239 5.5317378e-40
5.3986058 -4.7309771 -0.13288192 5.5317378e-40
5.3846025 -4.6932554 -0.12671794 5.5317378e-40
5.4127088 -4.8323379 -0.091262594 6.4536941e-40
5.3951178 -4.8189235 -0.10876634 5.5317378e-40
5.4008012 -4.7978725 -0.12505953 6.4536941e-40
5.3759503 -4.6811943 -0.14025262 1.2907388e-39
5.3616333 -4.8191552 -0.10830405 5.5317378e-40
5.3361921 -4.8247318 -0.10716751 5.5317378e-40
5.3190188 -4.8153319 -0.11905212 5.5317378e-40
5.301775 -4.8089094 -0.11107398 5.5317378e-40
5.2825003 -4.793272 -0.11857667 4.6097815e-40
5.2833924 -4.8053885 -0.10166619 4.6097815e-40
5.2593522 -4.7872868 -0.11913874 5.5317378e-40
5.2387223 -4.8002 -0.11792278 6.4536941e-40
5.2072234 -4.7954202 -0.11659215 3.6878252e-40
5.1949463 -4.784874 -0.12832244 4.6097815e-40
5.1695862 -4.772892 -0.1230152 4.6097815e-40
5.1591463 -4.7615495 -0.13284327 5.5317378e-40
5.1349206 -4.750607 -0.12881412 3.6878252e-40
5.119504 -4.7400079 -0.14194106 5.5317378e-40
5.1179996 -4.7532206 -0.12252565 5.5317378e-40
5.0984569 -4.7395077 -0.13627818 6.4536941e-40
5.0794263 -4.7306056 -0.1327105 1.1063476e-39
5.0556402 -4.716239 -0.14354481 3.6878252e-40
5.040328 -4.7236481 -0.14222802 3.6878252e-40
5.426662 -4.7563801 -0.098290719 4.6097815e-40
5.4198375 -4.8275995 -0.075545527 1.1985432e-39
5.4201164 -4.812396 -0.082437269 5.5317378e-40
5.412415 -4.7837543 -0.0819133 7.3756504e-40
5.4087648 -4.7537456 -0.088993981 5.5317378e-40
5.4012914 -4.729681 -0.087228164 5.5317378e-40
5.4118652 -4.8286395 -0.07161624 7.3756504e-40
5.3920574 -4.8180861 -0.08050105 6.4536941e-40
5.3604383 -4.8139138 -0.080458626 5.5317378e-40
5.3327885 -4.820219 -0.080458626 7.3756504e-40
5.3164763 -4.8215752 -0.068524927 8.2976067e-40
5.3003588 -4.8102398 -0.081078447 6.4536941e-40
5.2706084 -4.809721 -0.080414362 5.5317378e-40
5.2600279 -4.7874546 -0.092865176 5.5317378e-40
5.2427692 -4.8138032 -0.08096543 4.6097815e-40
5.2360287 -4.8001194 -0.099643111 6.4536941e-40
5.2135639 -4.8032069 -0.089364931 5.5317378e-40
5.189631 -4.7803893 -0.099556468 4.6097815e-40
5.1826167 -4.7934856 -0.078489736 5.5317378e-40
5.1713829 -4.7789664 -0.090116568 4.6097815e-40
5.1524396 -4.7575798 -0.10507476 4.6097815e-40
5.1300364 -4.7494702 -0.10426342 4.6097815e-40
5.1148381 -4.74896 -0.097371832 3.6878252e-40
5.0999584 -4.7374434 -0.10648363 4.6097815e-40
5.0720925 -4.7276487 -0.10933577 4.6097815e-40
5.0539188 -4.7146149 -0.1122639 4.6097815e-40
5.0331826 -4.7102051 -0.10831814 4.6097815e-40
5.4191628 -4.8246412 -0.059828438 5.5317378e-40
5.4108615 -4.802279 -0.055154018 6.4536941e-40
5.4095068 -4.774332 -0.053137455 6.4536941e-40
5.402401 -4.7456312 -0.060383651 5.5317378e-40
5.3934565 -4.7149343 -0.067039058 4.6097815e-40
5.411191 -4.8256807 -0.05589918 6.4536941e-40
5.3942871 -4.8102908 -0.045754299 6.4536941e-40
5.4013395 -4.7818871 -0.044960823 7.3756504e-40
5.3606977 -4.8102851 -0.048588581 5.5317378e-40
5.3336229 -4.8173685 -0.048564561 7.3756504e-40
5.3102989 -4.8187828 -0.047309436 7.3756504e-40
5.2903328 -4.8087873 -0.052970711 5.5317378e-40
5.2677107 -4.8263941 -0.036701649 5.5317378e-40
5.2704487 -4.8133221 -0.052970681 1.0141519e-39
5.2352581 -4.8132553 -0.055188745 5.5317378e-40
5.2117186 -4.8128405 -0.056758657 4.6097815e-40
5.190846 -4.7975421 -0.059216201 4.6097815e-40
5.1759224 -4.7921829 -0.064201333 5.5317378e-40
5.1552224 -4.780098 -0.058462199 6.4536941e-40
5.1449428 -4.7690873 -0.075425252 5.5317378e-40
5.1116772 -4.7446995 -0.072218075 5.5317378e-40
5.0882115 -4.734271 -0.076935694 5.5317378e-40
5.0645013 -4.7288761 -0.073029816 6.4536941e-40
5.0487494 -4.7115555 -0.090861075 4.6097815e-40
5.0431113 -4.7271042 -0.073211178 3.6878252e-40
5.0358143 -4.7136574 -0.0865805 3.6878252e-40
5.4024215 -4.7642789 -0.031138463 6.4536941e-40
5.401515 -4.7448092 -0.029364208 5.5317378e-40
5.3931828 -4.7051039 -0.038181033 4.6097815e-40
5.3894682 -4.6903305 -0.038430352 5.5317378e-40
5.3856969 -4.8010283 -0.019862123 7.3756504e-40
5.39538 -4.7786865 -0.021932444 8.2976067e-40
5.3645916 -4.8121729 -0.018427731 7.3756504e-40
5.3321819 -4.8117824 -0.020749541 5.5317378e-40
5.3024917 -4.8185787 -0.0175961 7.3756504e-40
5.2719345 -4.8231616 -0.019563643 1.1063476e-39
5.2737379 -4.8093991 -0.036950994 5.5317378e-40
5.2339964 -4.8151441 -0.025878249 7.3756504e-40
5.2064395 -4.8114243 -0.025066525 4.6097815e-40
5.1725812 -4.7868814 -0.033583321 4.6097815e-40
5.1541638 -4.7754564 -0.033805657 4.6097815e-40
5.1351256 -4.7639503 -0.038181003 5.5317378e-40
5.125001 -4.7517385 -0.043984056 6.4536941e-40
5.1061945 -4.7398615 -0.041474558 3.6878252e-40
5.0890388 -4.7282305 -0.047387883 4.6097815e-40
5.0628176 -4.7219334 -0.048693012 5.5317378e-40
5.0319433 -4.7064867 -0.045915037 4.6097815e-40
5.3991232 -4.7590456 -0.00091229891 4.6097815e-40
5.4002419 -4.7374382 9.0594687e-05 4.6097815e-40
5.3936505 -4.7092466 -0.017443279 2.7658689e-40
5.3778615 -4.7950478 0.0070520588 8.2976067e-40
5.3879809 -4.7746763 0.0068363608 7.3756504e-40
5.3902526 -4.7454 -0.00091842108 6.4536941e-40
5.3581734 -4.8025413 0.010345256 7.3756504e-40
5.3290319 -4.8037453 0.0070553329 6.4536941e-40
5.3024817 -4.8154087 0.0091355676 7.3756504e-40
5.2716904 -4.8243418 0.010104854 7.3756504e-40
5.2500324 -4.8217602 0.0070553618 8.2976067e-40
5.2321477 -4.8104763 0.0055013453 8.2976067e-40
5.2101126 -4.8113432 0.0053996919 5.5317378e-40
5.1783662 -4.7900658 -0.00093873369 7.3756504e-40
5.1529293 -4.7700415 -0.0050396635 5.5317378e-40
5.1235113 -4.7452049 -0.0092734182 5.5317378e-40
5.100832 -4.7355499 -0.013525879 4.6097815e-40
5.0862184 -4.7255301 -0.030503388 4.6097815e-40
5.0731001 -4.7260137 -0.017840069 6.4536941e-40
5.0412869 -4.7191038 -0.030711694 4.6097815e-40
5.0315537 -4.6982355 -0.020678231 6.4536941e-40
5.3921676 -4.7250042 0.026019709 4.6097815e-40
5.3754067 -4.7884426 0.030922769 6.4536941e-40
5.3803463 -4.7629561 0.034530342 8.2976067e-40
5.3871431 -4.7391996 0.033973347 4.6097815e-40
5.3553157 -4.7914495 0.038878608 9.219563e-40
5.3657432 -4.7725563 0.043147709 5.5317378e-40
5.3291769 -4.8018656 0.039100975 6.4536941e-40
5.3131652 -4.8278036 0.046261765 5.5317378e-40
5.3023891 -4.8140001 0.036721736 6.4536941e-40
5.2673182 -4.8139586 0.03885014 8.2976067e-40
5.2457452 -4.8175383 0.033309545 9.219563e-40
5.224824 -4.8058805 0.037140302 7.3756504e-40
5.2118034 -4.8043537 0.035228409 5.5317378e-40
5.1875992 -4.7859888 0.02748183 7.3756504e-40
5.1699529 -4.7753539 0.027652727 1.2907388e-39
5.1520472 -4.7661734 0.015507454 5.5317378e-40
5.140502 -4.7496123 0.028030999 5.5317378e-40
5.1222596 -4.7397165 0.019883515 4.6097815e-40
5.1019235 -4.7307348 0.0095317634 4.6097815e-40
5.0842252 -4.7167892 0.01592898 3.6878252e-40
5.0604639 -4.7091837 0.0093561085 5.5317378e-40
5.0294557 -4.6937065 0.0094299009 5.5317378e-40
5.3881536 -4.7223625 0.043982327 4.6097815e-40
5.3784518 -4.7564421 0.057137918 1.1985432e-39
5.3796988 -4.7362905 0.057234507 6.4536941e-40
5.3557687 -4.7861466 0.065132819 6.4536941e-40
5.361568 -4.7634325 0.066334814 6.4536941e-40
5.3253908 -4.792984 0.065587461 7.3756504e-40
5.3247142 -4.7760963 0.072517201 4.6097815e-40
5.3023915 -4.802156 0.065894522 5.5317378e-40
5.2698641 -4.8066816 0.060359329 8.2976067e-40
5.2612162 -4.7911806 0.06946592 6.4536941e-40
5.2352762 -4.7946692 0.063259289 8.2976067e-40
5.212616 -4.7904024 0.055509903 4.6097815e-40
5.1970582 -4.773819 0.06326966 4.6097815e-40
5.1768336 -4.7681255 0.056229513 6.4536941e-40
5.1586208 -4.75735 0.052492298 4.6097815e-40
5.1292801 -4.7323413 0.049040418 5.5317378e-40
5.1108007 -4.7216535 0.045166288 4.6097815e-40
5.091702 -4.7109051 0.03703459 5.5317378e-40
5.0595903 -4.7020249 0.034454197 6.4536941e-40
5.0537715 -4.6845551 0.039696518 6.4536941e-40
5.0387325 -4.7079034 0.028787572 5.5317378e-40
5.0345521 -4.6885138 0.041836794 4.6097815e-40
5.3666258 -4.7347183 0.08022517 5.5317378e-40
5.3541975 -4.7635183 0.087311812 6.4536941e-40
5.3218374 -4.7904181 0.082635619 7.3756504e-40
5.3197007 -4.7702718 0.092933841 1.1985432e-39
5.302002 -4.7945476 0.084624611 8.2976067e-40
5.2939138 -4.7786255 0.095211849 5.5317378e-40
5.2649069 -4.7806721 0.091429606 6.4536941e-40
5.2367401 -4.7780375 0.090169273 8.2976067e-40
5.2194958 -4.7647882 0.097806297 5.5317378e-40
5.1993504 -4.7652321 0.081839569 8.2976067e-40
5.1813397 -4.744031 0.093586534 4.6097815e-40
5.1600785 -4.7429085 0.081538446 6.4536941e-40
5.1238923 -4.7172866 0.07851766 5.5317378e-40
5.0872068 -4.6948757 0.066885583 3.6878252e-40
5.0545187 -4.699254 0.054287296 3.6878252e-40
5.0530105 -4.6772671 0.063310683 4.6097815e-40
5.2941718 -4.7074323 0.10627189 5.5317378e-40
5.2864022 -4.7632008 0.10790192 4.6097815e-40
5.2839184 -4.7327924 0.11134195 9.219563e-40
5.2680879 -4.7024889 0.11907251 6.4536941e-40
5.2706509 -4.6789999 0.11604656 6.4536941e-40
5.2703948 -4.7668514 0.10790192 5.5317378e-40
5.2485232 -4.7396512 0.11746553 5.5317378e-40
5.2550015 -4.7169104 0.12461453 8.2976067e-40
5.2261033 -4.7504921 0.11315807 1.0141519e-39
5.2207346 -4.7285376 0.12646192 6.4536941e-40
5.2069855 -4.7507401 0.10930076 5.5317378e-40
5.1898384 -4.7351389 0.11182234 4.6097815e-40
5.1528282 -4.7120962 0.10833203 5.5317378e-40
5.1292758 -4.7066479 0.099666186 4.6097815e-40
5.1140728 -4.6929865 0.10175857 1.0141519e-39
5.0948954 -4.6816301 0.096786804 3.6878252e-40
5.0748525 -4.6691518 0.093203709 8.2976067e-40
5.0587368 -4.6672783 0.087461919 4.6097815e-40
5.3146248 -4.6552486 0.14578147 8.2976067e-40
5.2603502 -4.6767778 0.12594019 7.3756504e-40
5.2543573 -4.6449556 0.13212007 7.3756504e-40
5.246954 -4.6146803 0.12789182 4.6097815e-40
5.2414837 -4.6791134 0.1391677 7.3756504e-40
5.2466297 -4.6555138 0.13834162 5.5317378e-40
5.2166052 -4.7151756 0.13538936 7.3756504e-40
5.2143688 -4.6889558 0.14376655 5.5317378e-40
5.1894798 -4.7179556 0.13148728 6.4536941e-40
5.1831913 -4.7016258 0.1420649 4.6097815e-40
5.156868 -4.6932158 0.13571988 5.5317378e-40
5.1378322 -4.68116 0.13412046 3.6878252e-40
5.1221743 -4.6775398 0.12823233 4.6097815e-40
5.0987015 -4.6560841 0.13172887 8.2976067e-40
5.0813498 -4.6558518 0.11068308 3.6878252e-40
5.3247662 -4.648509 0.16814043 4.6097815e-40
5.3192401 -4.633606 0.16535679 4.6097815e-40
5.2987709 -4.6595778 0.17382677 4.6097815e-40
5.2912745 -4.6395531 0.15815151 6.4536941e-40
5.2659998 -4.6669025 0.17259794 6.4536941e-40
5.2614012 -4.6450434 0.15544879 4.6097815e-40
5.2550831 -4.6136551 0.14480674 7.3756504e-40
5.2524748 -4.5844646 0.14223857 4.6097815e-40
5.2389736 -4.6691794 0.16255058 6.4536941e-40
5.2460861 -4.6531296 0.151005 6.4536941e-40
5.2087307 -4.6762266 0.16178843 6.4536941e-40
5.211648 -4.6568031 0.1721106 6.4536941e-40
5.1830449 -4.6831789 0.1562622 5.5317378e-40
5.1682014 -4.6673794 0.16873366 9.219563e-40
5.1481552 -4.6653228 0.16000608 8.2976067e-40
5.3364868 -4.624156 0.19321622 2.7658689e-40
5.3217082 -4.6722317 0.210114 5.5317378e-40
5.3238215 -4.6468172 0.1935932 7.3756504e-40
5.3171077 -4.6294107 0.18899506 4.6097815e-40
5.3009634 -4.6800938 0.2063579 4.6097815e-40
5.299499 -4.6620374 0.19045983 7.3756504e-40
5.2740045 -4.6842031 0.20459637 8.2976067e-40
5.267818 -4.6698551 0.18922479 5.5317378e-40
5.2559614 -4.6872249 0.210114 8.2976067e-40
5.2377119 -4.674469 0.19267797 6.4536941e-40
5.2075362 -4.6719117 0.19060478 5.5317378e-40
5.1835966 -4.6759958 0.19189675 6.4536941e-40
5.1609879 -4.6666842 0.18055284 6.4536941e-40
5.3488512 -4.6325002 0.22124287 1.8439126e-40
5.3406458 -4.6125259 0.21902113 2.7658689e-40
5.3260317 -4.6790724 0.22967124 4.6097815e-40
5.3283091 -4.6436949 0.22133382 2.7658689e-40
5.3022881 -4.6869311 0.2305932 7.3756504e-40
5.2724819 -4.6878815 0.22997263 5.5317378e-40
5.250999 -4.6892471 0.22972997 6.4536941e-40
5.2310686 -4.6749806 0.2214828 7.3756504e-40
5.2135386 -4.7233753 0.23993757 5.5317378e-40
5.2079868 -4.7102857 0.23330699 4.6097815e-40
5.2076712 -4.6734962 0.22548766 6.4536941e-40
5.1910214 -4.7098975 0.23370165 6.4536941e-40
5.1819234 -4.6726093 0.22222917 5.5317378e-40
5.1595383 -4.660327 0.21432182 4.6097815e-40
5.1615229 -4.6752181 0.22124287 4.6097815e-40
5.3644223 -4.6510181 0.26804957 2.7658689e-40
5.3456764 -4.6347885 0.25290528 2.7658689e-40
5.3447003 -4.6118336 0.24598028 2.7658689e-40
5.3246479 -4.6730299 0.26177669 2.7658689e-40
5.3280382 -4.6422987 0.25111625 2.7658689e-40
5.2976155 -4.6993523 0.26443207 3.6878252e-40
5.3023791 -4.6831803 0.26148596 4.6097815e-40
5.2898588 -4.7027378 0.25626722 4.6097815e-40
5.2712831 -4.6900816 0.26244658 4.6097815e-40
5.2385736 -4.7116032 0.27055565 8.2976067e-40
5.2447977 -4.6940088 0.26012531 4.6097815e-40
5.2141304 -4.7197371 0.25762808 3.6878252e-40
5.2171926 -4.6964388 0.25426638 6.4536941e-40
5.1841111 -4.7252355 0.26443201 2.7658689e-40
5.1846809 -4.7080746 0.26427373 4.6097815e-40
5.1651073 -4.708952 0.26128715 3.6878252e-40
5.3668923 -4.6294899 0.2947917 2.7658689e-40
5.3562746 -4.653554 0.2887409 2.7658689e-40
5.3425531 -4.6372404 0.28368428 2.7658689e-40
5.3327847 -4.6852689 0.29504997 2.7658689e-40
5.3312678 -4.6685686 0.28994805 2.7658689e-40
5.3275619 -4.6372423 0.2745578 1.8439126e-40
5.3022423 -4.6934867 0.29543519 2.7658689e-40
5.303627 -4.6778965 0.28672957 4.6097815e-40
5.2760682 -4.7052698 0.29218459 5.5317378e-40
5.2430387 -4.7097859 0.29163152 4.6097815e-40
5.2168818 -4.7133932 0.29320842 3.6878252e-40
5.1881146 -4.7192774 0.30222014 3.6878252e-40
5.1841822 -4.7047276 0.28878427 4.6097815e-40
