# .PCD v0.7 - Point Cloud Data file format
VERSION 0.7
FIELDS x y z rgb
SIZE 4 4 4 4
TYPE F F F F
COUNT 1 1 1 1
WIDTH 930
HEIGHT 1
VIEWPOINT 0 0 0 1 0 0 0
POINTS 930
DATA ascii
0.94433516 -4.5408521 -1.4851756 2.8569603e-39
0.94892204 -4.4662848 -1.4759836 1.8442461e-39
0.97133034 -4.458611 -1.4731352 1.1981676e-39
0.98792249 -4.4522939 -1.4731352 1.1056147e-39
1.0200493 -4.5120244 -1.4851756 1.0123443e-39
1.1714777 -4.4543691 -1.4851756 2.2101952e-39
1.1967158 -4.4447598 -1.4851756 3.0366768e-39
0.94945377 -4.5458627 -1.4620686 3.1303116e-39
0.95355332 -4.6203833 -1.4715072 3.3121805e-39
0.95816123 -4.4739189 -1.4389551 2.6678943e-39
0.97475344 -4.4676013 -1.4389551 2.5757141e-39
0.99134558 -4.4612842 -1.4389551 2.2065644e-39
1.0285507 -4.517487 -1.4562918 1.3800464e-39
1.0542058 -4.5767655 -1.4890883 2.7766589e-40
1.0893462 -4.6433282 -1.4930904 6.4356734e-40
1.1577297 -4.6146054 -1.5020099 4.0500903e-39
1.1634824 -4.5386896 -1.4773675 2.2094357e-39
1.1681836 -4.4625826 -1.4620686 2.3931221e-39
1.1993195 -4.4515982 -1.4591802 1.8403071e-39
1.2428437 -4.5075903 -1.4802977 1.1967327e-39
1.2789644 -4.5684462 -1.5020099 5.5209198e-40
0.96989805 -4.6941795 -1.4752514 4.0482966e-39
0.95795494 -4.5513248 -1.4331847 2.3913144e-39
0.96072876 -4.4806623 -1.4133199 1.2864158e-39
0.9916057 -4.5385122 -1.4331847 1.2871333e-39
1.0022092 -4.464869 -1.4133199 1.3804037e-39
1.0420817 -4.5192938 -1.4331847 9.198011e-40
1.0606427 -4.5174465 -1.4158545 5.5244931e-40
1.0747962 -4.5795159 -1.4539261 4.5989635e-40
1.1351879 -4.7107444 -1.4881091 1.471163e-39
1.1448294 -4.7887015 -1.501279 8.279558e-40
1.144877 -4.6329303 -1.4574125 3.3100365e-39
1.1606461 -4.6983256 -1.497161 3.7709979e-39
1.1613029 -4.6239901 -1.466332 3.0341601e-39
1.166417 -4.5463972 -1.4480658 2.0236123e-39
1.1722335 -4.4732194 -1.4216312 1.196018e-39
1.2027907 -4.4607153 -1.4245197 1.1956635e-39
1.2523483 -4.5154438 -1.4422053 9.1979129e-40
1.2816442 -4.5754843 -1.4752514 6.45361e-40
0.93011171 -4.5000401 -1.3876848 4.6014998e-39
0.95194936 -4.4908676 -1.3905332 2.3023474e-39
0.95025951 -4.4262166 -1.3600405 2.0275598e-39
0.97988826 -4.4810877 -1.3876848 6.4536521e-40
1.0047764 -4.471612 -1.3876848 4.5990055e-40
1.0354809 -4.4607797 -1.3848364 4.6061661e-40
1.1380588 -4.5660191 -1.4187639 3.3111071e-39
1.1636621 -4.5562711 -1.4187639 2.0232522e-39
1.1717434 -4.4803653 -1.3985242 1.4744098e-39
1.2053941 -4.4675531 -1.3985242 1.1045385e-39
1.2306322 -4.4579439 -1.3985242 1.1034651e-39
1.2474575 -4.4515376 -1.3985242 4.6169001e-40
0.93727279 -4.4413128 -1.3263336 3.4944138e-39
0.96090317 -4.4977522 -1.356353 3.3128952e-39
0.98331147 -4.4900784 -1.3535047 1.8417742e-39
1.0051489 -4.480906 -1.356353 9.208759e-40
1.0406116 -4.5407319 -1.3638636 6.4356734e-40
1.043864 -4.4661655 -1.356353 3.6770212e-40
1.0994565 -4.445857 -1.3535047 4.0475904e-39
1.1322833 -4.5032182 -1.3725288 3.4944152e-39
1.1491086 -4.4968119 -1.3725288 1.6559102e-39
1.1492331 -4.4269052 -1.3535047 1.4733154e-39
1.1818916 -4.4817204 -1.3811939 2.3020167e-39
1.1749771 -4.4196768 -1.3449596 1.6573465e-39
1.2105125 -4.4725633 -1.3754171 1.2900031e-39
1.2332356 -4.4647813 -1.3725288 1.2885696e-39
1.2500609 -4.458375 -1.3725288 1.103821e-39
0.90949756 -4.3900824 -1.29164 3.6766498e-39
0.96099049 -4.5062976 -1.3278695 3.5858905e-39
0.98587877 -4.4968214 -1.3278695 3.3121777e-39
1.0024709 -4.4905043 -1.3278695 1.7481044e-39
1.0423472 -4.54529 -1.3465333 1.1027448e-39
1.0522473 -4.4715519 -1.3278695 3.6806085e-40
1.1020238 -4.4526 -1.3278695 2.7593711e-39
1.1348867 -4.510056 -1.3465333 2.6675356e-39
1.1517121 -4.5036497 -1.3465333 2.7597298e-39
1.1769502 -4.4940405 -1.3465333 2.944477e-39
1.210601 -4.4812284 -1.3465333 2.0250458e-39
1.235839 -4.4716191 -1.3465333 1.0144966e-39
1.2347611 -4.4020615 -1.3278695 9.2194509e-40
0.9635579 -4.513041 -1.3022344 2.9437595e-39
0.98844618 -4.5035648 -1.3022344 3.038123e-39
1.0108542 -4.4958911 -1.299386 1.6548368e-39
1.044083 -4.549849 -1.329203 8.279572e-40
1.0390784 -4.4868603 -1.2936894 6.4428621e-40
1.0701889 -4.5425191 -1.3205378 3.6770212e-40
1.0870142 -4.5361128 -1.3205378 5.5137311e-40
1.1374904 -4.5168943 -1.3205378 2.7579361e-39
1.1543157 -4.510488 -1.3205378 2.4817122e-39
1.1770389 -4.5027065 -1.3176495 2.1158206e-39
1.1784002 -4.4286675 -1.3107795 2.3931053e-39
1.2162981 -4.4877586 -1.3176495 1.3811282e-39
1.2384427 -4.4784575 -1.3205378 1.1967327e-39
1.255268 -4.4720511 -1.3205378 1.378987e-39
0.94123691 -4.5292597 -1.2765993 1.3811212e-39
0.96698099 -4.5220313 -1.2680542 2.8522828e-39
0.99186927 -4.5125551 -1.2680542 3.3128994e-39
1.0167575 -4.5030794 -1.2680542 1.9314181e-39
1.0559669 -4.5557628 -1.2945424 8.2903339e-40
1.0425016 -4.495851 -1.2595092 6.453638e-40
1.0736601 -4.5516362 -1.2858772 3.6841958e-40
1.0739741 -4.4787207 -1.2765993 9.1979129e-40
1.0913533 -4.5475092 -1.2772121 6.4321001e-40
1.1356424 -4.5289063 -1.2829889 1.9321341e-39
1.157787 -4.5196052 -1.2858772 2.5757001e-39
1.1830251 -4.5099959 -1.2858772 2.3001936e-39
1.2135823 -4.4974914 -1.2887657 1.7484688e-39
1.2084233 -4.4326773 -1.2595092 1.3814799e-39
1.2419139 -4.4875746 -1.2858772 1.1056147e-39
1.2398958 -4.4155474 -1.2765993 6.442848e-40
0.93188173 -4.4763579 -1.2167865 1.6559102e-39
0.97040433 -4.5310225 -1.2338741 2.9437609e-39
0.9952926 -4.5215464 -1.2338741 2.4863869e-39
1.0201808 -4.5120707 -1.2338741 2.0261276e-39
1.050885 -4.5012379 -1.2310257 1.1042008e-39
1.0762635 -4.5584741 -1.2598819 7.3576297e-40
1.0791091 -4.4922075 -1.225329 4.6061381e-40
1.0930889 -4.5520678 -1.2598819 8.2723973e-40
1.1105819 -4.4750772 -1.2424191 1.9321341e-39
1.1127118 -4.4100456 -1.2083598 1.194939e-39
1.136326 -4.4678488 -1.2338741 1.747387e-39
1.1603904 -4.526443 -1.2598819 1.8399399e-39
1.16207 -4.4606209 -1.225329 2.2083679e-39
1.1856285 -4.5168338 -1.2598819 1.8417336e-39
1.189153 -4.4485931 -1.2310257 2.2083581e-39
1.2109907 -4.4394207 -1.2338741 1.5658782e-39
1.2445173 -4.4944124 -1.2598819 1.5647922e-39
0.94808334 -4.5472412 -1.208239 1.6541179e-39
0.97297162 -4.537765 -1.208239 2.9434134e-39
0.9978599 -4.5282888 -1.208239 1.9339306e-39
1.0227481 -4.5188131 -1.208239 2.2991188e-39
1.0559324 -4.5061784 -1.208239 1.4715231e-39
1.0808206 -4.4967022 -1.208239 5.5173324e-40
1.0986857 -4.3530965 -1.1752734 6.442848e-40
1.130762 -4.4082494 -1.1915064 1.4725979e-39
1.1637815 -4.4651155 -1.208239 3.2178409e-39
1.1886697 -4.4556394 -1.208239 2.4845835e-39
1.213558 -4.4461632 -1.208239 2.5760798e-39
1.2479887 -4.5035295 -1.2252213 2.1140115e-39
1.2648534 -4.5653973 -1.2605339 1.1041797e-39
0.95065075 -4.5539846 -1.1826038 1.1945803e-39
0.97553903 -4.5445085 -1.1826038 2.7600941e-39
1.0004272 -4.5350323 -1.1826038 3.0352363e-39
1.0253155 -4.5255566 -1.1826038 1.8388651e-39
1.0663807 -4.5831141 -1.1905607 1.6544753e-39
1.057644 -4.510674 -1.1911489 1.1031036e-39
1.0832062 -4.5767083 -1.1905607 6.4320861e-40
1.0825322 -4.5011978 -1.1911489 5.5173465e-40
1.1390294 -4.4135613 -1.1634173 1.1952978e-39
1.1654931 -4.4696112 -1.1911489 1.9310579e-39
1.1668626 -4.4046559 -1.1577996 1.0152141e-39
1.1937174 -4.4605808 -1.1854521 1.3800478e-39
1.2161254 -4.4529066 -1.1826038 1.5626398e-39
1.2505921 -4.5103669 -1.1992258 1.1031036e-39
0.95321804 -4.5607276 -1.1569687 9.2086749e-40
0.94934618 -4.4976254 -1.1240927 1.471163e-39
0.97810632 -4.5512514 -1.1569687 1.4736741e-39
0.97388977 -4.4882803 -1.1240927 7.3576157e-40
1.0038503 -4.544023 -1.1484237 1.1056147e-39
1.0057707 -4.4736042 -1.1325195 1.1048972e-39
1.0370346 -4.5313883 -1.1484237 1.1953006e-39
1.0681164 -4.5876727 -1.1732304 1.103821e-39
1.0627787 -4.5241604 -1.1398786 5.5137311e-40
1.0849419 -4.5812669 -1.1732304 5.5244931e-40
1.1211512 -4.4322114 -1.1240927 1.8403113e-40
1.1540356 -4.4894147 -1.1398786 1.745236e-39
1.1448509 -4.4206505 -1.1325195 1.7470352e-39
1.1689162 -4.4786019 -1.1569687 1.6548396e-39
1.1946602 -4.4713736 -1.1484237 1.6555543e-39
1.2363702 -4.5236115 -1.1732304 7.3647903e-40
1.2531956 -4.5172052 -1.1732304 4.6025508e-40
0.95103407 -4.5020585 -1.1072394 1.2878507e-39
0.97557765 -4.4927135 -1.1072394 1.1974572e-39
1.0064179 -4.550766 -1.1227885 4.6025788e-40
1.0313061 -4.5412903 -1.1227885 9.187151e-40
1.0644904 -4.5286555 -1.1227885 9.1908224e-40
1.1474513 -4.4970684 -1.1227885 9.2015283e-40
1.1723396 -4.4875927 -1.1227885 2.2998727e-39
1.1972277 -4.4781165 -1.1227885 1.2882109e-39
1.2381058 -4.5281701 -1.1559001 3.6770212e-40
1.222116 -4.4686403 -1.1227885 2.7658409e-40
1.2557991 -4.5240431 -1.1472349 3.6806085e-40
0.93280584 -4.4513001 -1.0589068 1.8417336e-39
0.95601171 -4.5069308 -1.0847681 2.2083581e-39
0.99153739 -4.5615792 -1.1056985 2.2101588e-39
0.97895342 -4.5015798 -1.0735325 3.3114602e-39
1.0089853 -4.5575094 -1.0971534 1.3796876e-39
1.0280405 -4.4828901 -1.0735325 6.4321141e-40
1.0308228 -4.548337 -1.1000017 6.4320861e-40
1.0640072 -4.5357022 -1.1000017 7.3577138e-40
1.0918845 -4.5995011 -1.1039091 4.5953902e-40
1.0928017 -4.5281701 -1.0886084 3.6806365e-40
1.1090086 -4.4495239 -1.0819592 2.1172401e-39
1.109394 -4.521853 -1.0886084 8.2903199e-40
1.125371 -4.443294 -1.0819592 2.7644115e-39
1.1583147 -4.5006533 -1.0971534 2.9441183e-39
1.174907 -4.4943361 -1.0971534 3.1270858e-39
1.1997951 -4.4848599 -1.0971534 1.6562689e-39
1.2080268 -4.414362 -1.0735325 3.6913705e-40
1.2238276 -4.4731359 -1.1056985 3.6877832e-40
0.93239814 -4.5269189 -1.0482525 1.4708043e-39
0.95694172 -4.5175743 -1.0482525 2.7597312e-39
0.98966652 -4.5051146 -1.0482525 2.7611689e-39
1.0297284 -4.4873233 -1.0566791 3.6913705e-40
1.0348165 -4.5588264 -1.0601249 9.2123043e-40
1.0704809 -4.5443897 -1.0629733 4.6025508e-40
1.0962249 -4.5371609 -1.0544282 2.765967e-40
1.1104454 -4.5976534 -1.0865788 3.6771333e-40
1.1033591 -4.4592891 -1.0566791 1.0116268e-39
1.1128172 -4.5308437 -1.0544282 1.8438986e-40
1.0975302 -4.3985958 -1.0256592 1.8438986e-40
1.1287467 -4.4521604 -1.0482525 1.2878507e-39
1.1508445 -4.4445934 -1.0454435 2.5757071e-39
1.1774743 -4.5010791 -1.0715183 2.2991342e-39
1.186859 -4.4325728 -1.0398257 1.5644334e-39
1.2023624 -4.4916029 -1.0715183 1.2889269e-39
1.2364026 -4.481216 -1.0629733 6.4356734e-40
1.2621466 -4.4739876 -1.0544282 1.9306992e-39
0.93577391 -4.5357852 -1.0145456 1.287492e-39
0.96031749 -4.5264406 -1.0145456 2.6678957e-39
0.99304229 -4.5139809 -1.0145456 2.5800105e-39
1.0233212 -4.5032983 -1.0117366 1.197453e-39
1.0481601 -4.5606084 -1.037338 7.371965e-40
1.0511545 -4.4943929 -1.0061189 1.1960152e-39
1.0730484 -4.5511327 -1.037338 5.5280804e-40
1.0830353 -4.4797163 -1.0145456 3.6806085e-40
1.0838881 -4.4113002 -1.0007235 2.7622535e-40
1.1000276 -4.4051552 -1.0007235 5.5173184e-40
1.1321225 -4.4610267 -1.0145456 1.5633614e-39
1.156666 -4.4516821 -1.0145456 2.4853009e-39
1.1893909 -4.4392223 -1.0145456 1.4722392e-39
1.23897 -4.4879589 -1.037338 4.5989635e-40
1.2638582 -4.4784832 -1.037338 8.2723833e-40
0.92582321 -4.4814954 -0.96747589 1.3796862e-39
0.95086491 -4.4744644 -0.95916396 3.0352517e-39
0.9628492 -4.5330901 -0.98926544 2.3001936e-39
0.99557406 -4.5206304 -0.98926544 1.7495436e-39
1.0282989 -4.5081706 -0.98926544 1.1970999e-39
1.0528424 -4.4988256 -0.98926544 9.1943396e-40
1.0839117 -4.5547166 -1.0117029 4.6061381e-40
1.1013596 -4.5506473 -1.0031579 3.6806085e-40
1.1101106 -4.4770212 -0.98926544 4.5953761e-40
1.1346543 -4.4676762 -0.98926544 2.3909557e-39
1.1591978 -4.4583316 -0.98926544 2.3909655e-39
1.1919227 -4.4458718 -0.98926544 1.1974502e-39
1.2164662 -4.4365273 -0.98926544 5.5209058e-40
1.2440175 -4.4928999 -1.0145513 4.6025508e-40
1.2664255 -4.4852262 -1.0117029 2.7622535e-40
0.92832065 -4.4880543 -0.94254023 2.4885337e-39
0.95252991 -4.478837 -0.94254023 2.9452085e-39
0.99810582 -4.5272803 -0.96398532 1.8399427e-39
1.0308306 -4.5148206 -0.96398532 1.6551969e-39
1.0545303 -4.5032587 -0.97241205 2.0211012e-39
1.0820895 -4.5665627 -0.97467446 6.4392607e-40
1.1039271 -4.5573902 -0.97752279 1.8474859e-40
1.1156509 -4.4833713 -0.96117646 7.3540284e-40
1.1196636 -4.5488257 -0.98606783 1.8403113e-40
1.1371861 -4.4743261 -0.96398532 2.1161653e-39
1.1381338 -4.4081697 -0.94254023 2.6668181e-39
1.1641755 -4.4632044 -0.96679425 2.3012782e-39
1.1914461 -4.4528213 -0.96679425 1.4715217e-39
1.220928 -4.5154161 -0.96897775 1.1031036e-39
1.2241709 -4.4403615 -0.96679425 7.350441e-40
1.2541122 -4.5027814 -0.96897775 4.6025508e-40
1.2508789 -4.4285007 -0.97241205 4.5989635e-40
1.2707044 -4.4964643 -0.96897775 2.7622535e-40
0.94505721 -4.5601673 -0.92185181 3.8696661e-39
0.94612497 -4.4862819 -0.92591637 4.0475791e-39
0.97176522 -4.5483065 -0.92746961 3.6805959e-39
0.99847335 -4.5364456 -0.93308741 2.3916718e-39
0.99620837 -4.4722199 -0.90929258 1.8417336e-39
1.0342064 -4.5236869 -0.93027848 9.2015002e-40
1.0587499 -4.5143418 -0.93027848 7.3576157e-40
1.0899023 -4.5704503 -0.95188761 7.3577278e-40
1.0841374 -4.5072136 -0.92185181 4.5990195e-40
1.1064944 -4.5641332 -0.95188761 4.5989635e-40
1.1190267 -4.4922376 -0.92746961 9.2015002e-40
1.1230867 -4.557816 -0.95188761 4.5989635e-40
1.125324 -4.4230604 -0.90929258 2.3009293e-39
1.1397179 -4.4809756 -0.93870521 1.6555697e-39
1.1414635 -4.4169154 -0.90929258 2.942326e-39
1.1675513 -4.4720707 -0.93308741 2.2065644e-39
1.189649 -4.4645033 -0.93027848 1.380045e-39
1.2226397 -4.5199118 -0.95188761 8.2867326e-40
1.2223737 -4.4520435 -0.93027848 1.0116268e-39
1.255824 -4.507277 -0.95188761 6.442848e-40
1.2724161 -4.5009599 -0.95188761 4.6061381e-40
0.93038267 -4.5708303 -0.90499842 3.2200171e-39
0.92691046 -4.5086184 -0.87604499 3.4054762e-39
0.9467451 -4.5646005 -0.90499842 3.8667808e-39
0.97128862 -4.5552559 -0.90499842 3.2217771e-39
0.98256606 -4.4849238 -0.88435686 2.486017e-39
1.0043629 -4.4774599 -0.88158625 1.7491806e-39
1.0285571 -4.5334511 -0.90499842 9.1979129e-40
1.0309844 -4.4664888 -0.88435686 7.361203e-40
1.0612818 -4.5209913 -0.90499842 5.5209058e-40
1.0858253 -4.5116467 -0.90499842 1.8438986e-40
1.110369 -4.5023017 -0.90499842 5.5137311e-40
1.1197515 -4.4326916 -0.88435686 1.7477541e-39
1.1520303 -4.4204016 -0.88435686 2.2994831e-39
1.1762396 -4.4111843 -0.88435686 1.747387e-39
1.2085433 -4.4649229 -0.90499842 1.1970914e-39
1.2243513 -4.5244074 -0.93479753 1.1974502e-39
1.2330868 -4.4555779 -0.90499842 3.6913705e-40
1.2575356 -4.5117726 -0.93479753 1.0112681e-39
1.2576305 -4.4462333 -0.90499842 5.5137311e-40
1.2741277 -4.5054555 -0.93479753 5.5209058e-40
0.92557722 -4.5828118 -0.87129158 2.7633297e-39
0.93831003 -4.5142908 -0.8427974 4.0562294e-39
0.95012087 -4.5734668 -0.87129158 3.7785789e-39
0.96251935 -4.5050735 -0.8427974 2.950944e-39
0.97382039 -4.5619054 -0.87971824 3.4065327e-39
0.98672849 -4.4958558 -0.8427974 2.7600885e-39
0.99920803 -4.5547771 -0.87129158 3.6809546e-39
1.0101049 -4.4844518 -0.85110927 2.0261276e-39
1.0482951 -4.5360875 -0.87129158 8.279572e-40
1.0512863 -4.4712758 -0.8427974 5.5244931e-40
1.0638136 -4.5276408 -0.8797183 4.6025508e-40
1.0674257 -4.4651308 -0.8427974 4.6025508e-40
1.0883571 -4.5182962 -0.8797183 6.4356874e-40
1.0988719 -4.4506545 -0.85110927 1.1967327e-39
1.1120569 -4.5067348 -0.88814497 7.3647903e-40
1.1154863 -4.3777299 -0.8397153 2.7593921e-39
1.1150115 -4.4445095 -0.85110927 2.4831485e-39
1.1314095 -4.3716674 -0.8397153 2.6696894e-39
1.152367 -4.3628645 -0.84244889 2.2094343e-39
1.180402 -4.4221163 -0.8427974 1.8417336e-39
1.2110751 -4.4715724 -0.8797183 1.5658712e-39
1.1965415 -4.4159713 -0.8427974 1.564439e-39
1.2356186 -4.4622273 -0.8797183 8.279558e-40
1.2610062 -4.4550996 -0.87129158 8.2759706e-40
1.2775508 -4.5144463 -0.90061736 4.5953761e-40
1.2773685 -4.4488697 -0.87129158 2.4799199e-39
0.92595398 -4.6637549 -0.84934711 2.3938242e-39
0.9362902 -4.5863461 -0.84601146 3.5930946e-39
0.93997478 -4.5186634 -0.8261736 4.3259653e-39
0.96418411 -4.5094461 -0.8261736 3.8664277e-39
1.010765 -4.5605288 -0.83758479 2.9444854e-39
1.0426458 -4.5458522 -0.84601146 1.2885696e-39
1.0240524 -4.4248919 -0.79871219 6.4356734e-40
1.0448813 -4.4787211 -0.8261736 7.3540284e-40
1.0399758 -4.418829 -0.79871219 8.2759706e-40
1.0690905 -4.4695034 -0.8261736 2.7586662e-40
1.0990702 -4.521831 -0.85443819 4.6026209e-40
1.0932997 -4.4602861 -0.8261736 3.6770212e-40
1.1255786 -4.4479961 -0.8261736 1.6577193e-39
1.1497879 -4.4387789 -0.8261736 2.3963367e-39
1.1506182 -4.3742328 -0.80691284 2.7583173e-39
1.1820668 -4.4264889 -0.8261736 2.1154464e-39
1.2062761 -4.4172711 -0.8261736 1.3793303e-39
1.2414401 -4.469317 -0.84882039 7.3576157e-40
1.263538 -4.4617491 -0.84601146 3.6806225e-40
1.2799003 -4.4555192 -0.84601146 9.1907523e-40
0.85869819 -4.6285791 -0.80387789 1.8438986e-40
0.89448124 -4.6808853 -0.83225709 9.2016404e-40
0.89960414 -4.6130047 -0.80387789 4.4145694e-39
0.91936952 -4.6714096 -0.83225709 2.7586536e-39
0.92330384 -4.6014428 -0.81230462 3.6773687e-39
0.91423112 -4.4716449 -0.7823109 4.0482994e-39
0.93357009 -4.5261092 -0.80954981 4.1408692e-39
0.93811631 -4.4625506 -0.7823109 4.1444733e-39
0.96909374 -4.5142522 -0.80400854 3.7749551e-39
0.97792488 -4.4473939 -0.7823109 2.948786e-39
0.99005824 -4.5046015 -0.80954981 3.4050894e-39
1.0097716 -4.4352684 -0.7823109 2.0264864e-39
1.0121323 -4.4978657 -0.80400854 2.211242e-39
1.013098 -4.3731017 -0.75568217 1.8410189e-39
1.025695 -4.4292059 -0.7823109 1.6573465e-39
1.0495801 -4.4201117 -0.7823109 1.6555543e-39
1.0707555 -4.4738765 -0.80954981 7.3576437e-40
1.0957971 -4.4668455 -0.80123788 8.2832854e-40
1.128076 -4.4545555 -0.80123788 1.9317754e-39
1.1579425 -4.4440184 -0.79846722 2.2087182e-39
1.1845641 -4.4330482 -0.80123788 2.1158051e-39
1.2087734 -4.4238305 -0.80123788 9.2015002e-40
1.2380848 -4.4118357 -0.80400854 6.4392607e-40
1.2677579 -4.4728327 -0.80387789 4.6025788e-40
1.2644291 -4.4001369 -0.80954981 3.6806365e-40
1.2841202 -4.4666028 -0.80387789 2.7658409e-40
0.87301636 -4.6993523 -0.79807687 1.8403113e-40
0.8887527 -4.6907868 -0.80662191 1.9292699e-39
0.90129203 -4.6174378 -0.78702456 3.495497e-39
0.89821589 -4.5545893 -0.75967836 1.4697295e-39
0.92583561 -4.6080928 -0.78702456 2.6643126e-39
0.91587359 -4.4759593 -0.76590967 4.1412125e-39
0.90093482 -4.3593063 -0.72182906 4.1419398e-39
0.92045408 -4.413249 -0.73949993 3.777832e-39
0.9429602 -4.4672928 -0.76044255 4.0540672e-39
0.97808105 -4.521678 -0.76799029 3.4998018e-39
0.98038858 -4.4538651 -0.75770903 3.314005e-39
1.0042735 -4.4447708 -0.75770903 3.1285123e-39
1.015529 -4.3794866 -0.73140877 3.2199835e-39
1.0399057 -4.3726425 -0.72331768 3.3111099e-39
1.0496638 -4.4283123 -0.7549755 1.8406882e-39
1.0740852 -4.4826217 -0.77630216 1.1031134e-39
1.0991269 -4.4755907 -0.76799029 9.2051016e-40
1.1236992 -4.3993006 -0.75770903 2.2987699e-39
1.1233361 -4.4663734 -0.76799029 1.5637188e-39
1.1396224 -4.3932381 -0.75770903 2.0250472e-39
1.1635077 -4.3841438 -0.75770903 1.7484716e-39
1.1882141 -4.3772068 -0.74950838 1.929623e-39
1.2145154 -4.4308224 -0.77076089 1.1034623e-39
1.2363124 -4.4233584 -0.76799029 8.2759706e-40
1.2694458 -4.4772658 -0.78702456 6.4356874e-40
1.2858081 -4.471036 -0.78702456 2.7658409e-40
0.86207396 -4.637445 -0.77017111 1.8403673e-40
0.86926687 -4.5756249 -0.72643083 4.8705449e-39
0.89217579 -4.6997776 -0.77244174 3.8603264e-39
0.88374144 -4.5651073 -0.74305457 6.3560292e-39
0.89479876 -4.6249852 -0.77017111 4.1340393e-39
0.88895458 -4.5010271 -0.71670586 3.9582562e-39
0.92752349 -4.6125255 -0.77017111 1.8381561e-39
0.9236955 -4.4217625 -0.7071355 3.9604184e-39
0.9510057 -4.4724622 -0.73310709 4.4156442e-39
0.97630829 -4.5332007 -0.73197204 3.4965676e-39
0.98285252 -4.4603367 -0.73310709 2.9423246e-39
0.99838263 -4.5264649 -0.72643083 2.3920291e-39
1.0155207 -4.4503684 -0.7249065 3.1292242e-39
1.0136896 -4.5181336 -0.73474264 2.4863757e-39
1.0322652 -4.4464626 -0.71670586 2.9441183e-39
1.0415263 -4.3768992 -0.7071355 2.3931179e-39
1.0792143 -4.4261174 -0.7249065 2.0236109e-39
1.1105263 -4.4812641 -0.73474264 1.5655222e-39
1.119844 -4.4131174 -0.71670586 1.1056147e-39
1.1339031 -4.4698601 -0.74305457 1.6559102e-39
1.1429079 -4.4018669 -0.7249065 2.1172415e-39
1.1667931 -4.3927727 -0.7249065 1.6566333e-39
1.195712 -4.3809381 -0.72764003 1.1956607e-39
1.2243351 -4.4404354 -0.72643083 1.1034623e-39
1.2396421 -4.4321041 -0.73474264 5.5173465e-40
1.2719777 -4.4839153 -0.76174438 6.4320861e-40
1.28834 -4.4776855 -0.76174438 6.4357014e-40
0.87093174 -4.579998 -0.70980698 3.7656421e-39
0.89901841 -4.6360683 -0.7280376 8.0112163e-39
0.90321064 -4.567708 -0.70980698 5.8065002e-39
0.97583836 -4.5400558 -0.70980698 3.6838245e-39
1.0000474 -4.530838 -0.70980698 2.8540764e-39
1.0188057 -4.4589968 -0.69210404 2.760806e-39
1.016187 -4.524693 -0.70980698 2.5764175e-39
1.0347291 -4.4529343 -0.69210404 2.6675356e-39
1.043147 -4.381156 -0.69095325 2.2087224e-39
1.0594355 -4.4459968 -0.6839034 1.5644334e-39
1.0675235 -4.3743114 -0.6828621 1.4708043e-39
1.0976014 -4.4265256 -0.70030463 1.5680208e-39
1.0939782 -4.3650513 -0.68016505 1.8388637e-39
1.1294483 -4.4144001 -0.70030463 1.2896444e-39
1.1154661 -4.3584943 -0.67477101 1.1960152e-39
1.1461929 -4.4104953 -0.69210404 1.3822156e-39
1.1700782 -4.401401 -0.69210404 1.5644404e-39
1.1766884 -4.3303108 -0.69095325 2.0239851e-39
1.2048526 -4.3889837 -0.68937051 1.287492e-39
1.2425547 -4.3762755 -0.6839034 4.5989635e-40
1.2502092 -4.4355907 -0.70980698 6.4428761e-40
1.2745094 -4.4905648 -0.73646432 5.5209058e-40
1.2917156 -4.4865518 -0.7280376 2.7622956e-40
0.88518786 -4.6489477 -0.70275748 1.4697337e-39
0.90155029 -4.6427178 -0.70275748 5.430494e-39
0.91136527 -4.5729475 -0.68210065 6.4446571e-39
0.95757627 -4.4897189 -0.66750211 3.9618477e-39
0.980748 -4.5448613 -0.68764192 3.8646326e-39
0.9894231 -4.4775934 -0.66750211 3.1285067e-39
1.0017123 -4.5352101 -0.69318318 3.4061656e-39
1.013308 -4.4684992 -0.66750211 1.4736741e-39
1.0178518 -4.5290651 -0.69318318 2.7604473e-39
1.008732 -4.4088793 -0.64240646 7.350441e-40
1.0371932 -4.4594054 -0.66750211 8.2723833e-40
1.0448501 -4.3935032 -0.64780056 3.6770212e-40
1.0690399 -4.4472799 -0.66750211 3.6770212e-40
1.0849634 -4.4412169 -0.66750211 1.8403113e-40
1.0914425 -4.3741393 -0.65319467 4.5953761e-40
1.1178969 -4.3648791 -0.65049762 1.8403113e-40
1.148657 -4.4169664 -0.66750211 2.7626039e-40
1.1645805 -4.4109035 -0.66750211 3.6770212e-40
1.1970509 -4.4658437 -0.67655939 5.5137311e-40
1.204389 -4.3957467 -0.66750211 8.268796e-40
1.2362357 -4.3836212 -0.66750211 7.3540424e-40
1.2438043 -4.4430356 -0.69318318 8.2724113e-40
1.2443935 -4.3191528 -0.64240646 3.0395453e-39
0.88328588 -4.7263246 -0.69553638 1.8403113e-40
0.88856363 -4.657814 -0.66905069 1.3821974e-39
0.89987803 -4.7200069 -0.69553638 4.6025788e-40
0.90981752 -4.6480298 -0.67466849 5.3365117e-39
0.9376508 -4.6391244 -0.66905069 4.1358343e-39
0.94131666 -4.5707221 -0.65162367 2.6678957e-39
0.95207822 -4.4992213 -0.64290023 3.7796158e-39
0.98392504 -4.4870958 -0.64290023 1.9317824e-39
0.99464184 -4.4191179 -0.62622422 3.6841958e-40
1.006989 -4.4758453 -0.65110087 1.194939e-39
1.0190183 -4.4122734 -0.61813313 4.6025508e-40
1.0388358 -4.4637198 -0.65110087 3.6770212e-40
1.0527883 -4.3986039 -0.62083018 2.7586662e-40
1.0874271 -4.4476881 -0.64290023 3.6770212e-40
1.0999205 -4.3806586 -0.62083018 4.5989635e-40
1.1184528 -4.4334059 -0.65110087 3.6806085e-40
1.1289937 -4.3704009 -0.61813313 1.8403113e-40
1.1502995 -4.4212809 -0.65110087 1.8439126e-40
1.1604153 -4.3584375 -0.61813313 2.7586662e-40
1.1741848 -4.4121866 -0.65110087 1.8403113e-40
1.2039251 -4.4025092 -0.64563376 3.6770212e-40
1.2326595 -4.4622989 -0.6433118 9.219563e-41
1.2410798 -4.3883629 -0.64563376 7.350441e-40
1.248799 -4.4561539 -0.6433118 1.8403113e-40
1.2476349 -4.3276663 -0.61004198 1.8403113e-40
1.263406 -4.3831553 -0.63469964 3.6841958e-40
0.90330112 -4.7289977 -0.66135621 2.7600955e-39
0.91563898 -4.6551189 -0.64377058 4.8744882e-39
0.94018257 -4.6457739 -0.64377058 3.7699427e-39
0.94381398 -4.5772815 -0.626688 2.8483381e-39
0.97375137 -4.6355309 -0.63534385 3.7663329e-39
0.98416275 -4.5619192 -0.626688 3.2171332e-39
1.0083718 -4.5527015 -0.626688 1.0109093e-39
0.99950391 -4.4318881 -0.57767755 2.7802462e-40
1.0166769 -4.4853287 -0.60736418 2.7622535e-40
1.0251484 -4.4204993 -0.58307165 3.6877832e-40
1.0565699 -4.408536 -0.58307165 2.7586662e-40
1.0588654 -4.468442 -0.61009771 4.5954042e-40
1.0772475 -4.3998508 -0.5857687 1.8403253e-40
1.0978528 -4.451128 -0.61829835 5.5137311e-40
1.1008136 -4.3908782 -0.5857687 2.7586662e-40
1.1345835 -4.3772078 -0.58846569 1.8403113e-40
1.1636567 -4.366951 -0.5857687 1.8403113e-40
1.1872228 -4.3579783 -0.5857687 1.8403113e-40
1.201355 -4.4117203 -0.61829835 1.8403113e-40
1.2343243 -4.4666719 -0.626688 1.8403113e-40
1.2194546 -4.3481431 -0.57767755 1.8403113e-40
1.2332019 -4.3995948 -0.61829835 4.5953761e-40
1.2846367 -4.5171638 -0.63534385 4.5953761e-40
0.91901475 -4.6639853 -0.61006373 4.4138491e-39
0.95650083 -4.7190366 -0.62717605 5.8875275e-39
0.9599207 -4.6484103 -0.61006373 3.6805973e-39
0.97628313 -4.6421804 -0.61006373 2.2087168e-39
0.96661049 -4.5134468 -0.57729524 1.8388637e-39
0.98582762 -4.5662913 -0.61006421 2.4845849e-39
0.98756772 -4.5046439 -0.58002877 1.3789688e-39
1.0100367 -4.5570736 -0.61006421 7.3540284e-40
0.99326926 -4.4391351 -0.56149524 3.6842239e-40
1.0246907 -4.4271717 -0.56149524 4.5989635e-40
1.0278634 -4.3662915 -0.5381707 4.6025508e-40
1.0561124 -4.4152083 -0.56149524 3.6770212e-40
1.0796785 -4.4062357 -0.56149524 2.7586662e-40
1.1032447 -4.3972631 -0.56149524 1.8403253e-40
1.141768 -4.4467568 -0.57729524 1.8403253e-40
1.1425216 -4.3823085 -0.56149524 1.8403113e-40
1.1660877 -4.3733358 -0.56149524 9.219563e-41
1.1896539 -4.3643632 -0.56149524 1.8403113e-40
1.221385 -4.4164433 -0.57729524 1.8403113e-40
1.2359892 -4.4710441 -0.61006421 1.8403113e-40
1.2210754 -4.3523993 -0.56149524 9.219563e-41
1.2634434 -4.4622598 -0.60452288 1.8403113e-40
1.3026869 -4.515367 -0.6184904 7.3504691e-40
0.95821244 -4.7235322 -0.6100859 5.1575098e-39
0.92784429 -4.6000504 -0.57127529 5.333995e-39
0.96245259 -4.6550603 -0.58478355 5.0617171e-39
0.96578068 -4.586441 -0.56850463 3.6802372e-39
0.96907419 -4.519918 -0.55269325 2.3923878e-39
0.99140066 -4.5147109 -0.54175907 1.1027448e-39
0.9980486 -4.4438138 -0.53991896 4.5953761e-40
1.0192662 -4.4365473 -0.53722191 3.6806085e-40
1.0302625 -4.3725929 -0.51421523 3.6770912e-40
1.0663985 -4.418602 -0.53722191 2.7586662e-40
1.0821093 -4.4126205 -0.53722191 1.8403113e-40
1.1056755 -4.4036479 -0.53722191 1.8403113e-40
1.1318446 -4.3363214 -0.50623012 2.7622535e-40
1.137097 -4.3916841 -0.53722191 1.8403113e-40
1.1473497 -4.3304181 -0.50623012 2.7586662e-40
1.1685185 -4.3797207 -0.53722191 2.7586802e-40
1.1920847 -4.370748 -0.53722191 9.219563e-41
1.2246702 -4.4250717 -0.5444926 9.219563e-41
1.2405936 -4.4190087 -0.5444926 1.8403113e-40
0.93683141 -4.6074767 -0.53525704 5.5176716e-39
0.96414047 -4.6594934 -0.56793016 6.623638e-39
0.95297092 -4.6013317 -0.53525704 6.3510041e-39
0.98219079 -4.6576967 -0.55107671 4.6929514e-39
0.99090713 -4.5877223 -0.53248638 2.5760616e-39
1.0042064 -4.5164213 -0.51989079 8.2831593e-40
0.99549872 -4.3978539 -0.47428951 3.6844341e-40
1.0067968 -4.4510422 -0.50485742 3.6807346e-40
1.010204 -4.3898501 -0.48227465 3.6770212e-40
1.0216973 -4.4429321 -0.51294851 2.7622535e-40
1.0334615 -4.3809948 -0.48227465 3.6770492e-40
1.0688295 -4.4249868 -0.51294851 2.7586662e-40
1.0567189 -4.3721399 -0.48227465 2.7586662e-40
1.0853508 -4.4211335 -0.50485742 2.7586802e-40
1.0931638 -4.3590651 -0.47961289 1.8403113e-40
1.1112652 -4.4104548 -0.50755441 1.8403113e-40
1.134244 -4.3426228 -0.48227465 1.8438986e-40
1.132483 -4.4031882 -0.50485742 1.8403113e-40
1.1489491 -4.334619 -0.4902598 1.8438986e-40
1.1796154 -4.3852425 -0.50485742 2.7586942e-40
1.1953261 -4.379261 -0.50485742 2.7586662e-40
1.2271341 -4.4315434 -0.51989079 1.8403113e-40
1.2430575 -4.4254804 -0.51989079 1.8403113e-40
1.2416481 -4.3591876 -0.51294851 1.8438986e-40
0.93932861 -4.6140351 -0.51032138 4.8769881e-39
0.91496325 -4.4933181 -0.48058403 4.326324e-39
0.96353787 -4.6048179 -0.51032138 6.2588379e-39
0.98387867 -4.6621294 -0.53422338 5.2457832e-39
1.0038866 -4.5894551 -0.51032138 2.300195e-39
1.0019289 -4.6603327 -0.51736993 4.5092748e-39
0.99870843 -4.5259233 -0.49528894 1.7488219e-39
0.99709815 -4.4020548 -0.45831925 3.6841958e-40
0.9943276 -4.4655375 -0.4724929 6.4320861e-40
1.012603 -4.3961515 -0.45831925 1.8403113e-40
1.0358605 -4.3872962 -0.45831925 1.8403113e-40
1.0668706 -4.3754897 -0.45831925 1.8403113e-40
1.0877818 -4.4275188 -0.48058403 1.8439266e-40
1.0978805 -4.3636827 -0.45831925 9.2197031e-41
1.1288905 -4.3518758 -0.45831925 1.8403113e-40
1.134914 -4.4095736 -0.48058403 1.8403113e-40
1.1521481 -4.3430209 -0.45831925 1.8403113e-40
1.1773497 -4.3950405 -0.47518995 9.219563e-41
1.1985675 -4.3877745 -0.4724929 9.219563e-41
1.2295978 -4.438014 -0.49528894 9.219563e-41
1.2455212 -4.431951 -0.49528894 1.8403113e-40
1.2782575 -4.4849906 -0.51032138 1.8403113e-40
0.96603531 -4.6113772 -0.48538566 6.4406942e-39
0.99024457 -4.6021595 -0.48538566 5.7092277e-39
0.98104781 -4.4779038 -0.4482196 3.8703653e-39
0.99321073 -4.5354266 -0.47068703 3.2210597e-39
0.99459559 -4.4110236 -0.43170205 4.5954042e-40
0.99675864 -4.4719224 -0.4482196 6.4392887e-40
1.0150023 -4.4024525 -0.43436378 2.7622535e-40
1.0382597 -4.3935971 -0.43436378 3.6770772e-40
1.0692698 -4.3817906 -0.43436378 1.8403113e-40
1.1002797 -4.3699837 -0.43436378 2.7586662e-40
1.1312897 -4.3581767 -0.43436378 1.8403113e-40
1.155347 -4.3514223 -0.42637864 1.8403113e-40
1.1774324 -4.403132 -0.4482196 1.8403113e-40
1.2009985 -4.3941593 -0.4482196 1.8403253e-40
1.2328832 -4.4466429 -0.46248645 1.8403113e-40
1.2496277 -4.4427366 -0.4542858 1.8438986e-40
1.2756526 -4.4943271 -0.48261502 1.8403113e-40
0.9884972 -4.7531776 -0.47336522 5.7938899e-39
0.99063021 -4.679862 -0.46680972 6.5343122e-39
0.98139387 -4.5522747 -0.42968395 7.0824567e-39
0.992742 -4.6087189 -0.46044996 6.902373e-39
0.98347861 -4.4842887 -0.42394623 3.7731531e-39
0.99726123 -4.418025 -0.40508488 4.5953902e-40
1.018201 -4.4108539 -0.4024232 1.8403113e-40
1.0414585 -4.4019985 -0.4024232 1.8403533e-40
1.0724685 -4.390192 -0.4024232 1.8403253e-40
1.1011609 -4.3800693 -0.39976144 1.8438986e-40
1.1256859 -4.4325809 -0.41585511 1.8403113e-40
1.1321709 -4.3682628 -0.39976144 1.8403113e-40
1.1571075 -4.4206176 -0.41585511 1.8403113e-40
1.1577461 -4.3577232 -0.4024232 9.219563e-41
1.1869084 -4.404397 -0.43203735 9.2554362e-41
1.1781528 -4.3491516 -0.40508488 9.2554362e-41
1.2136332 -4.3958468 -0.42664331 9.219563e-41
1.2571256 -4.4464684 -0.43241748 1.8403113e-40
1.2832524 -4.4981093 -0.46044996 1.8403113e-40
1.2513721 -4.384727 -0.41585511 1.8403253e-40
1.2993917 -4.4919643 -0.46044996 3.5012325e-39
0.97764355 -4.6949582 -0.43310288 4.8798411e-39
0.9902088 -4.7576733 -0.45627514 5.6134503e-39
0.95201093 -4.5708718 -0.40508205 4.8813041e-39
0.97993225 -4.6236091 -0.4272024 6.1644591e-39
0.99231809 -4.6842952 -0.4499563 6.625789e-39
0.97589618 -4.5617776 -0.40508205 5.798552e-39
0.98672003 -4.4928017 -0.39158174 2.9401778e-39
1.005895 -4.425159 -0.37048265 3.6806085e-40
1.0024308 -4.4868202 -0.39158174 1.0109093e-39
1.0214 -4.4192557 -0.37048265 2.7586662e-40
1.0446575 -4.4104004 -0.37048265 5.5137591e-40
1.0756675 -4.3985939 -0.37048265 3.6770212e-40
1.1066774 -4.3867869 -0.37048265 2.7586662e-40
1.1376874 -4.37498 -0.37048265 1.8403113e-40
1.1609451 -4.3661251 -0.37048265 1.8403113e-40
1.17645 -4.3602214 -0.37048265 1.8403113e-40
1.2145262 -4.4060659 -0.39158168 1.8403113e-40
1.2380923 -4.3970933 -0.39158174 9.219563e-41
1.2083136 -4.2301254 -0.33771262 1.8403113e-40
1.2392696 -4.3387084 -0.36249751 1.8403113e-40
1.2538031 -4.3911119 -0.39158174 9.219563e-41
1.2023127 -4.1218128 -0.29893035 2.3009111e-39
0.95447463 -4.5773425 -0.38048014 3.880805e-39
0.97835988 -4.5682483 -0.38048014 5.4269095e-39
0.97888368 -4.4474683 -0.3305569 9.1873892e-40
0.98996145 -4.5013151 -0.35921729 1.8370827e-39
1.0041921 -4.4362288 -0.33588034 2.7622535e-40
1.0056722 -4.4953337 -0.35921729 5.5137311e-40
1.0245988 -4.4276576 -0.33854204 2.7622535e-40
1.0478563 -4.4188023 -0.33854204 4.5953761e-40
1.0788664 -4.4069958 -0.33854204 1.8403113e-40
1.1098763 -4.3951888 -0.33854204 3.6806225e-40
1.1408863 -4.3833818 -0.33854204 1.8403113e-40
1.1641439 -4.374527 -0.33854204 9.219563e-41
1.1874014 -4.3656716 -0.33854204 2.7586662e-40
1.2169572 -4.4124513 -0.36730838 1.8403113e-40
1.2091436 -4.2918539 -0.34208164 1.8403113e-40
1.2160938 -4.3555489 -0.33588034 9.219563e-41
1.2405233 -4.4034786 -0.36730838 1.8403113e-40
1.1817327 -4.1342192 -0.28375483 3.1313836e-39
1.188848 -4.1881485 -0.2950047 1.0105604e-39
1.2030963 -4.2391424 -0.31436655 1.8403113e-40
1.2038326 -4.1258049 -0.28375483 2.5753456e-39
0.91383857 -4.5376091 -0.33494392 2.9480909e-39
0.94607031 -4.5277734 -0.3268528 3.1371611e-39
0.94979811 -4.5890021 -0.34767765 4.5153928e-39
0.96178108 -4.5217919 -0.3268528 4.41241e-39
0.98082393 -4.5747199 -0.35587829 4.6029165e-39
0.97273046 -4.4546204 -0.31458658 2.301281e-39
0.97668177 -4.5136819 -0.33494392 4.889199e-39
0.99598807 -4.4457655 -0.31458658 3.6806225e-40
0.99880582 -4.3838096 -0.30266809 2.7658409e-40
1.0269979 -4.4339585 -0.31458658 2.7658409e-40
1.0502554 -4.4251032 -0.31458658 2.7586802e-40
1.0761257 -4.3567443 -0.29478535 2.7586662e-40
1.0812654 -4.4132967 -0.31458658 2.7622535e-40
1.0898527 -4.3467698 -0.31055081 1.8403673e-40
1.1200279 -4.3985381 -0.31458658 1.8403113e-40
1.114391 -4.342175 -0.29478535 1.8403253e-40
1.1432854 -4.3896828 -0.31458658 9.219563e-41
1.1373501 -4.3334336 -0.29478535 1.8438986e-40
1.166543 -4.3808279 -0.31458658 1.8438986e-40
1.1898005 -4.3719726 -0.31458658 1.8403113e-40
1.1695482 -4.2047524 -0.26427218 2.9430547e-39
1.1827686 -4.2539139 -0.29102042 3.6770212e-40
1.213058 -4.3631172 -0.31458658 1.8403253e-40
1.1832525 -4.1382108 -0.26857933 6.0772941e-39
1.1896961 -4.1978526 -0.26171118 5.7993003e-39
1.2127191 -4.1269917 -0.26857933 2.7600899e-39
1.2195332 -4.1864924 -0.26171118 4.6940177e-39
0.94064593 -4.5371494 -0.30257937 1.011638e-39
0.94430047 -4.5985055 -0.32307574 3.3154231e-39
0.96421212 -4.5281768 -0.30257937 4.5953761e-40
0.97744721 -4.4592381 -0.29329285 4.5953902e-40
0.99838716 -4.4520669 -0.29063115 2.7586662e-40
1.0019636 -4.3921037 -0.27113721 2.7586662e-40
1.029397 -4.4402599 -0.29063115 1.8403813e-40
1.0526545 -4.4314046 -0.29063115 2.7586662e-40
1.0639774 -4.3708658 -0.26325452 2.7586662e-40
1.0813472 -4.4212823 -0.28796944 1.8403113e-40
1.0930107 -4.3550639 -0.27901992 1.8403113e-40
1.1061224 -4.4086423 -0.29861629 1.8403113e-40
1.1190472 -4.3467331 -0.27376476 1.8403113e-40
1.1450837 -4.3384027 -0.26850963 1.8403113e-40
1.1689421 -4.3871293 -0.29063115 9.219563e-41
1.1723342 -4.2719483 -0.24432823 3.3085932e-39
1.1807978 -4.3248048 -0.26850963 6.4320861e-40
1.1893488 -4.3785577 -0.29329285 9.219563e-41
1.1583452 -4.1614056 -0.22305284 7.4519511e-39
1.1651669 -4.2156763 -0.23353975 6.7179846e-39
1.1730785 -4.1557961 -0.22305284 7.0885734e-39
1.1972338 -4.2026954 -0.23610075 6.8995116e-39
1.2240715 -4.1909347 -0.24122287 4.2298166e-39
0.94542533 -4.5418282 -0.28100306 5.5137591e-40
0.96664315 -4.5345616 -0.27830595 2.7622535e-40
0.9811793 -4.4690399 -0.25602877 6.4320861e-40
0.98235399 -4.5285797 -0.27830595 5.5137311e-40
0.98981529 -4.4062247 -0.23960637 3.6770212e-40
1.0007864 -4.4583683 -0.26667568 3.6806085e-40
1.0127745 -4.3974833 -0.23960637 2.7586662e-40
1.0317963 -4.4465613 -0.26667568 1.8403813e-40
1.0441761 -4.3879013 -0.2317237 2.7587083e-40
1.0558535 -4.4398065 -0.25869054 4.5953761e-40
1.0671352 -4.3791599 -0.2317237 2.7586662e-40
1.0897143 -4.4277158 -0.25602877 3.6770632e-40
1.1178734 -4.416193 -0.25869054 3.6770632e-40
1.1283596 -4.3558493 -0.2317237 1.8403673e-40
1.1419307 -4.4094377 -0.25070539 1.8403533e-40
1.1505291 -4.3450341 -0.23960637 1.8403113e-40
1.1376381 -4.2330995 -0.21049036 2.8508605e-39
1.1587822 -4.2817955 -0.22876421 3.0309567e-39
1.1726989 -4.334219 -0.24748911 1.8403253e-40
1.1598651 -4.1653976 -0.20787735 7.2693549e-39
1.1600159 -4.2245793 -0.21049036 7.6342166e-39
1.1973122 -4.2103791 -0.21049036 5.7935298e-39
1.2351147 -4.2550764 -0.22098216 4.2301739e-39
1.2661144 -4.3034 -0.2317237 3.2171136e-39
0.9280597 -4.5004878 -0.21876478 3.3254592e-39
0.9541738 -4.5490565 -0.24594146 4.5989635e-40
0.95004958 -4.613605 -0.26567134 1.195309e-39
0.95747024 -4.4844799 -0.23473509 3.6806085e-40
0.96907419 -4.540947 -0.25403264 3.6806085e-40
0.98152739 -4.477725 -0.22674993 4.5989775e-40
1.0133371 -4.468019 -0.21876478 2.7586802e-40
1.0235854 -4.402863 -0.20807554 2.7586662e-40
1.0465446 -4.3941216 -0.20807554 4.5953902e-40
1.0695037 -4.3853803 -0.20807554 5.5137872e-40
1.0978149 -4.4334493 -0.22674993 3.6770912e-40
1.1009052 -4.3757987 -0.20019287 3.6806085e-40
1.1182216 -4.4248781 -0.22941169 2.7587363e-40
1.116568 -4.3072433 -0.19763604 1.8438986e-40
1.1202607 -4.3652635 -0.21070321 3.6770212e-40
1.1183381 -4.2497034 -0.17975785 3.6770352e-40
1.1316786 -4.3014898 -0.19763604 1.8403113e-40
1.1452446 -4.3541684 -0.21595833 3.6770212e-40
1.1399465 -4.2391624 -0.18744098 5.4269151e-39
1.1697836 -4.2278023 -0.18744098 6.6250799e-39
1.1913919 -4.2172608 -0.1951241 5.5187407e-39
1.2223423 -4.2669706 -0.19763604 4.5971572e-39
1.2539661 -4.3175216 -0.20019287 3.3114602e-39
1.2684828 -4.3096204 -0.20807554 2.2980412e-39
0.95741498 -4.5575695 -0.21357697 1.8405495e-40
0.95251352 -4.6200767 -0.24106939 1.7613845e-39
0.97312576 -4.5515881 -0.21357697 3.6806225e-40
0.99167925 -4.4810748 -0.20279448 2.7622676e-40
0.98964697 -4.5477343 -0.2054859 3.6841958e-40
1.018054 -4.4726362 -0.19747108 2.7622816e-40
1.0397935 -4.4675655 -0.18682417 4.5989635e-40
1.0489128 -4.400342 -0.1844275 3.6770212e-40
1.0718719 -4.3916006 -0.1844275 2.7587923e-40
1.1010139 -4.4418511 -0.19480933 2.7622816e-40
1.1173185 -4.4380484 -0.18682417 2.7586662e-40
1.1189063 -4.313385 -0.17429002 2.7586662e-40
1.1177901 -4.3741174 -0.1844275 1.8403673e-40
1.1206466 -4.2557664 -0.15670858 3.3997364e-39
1.1430244 -4.2472463 -0.15670858 6.3524531e-39
1.1646328 -4.2367053 -0.16439171 5.8907477e-39
1.2163457 -4.273941 -0.18207206 3.8624732e-39
1.2555449 -4.3216681 -0.1844275 1.8377875e-39
1.2878735 -4.3731108 -0.18682417 1.1952978e-39
0.9606564 -4.566083 -0.18121259 2.0272122e-39
0.97636718 -4.5601015 -0.18121259 5.5173324e-40
0.99993342 -4.5511289 -0.18121259 2.7623937e-40
1.025888 -4.4776697 -0.17085399 3.6771053e-40
1.0234995 -4.5421562 -0.18121259 2.7622535e-40
1.0291116 -4.4173775 -0.15289667 3.6806085e-40
1.0413929 -4.4717665 -0.17085399 3.6806085e-40
1.048467 -4.4068427 -0.16340691 2.7586662e-40
1.0750299 -4.3998947 -0.15289667 2.7586662e-40
1.0956604 -4.4511046 -0.17085399 1.8403673e-40
1.1189179 -4.4422493 -0.17085399 2.7586662e-40
1.0821038 -4.2269974 -0.10164899 2.5717568e-39
1.0946568 -4.2772312 -0.11829284 2.7586942e-40
1.1172466 -4.324173 -0.14056779 1.1942272e-39
1.1201586 -4.3803377 -0.16077936 3.6806365e-40
1.1042039 -4.2185831 -0.10164899 5.9793714e-39
1.1190082 -4.2664175 -0.12341484 5.2446846e-39
1.1433594 -4.2556028 -0.12853709 4.9698816e-39
1.1824661 -4.2985597 -0.14316185 3.4004273e-39
1.2168339 -4.3427382 -0.16340691 3.0338014e-39
1.2662154 -4.386167 -0.17085399 6.4320861e-40
1.3071036 -4.4366121 -0.17312153 3.6806085e-40
1.0023644 -4.5575137 -0.15693928 2.7622676e-40
1.0282872 -4.4839706 -0.14689854 3.6841958e-40
1.0259305 -4.5485411 -0.15693928 3.6806085e-40
1.0445919 -4.4801683 -0.13891339 2.7622535e-40
1.0459967 -4.4156971 -0.13713132 4.6025788e-40
1.0748022 -4.4662604 -0.14689854 2.7622956e-40
1.0873392 -4.4015388 -0.13187608 4.5990475e-40
1.1050125 -4.4523535 -0.15488368 2.7587783e-40
1.0745873 -4.2918148 -0.095243566 2.2072847e-39
1.0941405 -4.33922 -0.11981573 1.8439967e-40
1.1072209 -4.3923864 -0.13713132 2.7658549e-40
1.1205175 -4.4464502 -0.15488368 1.8403253e-40
1.0797257 -4.2355204 -0.076356575 5.7049313e-39
1.1057236 -4.2225747 -0.086473443 5.8925483e-39
1.1409514 -4.2642331 -0.10292669 3.680254e-39
1.1752499 -4.3099008 -0.11462773 1.5633572e-39
1.2404554 -4.4039907 -0.14423679 5.5137311e-40
1.2657639 -4.3927517 -0.14956029 9.219563e-41
1.2910725 -4.3815126 -0.15488368 4.5989635e-40
0.96551841 -4.5788527 -0.13266586 4.9803296e-39
0.9766497 -4.6355844 -0.15906322 3.6077956e-39
0.9925732 -4.6295218 -0.15906322 1.3782611e-39
1.003985 -4.5617704 -0.14075704 1.8403953e-40
1.0306863 -4.490272 -0.12294297 4.5954462e-40
1.0275512 -4.5527978 -0.14075704 3.6771473e-40
1.0461912 -4.4843688 -0.12294297 1.928907e-39
1.0207341 -4.3223467 -0.061950054 4.5074741e-39
1.0272615 -4.3756208 -0.083499566 5.427278e-39
1.0644604 -4.4181628 -0.10560049 5.2439629e-39
1.0673978 -4.4778981 -0.11761957 4.878423e-39
1.0478282 -4.3112593 -0.064511061 2.4824367e-39
1.0594816 -4.3617911 -0.088687561 3.9510829e-39
1.0797665 -4.4123354 -0.10560049 4.5103804e-39
1.0927062 -4.4666586 -0.12294297 2.9430981e-39
1.0754354 -4.3015194 -0.061950054 4.4156778e-39
1.0866632 -4.2389722 -0.056122482 6.2599239e-39
1.2022152 -4.3657136 -0.10560049 2.7586802e-40
1.2379528 -4.4129605 -0.11761957 1.8403113e-40
1.2632612 -4.401721 -0.12294297 1.8403113e-40
0.97259611 -4.2938285 -0.018183865 5.2446944e-39
0.99869126 -4.3392229 -0.033778664 4.8769783e-39
1.0097121 -4.3901157 -0.057559505 4.6947352e-39
0.98808938 -4.290215 -0.010596095 6.1655997e-39
1.0210689 -4.3307028 -0.033778664 5.8850065e-39
1.0175561 -4.2789955 -0.010596095 4.8716113e-39
1.0509061 -4.3193426 -0.033778664 5.9764973e-39
1.0799737 -4.3059616 -0.041461792 6.9031255e-39
1.1023515 -4.297441 -0.041461792 3.4915747e-39
0.9577831 -4.3663683 0.0046369713 7.7368617e-39
0.98416716 -4.4139037 -0.010867365 6.1713339e-39
0.99507946 -4.3521681 0.0046369713 6.9016794e-39
0.99112898 -4.2981987 0.019754868 7.2665047e-39
1.021917 -4.3404069 -0.00048515195 7.1732272e-39
1.051241 -4.3276997 -0.0056071603 6.986678e-39
1.0939389 -4.3689837 -0.02124323 5.7038663e-39
1.1186037 -4.3580308 -0.026431335 2.3884418e-39
0.9484489 -4.3190198 0.034930408 6.4396279e-39
0.9667812 -4.3675704 0.020003226 7.0850113e-39
0.98572594 -4.4179978 0.0046967198 7.0874832e-39
0.98915905 -4.3590503 0.020003226 6.9913373e-39
1.0264553 -4.3448501 0.020003226 6.8987983e-39
1.0488331 -4.3363299 0.020003226 4.7847883e-39
1.0763894 -4.3834786 0.0046967198 7.1743006e-39
1.0915 -4.3777251 0.0046967198 6.0683734e-39
1.1198522 -4.4255614 -0.011008003 2.6646713e-39
1.1504644 -4.4139061 -0.011008003 1.8403113e-40
0.95809531 -4.3222022 0.057693601 1.0112681e-39
0.97654885 -4.3707929 0.043052606 3.4908279e-39
0.9989267 -4.3622727 0.043052606 5.8875303e-39
1.0287637 -4.3509126 0.043052606 5.5183946e-39
1.0558578 -4.3398252 0.040491488 2.940545e-39
1.0779482 -4.3875728 0.02026069 2.3880998e-39
1.0938381 -4.3838658 0.028042732 2.4813619e-39
1.1222206 -4.4317822 0.012640147 3.587687e-39
1.1504172 -4.478354 -0.011151087 1.1945803e-39
1.1423656 -4.4233203 0.010012588 1.1949419e-39
1.1976243 -4.5270329 -0.011299063 1.5615678e-39
0.9992618 -4.3706303 0.071223997 3.9579073e-39
1.031072 -4.3569756 0.066101991 3.4947739e-39
1.0534499 -4.3484554 0.066101991 2.4824353e-39
1.081845 -4.3978076 0.059170902 1.2864186e-39
1.0969557 -4.3920541 0.059170902 1.470105e-39
1.1253785 -4.4400764 0.044170976 2.2144622e-39
1.1406846 -4.4342484 0.044170976 1.0105534e-39
1.2302845 -4.5834713 -0.011451928 4.2387849e-39
1.2636464 -4.6407528 -0.011607355 5.8014261e-39
1.2797859 -4.6346078 -0.011607355 3.136759e-39
1.004313 -4.37642 0.096834496 5.3354285e-39
1.0237408 -4.4269614 0.082516916 4.5046056e-39
1.03415 -4.3650599 0.096834496 5.520547e-39
1.0464066 -4.4183311 0.082516916 5.1489002e-39
1.0774072 -4.4088717 0.09029907 3.4933418e-39
1.0992937 -4.3981948 0.082516916 1.1953006e-39
1.1285362 -4.44837 0.075701803 5.5138012e-40
1.1155987 -4.4604177 0.099349841 1.3789716e-39
1.1461085 -4.5136633 0.10064103 4.5953902e-40
