# .PCD v0.7 - Point Cloud Data file format
VERSION 0.7
FIELDS x y z rgb
SIZE 4 4 4 4
TYPE F F F F
COUNT 1 1 1 1
WIDTH 874
HEIGHT 1
VIEWPOINT 0 0 0 1 0 0 0
POINTS 874
DATA ascii
1.4934604 0.47704467 -1.1714262 1.6957156e-38
1.4816151 0.48179817 -1.163357 1.1518089e-38
1.4902906 0.47351927 -1.1479464 1.6033748e-38
1.4991626 0.4781881 -1.1584976 1.7051136e-38
1.4135219 0.50831562 -1.1134275 9.3169014e-39
1.4297251 0.50467706 -1.1226184 9.7771607e-39
1.4517952 0.49274492 -1.1352212 1.0789868e-38
1.4774203 0.4833959 -1.1462748 1.0417853e-38
1.4135219 0.51436698 -1.1134275 9.3161839e-39
1.4891709 0.47750458 -1.1185958 1.4100937e-38
1.415051 0.50831562 -1.1075727 9.4998549e-39
1.4361292 0.50481296 -1.104254 1.0423249e-38
1.4573511 0.49294344 -1.1089901 1.1804379e-38
1.4821144 0.48392844 -1.1172531 1.1157934e-38
1.3861978 0.53459573 -1.0861372 8.3935088e-39
1.4084924 0.52286005 -1.0950898 9.1314283e-39
1.4257573 0.51078165 -1.0982373 9.5920421e-39
1.3804185 0.55116975 -1.082762 8.3931472e-39
1.4829477 0.47580183 -1.0731688 1.4107079e-38
1.4911867 0.47520417 -1.0891117 1.6682018e-38
1.4242257 0.50831562 -1.0724427 1.0327465e-38
1.4394687 0.50162506 -1.0721186 1.1713984e-38
1.4704106 0.49159741 -1.0809005 1.2634501e-38
1.4875904 0.48460552 -1.0910089 1.1710747e-38
1.3902087 0.53540134 -1.0656674 8.5778972e-39
1.4172764 0.52327883 -1.0696286 9.1317955e-39
1.4349765 0.51078165 -1.062937 1.1250489e-38
1.3838621 0.54620343 -1.0607826 8.5786147e-39
1.4882209 0.47475839 -1.0529776 1.5392765e-38
1.4955419 0.47201836 -1.0605623 1.7965893e-38
1.4504669 0.50355071 -1.0484748 1.254447e-38
1.477458 0.49030256 -1.0534273 1.3188039e-38
1.4013897 0.53215867 -1.037201 8.0247178e-39
1.4226259 0.52211231 -1.0386338 9.3161881e-39
1.439586 0.51078165 -1.0452868 1.1527786e-38
1.400452 0.54032296 -1.0407916 8.0268884e-39
1.4103919 0.54597801 -1.034391 8.208763e-39
1.4581159 0.46436694 -1.0059948 1.5024714e-38
1.4858327 0.47201282 -1.0304623 1.6035959e-38
1.1810064 0.49801922 -0.9302758 1.2266448e-38
1.4388599 0.50689608 -1.0111306 1.0607992e-38
1.4549705 0.49761024 -1.0159292 1.1529945e-38
1.4730569 0.48858166 -1.0292535 1.2819251e-38
1.1820779 0.52376693 -0.93111974 1.4937575e-38
1.4095701 0.5292446 -1.0035696 7.8417671e-39
1.4256461 0.5168525 -1.0109907 9.5016514e-39
1.182078 0.55286515 -0.93111974 1.2540133e-38
1.1872212 0.55908257 -0.93517113 1.208204e-38
1.4072037 0.54032296 -1.0149394 7.5644782e-39
1.1820781 0.57690269 -0.9311198 9.2210862e-39
1.1872211 0.59466052 -0.93517107 9.4972835e-39
1.2002393 0.6202361 -0.93940985 8.7579192e-39
1.2112228 0.62742382 -0.95407706 9.0309244e-39
1.2073842 0.63508618 -0.94503009 1.2523893e-38
1.2163659 0.63529545 -0.95812845 9.7688552e-39
1.4138134 0.4493064 -0.96192777 1.5026555e-38
1.184371 0.47630459 -0.90057397 8.4864232e-39
1.41403 0.4596664 -0.96545213 1.1802578e-38
1.4378537 0.45564499 -0.98167551 1.4657723e-38
1.1808275 0.49567503 -0.91055256 1.3647932e-38
1.4151661 0.49526441 -0.96510339 8.761187e-39
1.4340298 0.49773422 -0.98741251 9.4069222e-39
1.1787206 0.52351928 -0.91338164 1.2817806e-38
1.4077079 0.52004474 -0.97224671 7.6570157e-39
1.4224542 0.51315969 -0.98820442 8.9477419e-39
1.1782122 0.55517828 -0.91378796 1.0235965e-38
1.1804764 0.58435297 -0.91224134 8.9434049e-39
1.1862876 0.60589886 -0.91280133 9.0344977e-39
1.1972461 0.61792624 -0.91873181 8.9433839e-39
1.4217081 0.44831008 -0.93862516 1.7511423e-38
1.4372878 0.44862387 -0.94723594 1.8794917e-38
1.1906544 0.47427335 -0.89168429 9.2182472e-39
1.2038567 0.47641101 -0.87938833 1.162144e-38
1.3989265 0.47524217 -0.93186581 1.0608718e-38
1.4095172 0.46093172 -0.94172084 1.3003634e-38
1.1849018 0.49417317 -0.88271278 1.5032307e-38
1.3939359 0.49340326 -0.93250859 8.6693656e-39
1.4021295 0.49002567 -0.94730461 7.9321466e-39
1.1634047 0.52982783 -0.86989379 1.2909647e-38
1.1695943 0.51999199 -0.88221925 1.3648653e-38
1.3961093 0.51793689 -0.92998916 6.9158521e-39
1.4038872 0.52359635 -0.94848806 7.1960362e-39
1.1630143 0.55045342 -0.86848342 1.1249383e-38
1.1690426 0.55514228 -0.88605422 1.0696204e-38
1.1772403 0.58404338 -0.88069397 9.1270787e-39
1.1911488 0.60715675 -0.88174504 8.6653663e-39
1.200247 0.62221897 -0.88925254 1.0691146e-38
1.2069745 0.63251376 -0.87932265 1.3082796e-38
1.4221127 0.4434137 -0.90937364 1.8156435e-38
1.2050953 0.47569174 -0.84298599 1.2817496e-38
1.2105771 0.47367519 -0.85736591 1.2174976e-38
1.4049189 0.46766171 -0.90892196 1.2266811e-38
1.4120748 0.46119574 -0.91348594 1.3004011e-38
1.1696364 0.50914133 -0.85212058 1.4478078e-38
1.1895024 0.494654 -0.85339785 1.5217057e-38
1.2064857 0.48284402 -0.86140668 1.4482735e-38
1.3983713 0.49650306 -0.90839398 1.0332502e-38
1.4110092 0.48026419 -0.91330367 1.143813e-38
1.1666452 0.52546537 -0.84702331 1.3556826e-38
1.1756498 0.51185811 -0.84888297 1.5033032e-38
1.3931718 0.5176689 -0.90685248 9.2275924e-39
1.1626556 0.55278164 -0.8470484 1.1157552e-38
1.1708232 0.57763547 -0.84098119 9.5876925e-39
1.1789819 0.58895332 -0.85408455 9.1267115e-39
1.1933547 0.61225241 -0.8520413 8.9419433e-39
1.2045593 0.62261462 -0.86878318 9.404732e-39
1.4321918 0.4429059 -0.88469696 1.5674752e-38
1.4511021 0.44155598 -0.87851113 1.705479e-38
1.2067407 0.47735047 -0.82679093 1.3743389e-38
1.225328 0.47089794 -0.83162737 1.134377e-38
1.4109787 0.47181079 -0.87893468 1.1715795e-38
1.419347 0.45770863 -0.88445646 1.2729233e-38
1.1763132 0.50728995 -0.8136937 1.4018161e-38
1.1918913 0.49307138 -0.82231086 1.4388385e-38
1.3940204 0.49404171 -0.87384945 1.0147026e-38
1.16776 0.52474481 -0.81759888 1.3189479e-38
1.3943357 0.51610458 -0.8796953 8.2123587e-39
1.1624444 0.55386811 -0.8170228 1.1434866e-38
1.1743506 0.58421928 -0.81823951 9.4965731e-39
1.1802466 0.59537613 -0.8312813 8.7565053e-39
1.1880279 0.61326456 -0.82085711 9.0348733e-39
1.420292 0.44900185 -0.85005742 1.2543755e-38
1.4421203 0.4418312 -0.8540687 1.4660983e-38
1.4541177 0.44155598 -0.86696446 1.6042824e-38
1.2123411 0.47654006 -0.79611349 1.392778e-38
1.2294919 0.47071767 -0.80158353 1.2727072e-38
1.411539 0.46701792 -0.84922904 1.1715432e-38
1.1811097 0.50428867 -0.78804255 1.4388384e-38
1.1962076 0.4885062 -0.79347134 1.438875e-38
1.3873943 0.50436878 -0.83355582 9.8726003e-39
1.3936625 0.49296179 -0.84533662 1.0423983e-38
1.1585824 0.53122932 -0.77176547 1.2912897e-38
1.1653973 0.52560484 -0.78631443 1.3557543e-38
1.1581757 0.54410768 -0.77332306 1.2358261e-38
1.1615649 0.55515087 -0.78460008 1.1434144e-38
1.1732758 0.58414459 -0.78805804 9.7731614e-39
1.1811872 0.6096549 -0.78831404 8.6660879e-39
1.1877688 0.62018347 -0.80247855 8.6700354e-39
1.4238786 0.44568852 -0.82049465 1.3005099e-38
1.4458221 0.43917832 -0.82848334 1.5029772e-38
1.2170966 0.47550887 -0.76467466 1.3559722e-38
1.2337449 0.46825767 -0.77342647 1.2544834e-38
1.4104793 0.46419719 -0.81837624 1.1991665e-38
1.1848699 0.49786425 -0.75806606 1.4112164e-38
1.203265 0.48387098 -0.76434386 1.4204363e-38
1.3936627 0.49917254 -0.80955297 1.0333232e-38
1.3992481 0.48721185 -0.81799859 1.1438854e-38
1.1636381 0.53122944 -0.75240749 1.3004372e-38
1.1692992 0.52005947 -0.7544741 1.3834141e-38
1.3924346 0.51291746 -0.81425631 9.8736975e-39
1.1633517 0.55439383 -0.7514236 1.171145e-38
1.1654342 0.56233394 -0.76531696 1.1525265e-38
1.1663481 0.58347422 -0.74203056 1.0327064e-38
1.1691598 0.58625227 -0.75896567 1.0049754e-38
1.1671247 0.6036697 -0.73905706 9.5898463e-39
1.1750889 0.60817194 -0.75944382 8.9423161e-39
1.4260849 0.44431323 -0.79189986 1.3097655e-38
1.4510043 0.43607017 -0.79920954 1.613538e-38
1.2039858 0.47948256 -0.72059619 1.4021769e-38
1.2206762 0.47405967 -0.73619753 1.3467881e-38
1.2414535 0.46636453 -0.74301523 1.1530685e-38
1.4025153 0.47872296 -0.77565736 1.0885306e-38
1.4123414 0.46302488 -0.78866237 1.1438855e-38
1.1738365 0.50708258 -0.71335757 1.3558646e-38
1.1873105 0.49608102 -0.72885233 1.4112169e-38
1.2087014 0.48286423 -0.74013561 1.3836305e-38
1.3758142 0.50646788 -0.76708728 9.5009549e-39
1.3966955 0.49458173 -0.78293574 1.0148837e-38
1.4052204 0.48088074 -0.793001 1.0977877e-38
1.1654707 0.52666342 -0.72132599 1.2911819e-38
1.1733966 0.51385689 -0.73482943 1.3834507e-38
1.3911759 0.51060551 -0.79137367 9.3194377e-39
1.1616013 0.55467051 -0.72063255 1.161926e-38
1.1626403 0.5841369 -0.71984577 1.0143034e-38
1.1693014 0.60531682 -0.72412682 9.4029481e-39
1.4300082 0.44128299 -0.75920898 1.346608e-38
1.4520286 0.43123341 -0.76732028 1.6960439e-38
1.2074587 0.4791266 -0.70334131 1.3744825e-38
1.2266527 0.47354433 -0.7075119 1.3835946e-38
1.248341 0.46720457 -0.7115311 1.0884605e-38
1.4079343 0.47032428 -0.75490683 1.0794209e-38
1.4165883 0.45612538 -0.76332426 1.1715445e-38
1.1739341 0.50321412 -0.69319671 1.3651192e-38
1.1921767 0.48919061 -0.69952595 1.4020332e-38
1.3586128 0.4923321 -0.73005825 8.3009628e-39
1.3685465 0.49486026 -0.74440026 8.9517314e-39
1.4000654 0.48676187 -0.75733513 1.0150286e-38
1.1631145 0.52473009 -0.69081032 1.2450472e-38
1.1613721 0.55532503 -0.68942219 1.115756e-38
1.1619426 0.58417296 -0.69049287 1.0420344e-38
1.16482 0.60194868 -0.69181871 9.9517947e-39
1.4165561 0.44310367 -0.72189456 1.31895e-38
1.432821 0.43571305 -0.73061639 1.4664614e-38
1.4572755 0.4290987 -0.74168962 1.7234477e-38
1.2145659 0.47897407 -0.6744318 1.4296554e-38
1.2368423 0.47230315 -0.67912287 1.3189489e-38
1.3649213 0.47307888 -0.70590276 9.4101816e-39
1.3719112 0.46745503 -0.71277708 1.0333237e-38
1.4125627 0.46123016 -0.72875404 1.0886399e-38
1.4196862 0.45225686 -0.73761117 1.144065e-38
1.1743058 0.50087649 -0.66267455 1.6048602e-38
1.2006682 0.48723122 -0.67150253 1.5127023e-38
1.3618982 0.48958161 -0.71747804 7.5666348e-39
1.3710088 0.4918679 -0.71029603 6.4592054e-39
1.1656877 0.52501869 -0.6604653 1.3925238e-38
1.1630608 0.55465174 -0.65898108 1.2449382e-38
1.1603512 0.58062595 -0.65022737 1.1343028e-38
1.1626117 0.58690763 -0.66399699 1.0606177e-38
1.1689113 0.60398531 -0.6596629 9.496936e-39
1.4586024 0.41984585 -0.70336652 1.7045359e-38
1.36198 0.44594738 -0.67363334 1.0794555e-38
1.4146 0.44081625 -0.69475704 1.3006545e-38
1.4463496 0.42857909 -0.70194566 1.6503793e-38
1.461328 0.42755228 -0.72063208 1.7323796e-38
1.2242386 0.47877645 -0.64304805 1.4297993e-38
1.2415954 0.47073779 -0.64881277 1.3190934e-38
1.2672873 0.46781465 -0.66124547 9.9590534e-39
1.3432132 0.47374681 -0.66238552 5.5415623e-39
1.3648049 0.46612129 -0.68082386 7.5659075e-39
1.38375 0.45566607 -0.69448882 1.0422893e-38
1.4088914 0.45438409 -0.70507276 1.0883877e-38
1.185156 0.50014061 -0.63600516 1.660069e-38
1.2088797 0.48707071 -0.64234298 1.5311411e-38
1.3592321 0.48259819 -0.67624074 5.9053085e-39
1.3752915 0.49076262 -0.69389784 5.4471989e-39
1.1760266 0.52359331 -0.63227522 1.5861337e-38
1.1673625 0.55966783 -0.62338054 1.2634488e-38
1.1700766 0.55306274 -0.63289285 1.3187307e-38
1.1650031 0.58499998 -0.63241613 1.1342656e-38
1.1707314 0.58367413 -0.6263113 1.143522e-38
1.1725414 0.6058107 -0.63092273 1.1341919e-38
1.2014798 0.62594587 -0.6322453 1.0877696e-38
1.211772 0.63816726 -0.6365093 1.1787385e-38
1.4427929 0.41915843 -0.66760373 1.7414512e-38
1.3500149 0.44682935 -0.63634163 7.3811547e-39
1.3585052 0.44111037 -0.65047252 1.0149556e-38
1.401332 0.44124037 -0.65750766 1.2269348e-38
1.4197568 0.43652725 -0.66716194 1.4205438e-38
1.4450142 0.42822829 -0.67426908 1.6782905e-38
1.231153 0.47948256 -0.61657238 1.4391264e-38
1.2512947 0.47316962 -0.6220997 1.3283128e-38
1.2756085 0.46587405 -0.6286574 1.1348099e-38
1.3091967 0.47183302 -0.63038063 1.0239959e-38
1.3389556 0.46583757 -0.64137542 7.7474191e-39
1.3573059 0.45648113 -0.65630865 7.1052853e-39
1.1941082 0.4989146 -0.60605621 1.7889973e-38
1.2172751 0.48612371 -0.61217624 1.5772022e-38
1.2412813 0.48090029 -0.61208987 1.5035907e-38
1.186186 0.52542871 -0.60400999 1.5492188e-38
1.1711085 0.56045502 -0.60903686 1.3187312e-38
1.1818063 0.55352581 -0.60108972 1.4755352e-38
1.1731791 0.58282292 -0.59847009 1.152741e-38
1.1779196 0.58414024 -0.60232162 1.1803997e-38
1.1870947 0.61113411 -0.60323012 1.0602914e-38
1.2158483 0.63847858 -0.61383396 9.1256129e-39
1.1340514 0.67673349 -0.58883268 1.2707161e-38
1.138972 0.6991424 -0.59148282 1.151039e-38
1.4313167 0.41983119 -0.63767385 1.7331394e-38
1.3226352 0.44723117 -0.59871197 8.763736e-39
1.34561 0.43819091 -0.61660123 9.8693661e-39
1.3596343 0.43244037 -0.623254 1.199133e-38
1.4076871 0.43844217 -0.63317335 1.3286006e-38
1.42428 0.43013406 -0.63691437 1.5402162e-38
1.4491915 0.42782825 -0.63571602 1.7519389e-38
1.2402089 0.47948256 -0.5818978 1.4664975e-38
1.2586091 0.47583982 -0.59483206 1.3561514e-38
1.2890775 0.47712624 -0.59696746 1.1347394e-38
1.3141996 0.46693209 -0.60726613 9.041762e-39
1.3323649 0.45502293 -0.6208173 8.4816995e-39
1.2058972 0.50360888 -0.57887143 1.6415224e-38
1.2223089 0.48803398 -0.58144474 1.531177e-38
1.2506394 0.48087916 -0.58944768 1.4297993e-38
1.1954029 0.52529866 -0.57601821 1.5308154e-38
1.1917986 0.55555117 -0.57505798 1.3739027e-38
1.1772083 0.59036696 -0.58568084 1.0145186e-38
1.1900586 0.58548188 -0.573542 1.2725955e-38
1.19297 0.61249524 -0.57471192 1.3001078e-38
1.2089148 0.63216507 -0.57508463 9.0333991e-39
1.2201811 0.64642328 -0.57969886 9.3078378e-39
1.1211892 0.68355954 -0.55177277 1.3354331e-38
1.1416353 0.67475355 -0.56275076 1.3906803e-38
1.1611116 0.67205507 -0.55233681 1.3440787e-38
1.2374718 0.66484404 -0.57259041 1.0405878e-38
1.1205331 0.69161546 -0.5525806 1.0867193e-38
1.1300924 0.69737244 -0.5721736 1.0585958e-38
1.453681 0.41790825 -0.60744488 1.7139018e-38
1.3279791 0.4413054 -0.57824904 9.872236e-39
1.3492785 0.428222 -0.58639646 1.1530329e-38
1.3791744 0.4244917 -0.58800924 1.3651911e-38
1.4196522 0.43091744 -0.59923106 1.4483099e-38
1.4377612 0.42907009 -0.60745674 1.6509933e-38
1.4535599 0.42490399 -0.6125254 1.7239549e-38
1.2443162 0.47770274 -0.54638314 1.3095157e-38
1.2691185 0.47439823 -0.55966312 1.1900204e-38
1.2943032 0.46434101 -0.5715344 1.0057006e-38
1.3122308 0.45417646 -0.57595044 1.0520505e-38
1.2157521 0.50286609 -0.5501641 1.6046807e-38
1.2294204 0.4874526 -0.55315918 1.5218859e-38
1.2573172 0.48170826 -0.56915599 1.4297635e-38
1.2060078 0.52591813 -0.54671836 1.4939739e-38
1.1990118 0.55462551 -0.54523283 1.3370244e-38
1.197675 0.58384115 -0.54540443 1.2079145e-38
1.2013972 0.61212337 -0.54654914 1.22646e-38
1.2141666 0.63196224 -0.54762548 9.2203309e-39
1.2283485 0.6486662 -0.55374867 8.8493834e-39
1.1259791 0.68193275 -0.52473593 1.4738002e-38
1.1490107 0.67170912 -0.53190267 1.2800819e-38
1.1685059 0.66365987 -0.5306198 1.4089697e-38
1.2412995 0.66511977 -0.55454147 7.5572152e-39
1.1237714 0.69116336 -0.5370152 1.2524209e-38
1.3335094 0.44187781 -0.55159295 1.0054839e-38
1.3569918 0.43121183 -0.55375719 1.0883867e-38
1.3820971 0.42619267 -0.56296629 1.1347381e-38
1.4202112 0.42916554 -0.57255471 1.3008349e-38
1.4430999 0.42735225 -0.5787046 1.5221009e-38
1.4650388 0.42490029 -0.58242399 1.4013087e-38
1.2531748 0.47918594 -0.52895319 1.2268266e-38
1.2697319 0.47393531 -0.53397101 1.1716893e-38
1.3037192 0.4657461 -0.54082811 1.1348833e-38
1.3194112 0.45419455 -0.54575872 1.0149559e-38
1.2212257 0.50547278 -0.53190362 1.4385503e-38
1.2382243 0.49459255 -0.52395099 1.3190205e-38
1.2183578 0.52675426 -0.52106804 1.3093661e-38
1.2323897 0.51440734 -0.51459742 1.1523477e-38
1.2099462 0.5548808 -0.5162015 1.3923412e-38
1.2076572 0.58473271 -0.51742858 1.2632301e-38
1.2113782 0.61267787 -0.51581264 1.06944e-38
1.2218223 0.63415915 -0.52219874 1.1061008e-38
1.2344095 0.64882177 -0.5236358 9.403646e-39
1.1351807 0.68359488 -0.49832737 1.6579753e-38
1.1530234 0.67500401 -0.50296992 1.4462499e-38
1.2500192 0.66698509 -0.52850354 8.1132757e-39
1.2658608 0.6811046 -0.52551216 8.2058132e-39
1.1363523 0.69191688 -0.49411961 1.713327e-38
1.4345006 0.41972476 -0.54237658 1.3005465e-38
1.3432183 0.44450384 -0.5272041 1.0794911e-38
1.368467 0.43984592 -0.52611482 1.0609084e-38
1.3927325 0.43152937 -0.53345603 1.0150275e-38
1.4248642 0.42543703 -0.54167777 1.1715432e-38
1.449201 0.42673638 -0.5599609 1.1901966e-38
1.471102 0.42553395 -0.56844181 1.26316e-38
1.2583203 0.47948256 -0.51254857 1.1528914e-38
1.2856901 0.47644362 -0.51108223 1.0795648e-38
1.3066583 0.4668344 -0.51155639 9.9651715e-39
1.3360248 0.45922294 -0.51538706 9.6885692e-39
1.3728549 0.45603967 -0.51564419 7.2857249e-39
1.2499909 0.49588037 -0.49664757 1.2267163e-38
1.2786388 0.48284668 -0.50026572 1.0241035e-38
1.2255329 0.5288465 -0.49232709 1.2543007e-38
1.2391762 0.51471514 -0.49175221 1.2176401e-38
1.2171783 0.55485326 -0.48753148 1.3831228e-38
1.2154346 0.58567786 -0.48729497 1.2263881e-38
1.2189132 0.61349547 -0.489007 1.1155729e-38
1.2296404 0.63418543 -0.49428686 1.1527388e-38
1.2448699 0.65002489 -0.49253389 9.5883931e-39
1.1612153 0.68384182 -0.47702196 1.5385528e-38
1.2596025 0.66805983 -0.49774522 9.0352306e-39
1.2656971 0.67741895 -0.51200479 8.7582681e-39
1.1565719 0.69397068 -0.46836558 1.5568109e-38
1.4091181 0.44187519 -0.51204878 7.7492268e-39
1.4299983 0.4318338 -0.51212668 1.1162248e-38
1.27206 0.47948256 -0.45993885 4.5227623e-39
1.2920132 0.46565676 -0.46633992 5.9989209e-39
1.315927 0.47445211 -0.48667729 1.0335738e-38
1.3469393 0.47115523 -0.50090086 1.0517237e-38
1.3769552 0.46123424 -0.50416613 8.7615668e-39
1.3973906 0.45446709 -0.50314742 7.4751426e-39
1.2615697 0.49916846 -0.46871999 8.5782517e-39
1.28091 0.49062061 -0.47731826 9.7782453e-39
1.3126359 0.48283011 -0.48978201 8.8566575e-39
1.3304573 0.48223484 -0.49752593 8.0315968e-39
1.2374787 0.53416425 -0.46595973 1.1803648e-38
1.2498969 0.52195132 -0.46416852 1.0885666e-38
1.2282889 0.5538305 -0.46141171 1.2543018e-38
1.2254449 0.58536142 -0.46078357 1.2078772e-38
1.2336811 0.61522925 -0.46195191 1.051143e-38
1.2354628 0.63264585 -0.47738954 1.3097868e-38
1.2500466 0.64403808 -0.46539611 9.5880246e-39
1.1664381 0.68931782 -0.44042531 1.2804765e-38
1.2689373 0.66649729 -0.47189561 8.665718e-39
1.2818664 0.67911297 -0.47100937 8.7568276e-39
1.1643254 0.69580466 -0.44621712 1.3634165e-38
1.3805884 0.41709724 -0.4559564 1.2174967e-38
1.3060685 0.4446373 -0.44283608 1.1256995e-38
1.3229064 0.43809626 -0.45640898 1.0240315e-38
1.3518891 0.42702582 -0.46015888 1.0794924e-38
1.3782908 0.4235945 -0.46871176 9.5881171e-39
1.45245 0.44132841 -0.50134957 1.0329243e-38
1.2691841 0.47134721 -0.43976617 1.0426148e-38
1.290832 0.4574475 -0.44361231 1.1071159e-38
1.2408359 0.49951169 -0.43022668 9.8711612e-39
1.2556245 0.48494381 -0.43778461 9.7807718e-39
1.219515 0.5316546 -0.41928998 8.8555645e-39
1.2300179 0.52194673 -0.42994094 8.6718907e-39
1.2178015 0.55343759 -0.41911784 7.4719084e-39
1.226228 0.55530804 -0.43719897 9.2250379e-39
1.2196684 0.58635128 -0.4174464 6.9183535e-39
1.2266515 0.58529252 -0.43329781 8.6686215e-39
1.2213653 0.60453576 -0.41660321 7.3796917e-39
1.2319289 0.61488712 -0.431559 7.6540982e-39
1.2380171 0.6405431 -0.4234679 8.0199828e-39
1.250832 0.64050269 -0.44327521 9.4046899e-39
1.159874 0.68441838 -0.4146077 1.1605866e-38
1.1695498 0.68762755 -0.41647348 1.3083498e-38
1.170018 0.6944564 -0.41115031 1.2529618e-38
1.3952905 0.41638112 -0.44602001 1.3007257e-38
1.4203238 0.41302142 -0.44803521 1.3832317e-38
1.4479218 0.41325727 -0.4458721 1.3000028e-38
1.3095324 0.44699302 -0.42647356 1.1350994e-38
1.3334959 0.44266644 -0.42718911 1.3286006e-38
1.3599744 0.43268436 -0.43389291 1.2825034e-38
1.3856387 0.42508623 -0.43661875 1.2917229e-38
1.4252828 0.42360181 -0.43718216 1.3101622e-38
1.4439391 0.42085868 -0.44291738 1.3653703e-38
1.2835178 0.477184 -0.41112044 1.1256256e-38
1.2984786 0.46355739 -0.4169572 1.1810157e-38
1.3318876 0.45247614 -0.41388971 1.4206875e-38
1.2422677 0.50433624 -0.40995967 1.2270778e-38
1.2754631 0.49484634 -0.41088465 1.2731394e-38
1.2242436 0.53063118 -0.39971924 1.1623596e-38
1.2378474 0.51978791 -0.39853221 1.1993824e-38
1.2665589 0.51654643 -0.40009457 1.2915063e-38
1.2217109 0.55357838 -0.40043965 1.1715425e-38
1.2323443 0.56235486 -0.3903949 1.1714332e-38
1.2171291 0.587152 -0.39749008 1.0515795e-38
1.2338043 0.58059198 -0.38920093 1.1899092e-38
1.2127537 0.61378467 -0.39191234 9.5923911e-39
1.2089608 0.63680524 -0.38588342 9.0381215e-39
1.2362214 0.64928865 -0.40946937 8.0196255e-39
1.1849706 0.68988997 -0.38974622 1.3822502e-38
1.2418184 0.66138721 -0.4134793 1.3910718e-38
1.1822912 0.69492382 -0.38725409 1.1699861e-38
1.4112304 0.41991192 -0.40194654 1.273248e-38
1.4170024 0.41622388 -0.4035905 1.3193099e-38
1.4613689 0.41692659 -0.43949693 1.3836287e-38
1.4776412 0.41793028 -0.43259457 1.3651523e-38
1.3469312 0.44342774 -0.39633071 1.0796734e-38
1.3663898 0.43189317 -0.40030625 1.1811598e-38
1.3946217 0.42764825 -0.41466033 1.3010141e-38
1.4169348 0.42431876 -0.41967928 1.3009785e-38
1.4504155 0.42512292 -0.4315744 1.346932e-38
1.478596 0.42546055 -0.42893916 1.4022128e-38
1.2879082 0.47572571 -0.39183617 1.0149566e-38
1.3119533 0.46871281 -0.38761234 1.2270778e-38
1.3352096 0.45627046 -0.39463985 1.1164801e-38
1.2647505 0.50225317 -0.36524633 9.5034633e-39
1.2791511 0.49502537 -0.38198367 9.7800515e-39
1.3060784 0.48125318 -0.37717092 1.2639922e-38
1.254344 0.53456348 -0.37811008 1.1439566e-38
1.2692693 0.52361292 -0.37995178 1.0425778e-38
1.231141 0.55720294 -0.36967364 1.1068616e-38
1.2502341 0.54850614 -0.36938322 1.1162973e-38
1.2335612 0.58224666 -0.36770591 1.088241e-38
1.2403122 0.58767712 -0.37282321 1.1068597e-38
1.2246138 0.61811864 -0.36854893 1.1529944e-38
1.2460098 0.61017674 -0.36445174 1.0883487e-38
1.2155696 0.64340359 -0.3633 1.1897635e-38
1.1927344 0.68894315 -0.36635056 1.3724914e-38
1.2272496 0.66589254 -0.35788962 1.1712512e-38
1.1935333 0.69628239 -0.35738429 1.2161927e-38
1.2138145 0.69059449 -0.35053656 1.6400342e-38
1.387701 0.39550459 -0.37331772 1.4482017e-38
1.4049376 0.41221824 -0.38220611 1.3192733e-38
1.3302332 0.44451648 -0.35393706 1.0611261e-38
1.34709 0.43965048 -0.36769336 1.1257711e-38
1.3732392 0.42710251 -0.37645432 1.2180026e-38
1.3972039 0.4206697 -0.3804628 1.2179663e-38
1.4920309 0.4293046 -0.41904917 1.4022488e-38
1.2995396 0.47948256 -0.35471937 9.8736807e-39
1.3165525 0.46410376 -0.35894299 1.0150279e-38
1.3342742 0.45234862 -0.37210274 1.0336111e-38
1.2671912 0.50466788 -0.35590106 1.0424348e-38
1.2849672 0.49593306 -0.35264978 1.1256265e-38
1.3052683 0.48212108 -0.36218211 1.1255906e-38
1.264083 0.52518791 -0.34707457 9.6882048e-39
1.2769055 0.51385689 -0.33849171 1.2085284e-38
1.2356682 0.56800365 -0.35194293 1.1623586e-38
1.2562436 0.55485559 -0.3461802 9.5945673e-39
1.2379913 0.58353609 -0.33974954 1.088457e-38
1.2500561 0.58160913 -0.34236231 1.0147008e-38
1.2380733 0.62815046 -0.3526279 1.0700894e-38
1.2547712 0.61735034 -0.34600961 1.0698726e-38
1.2346557 0.64625901 -0.34172997 1.1529937e-38
1.2538882 0.63811415 -0.33868232 9.9622484e-39
1.2373322 0.67036098 -0.340175 1.1435565e-38
1.247907 0.68458533 -0.33080456 9.3986181e-39
1.2033139 0.69564372 -0.33042631 1.1977537e-38
1.2245524 0.69202471 -0.32821923 1.4654765e-38
1.3886762 0.41543671 -0.34188157 1.1626486e-38
1.4104844 0.4111248 -0.35335609 1.2821783e-38
1.431179 0.41089836 -0.36592928 1.3834854e-38
1.3319979 0.44426849 -0.33398908 1.1442102e-38
1.3542805 0.43299133 -0.34085685 1.1533935e-38
1.3803715 0.42342895 -0.34756193 1.1809444e-38
1.4019766 0.42007706 -0.36614546 1.254593e-38
1.307518 0.4752973 -0.31427616 9.5949288e-39
1.3178527 0.46364692 -0.3305237 1.0610527e-38
1.2952509 0.49682504 -0.32300231 1.1348451e-38
1.3100051 0.48126236 -0.334434 1.1532131e-38
1.2707158 0.52618271 -0.31696537 1.1347366e-38
1.2854275 0.51093578 -0.32564849 1.2729584e-38
1.2585652 0.55520582 -0.31338009 1.0516881e-38
1.2411886 0.59434003 -0.32091185 1.1253359e-38
1.2572962 0.58461344 -0.31329152 1.0054808e-38
1.2468479 0.6084705 -0.30803701 1.0790938e-38
1.2593598 0.61739773 -0.31415859 1.0330309e-38
1.2428076 0.65589505 -0.32262754 1.0977116e-38
1.2656649 0.64728916 -0.31598839 9.6852901e-39
1.2221308 0.68473482 -0.29296982 1.2071187e-38
1.238766 0.67459846 -0.3127397 1.3552435e-38
1.2569323 0.67674422 -0.30994484 9.7738928e-39
1.208904 0.69547743 -0.3017031 1.2346681e-38
1.224857 0.69191879 -0.30825457 1.1606588e-38
1.2682835 0.69919997 -0.31366572 1.1704549e-38
1.3756913 0.41822752 -0.30057937 9.5045338e-39
1.3942525 0.41239983 -0.31617665 1.0794564e-38
1.4191734 0.40633151 -0.3319588 1.3924868e-38
1.4379463 0.40901652 -0.32339588 1.5120879e-38
1.3392106 0.44182578 -0.30439302 1.0239944e-38
1.3606523 0.42889333 -0.31126159 1.033394e-38
1.3820567 0.42062202 -0.319738 1.0886388e-38
1.3096461 0.46914741 -0.29253906 8.6726152e-39
1.3264585 0.45499945 -0.30131286 1.0149899e-38
1.2869604 0.50515079 -0.28020439 7.8396077e-39
1.2954842 0.49332345 -0.29206225 8.3034655e-39
1.2762227 0.52553356 -0.28595477 9.1324919e-39
1.2867053 0.51385689 -0.30096862 1.0702358e-38
1.2635618 0.55375636 -0.2836982 9.6845839e-39
1.2547814 0.58564401 -0.2886526 1.0054094e-38
1.2636496 0.58437175 -0.28289434 9.7771382e-39
1.2549433 0.62104684 -0.28143716 1.0791652e-38
1.2651337 0.61027509 -0.28283006 9.6842195e-39
1.2595551 0.63287336 -0.27037394 1.0240989e-38
1.2741455 0.64837933 -0.28883758 8.762615e-39
1.2270931 0.68686724 -0.28386277 1.1701682e-38
1.2344053 0.68731743 -0.28158832 1.3360808e-38
1.2710195 0.67235303 -0.28413013 8.3934765e-39
1.2158614 0.69524062 -0.27121794 1.2530709e-38
1.2391989 0.69261813 -0.271808 1.1609465e-38
1.2705052 0.69719315 -0.28494948 9.2178072e-39
1.3780732 0.41429311 -0.28037792 9.7789585e-39
1.3931136 0.40627444 -0.28769085 1.1347362e-38
1.3426628 0.43813699 -0.27283111 8.3038313e-39
1.3646972 0.42536938 -0.28309461 8.5811398e-39
1.312749 0.46602193 -0.26387203 9.3168944e-39
1.3320558 0.45227131 -0.27407596 8.0272472e-39
1.2881123 0.5004189 -0.25864565 8.025794e-39
1.2991523 0.48537311 -0.26268068 8.6729571e-39
1.267909 0.53841466 -0.23838627 7.8414028e-39
1.2759573 0.52452862 -0.25684968 8.1165477e-39
1.2643228 0.55645841 -0.24437551 7.5626495e-39
1.2693764 0.55188501 -0.25967836 8.2087363e-39
1.2660443 0.58210868 -0.24442776 9.0370355e-39
1.2689127 0.58681911 -0.26026723 8.5760685e-39
1.2588961 0.62693024 -0.26300311 8.4878442e-39
1.2709332 0.61510682 -0.25582916 8.8533701e-39
1.2619419 0.63287336 -0.26123461 9.1324639e-39
1.2727085 0.64285928 -0.25397798 8.3938268e-39
1.2230686 0.68988997 -0.24386841 1.2255213e-38
1.284139 0.67406851 -0.2594558 5.7208795e-39
1.223989 0.69585603 -0.24171434 1.2714745e-38
1.249635 0.6947788 -0.24943608 1.096555e-38
1.2795764 0.69543964 -0.25653663 7.284601e-39
1.3788079 0.41321692 -0.25199658 9.1343276e-39
1.4034282 0.40424493 -0.25769368 1.0793829e-38
1.424396 0.40046728 -0.26183334 1.3185483e-38
1.3293947 0.44707239 -0.23380783 9.0428102e-39
1.3445449 0.4342716 -0.24396437 8.6740473e-39
1.366382 0.42185321 -0.24916206 8.491105e-39
1.30075 0.47810641 -0.22740363 9.2264952e-39
1.3145413 0.46496204 -0.23521659 8.7644423e-39
1.2937 0.49679467 -0.22978564 9.2246903e-39
1.3018131 0.48638654 -0.24312051 9.8711205e-39
1.2690868 0.53432059 -0.21948567 8.5771531e-39
1.2796972 0.5217374 -0.22702715 9.0395704e-39
1.2666733 0.5549311 -0.22144799 8.3934751e-39
1.2667309 0.58553553 -0.22146271 8.2076405e-39
1.2717538 0.60622537 -0.21518414 8.6700522e-39
1.2784846 0.61885327 -0.22873344 8.2079965e-39
1.2813965 0.64427894 -0.22582342 7.2874807e-39
1.2438478 0.6843617 -0.21047451 7.7484658e-39
1.2597808 0.68198645 -0.21905242 6.8257963e-39
1.2943851 0.67611742 -0.23198888 5.0740583e-39
1.3056921 0.68595046 -0.22826762 3.7822279e-39
1.2337805 0.69623756 -0.21379478 9.6806e-39
1.2897505 0.69392484 -0.23894119 6.4566298e-39
1.3869858 0.41648805 -0.22303523 1.162251e-38
1.4149828 0.41056573 -0.23060018 1.0515452e-38
1.4419113 0.40170467 -0.23698033 1.2635201e-38
1.3329301 0.44100857 -0.20693178 8.5793349e-39
1.3535399 0.42721578 -0.21407345 9.2257848e-39
1.3765622 0.42134681 -0.2226191 1.1346989e-38
1.3082128 0.47550601 -0.19882867 8.3009376e-39
1.3200357 0.46266472 -0.207204 8.6715152e-39
1.2972871 0.49531826 -0.19962387 8.485326e-39
1.2748322 0.53028482 -0.1928229 8.9466447e-39
1.2836424 0.51688337 -0.196172 8.2098153e-39
1.2706866 0.55494958 -0.1909481 8.6686215e-39
1.2709066 0.5855782 -0.19148536 8.3923891e-39
1.2762892 0.61117196 -0.19164115 7.7477302e-39
1.2821791 0.62395447 -0.20353337 7.1016517e-39
1.2407532 0.65279096 -0.17457117 5.9960342e-39
1.2651262 0.64760584 -0.18018252 4.7953106e-39
1.2886065 0.64464247 -0.19640289 5.8119835e-39
1.2222217 0.68532109 -0.16954559 7.5629858e-39
1.2371448 0.67520481 -0.18237858 7.3796875e-39
1.2613469 0.66968989 -0.19870885 4.7953274e-39
1.2947192 0.67202687 -0.20154865 4.6127158e-39
1.3087546 0.68595046 -0.21654165 3.8722795e-39
1.2201686 0.69116336 -0.16790906 7.6580625e-39
1.2319793 0.69580996 -0.18713553 8.4856736e-39
1.3924148 0.4158453 -0.19143063 1.0886024e-38
1.4213796 0.41338715 -0.20083027 1.0794543e-38
1.4489235 0.41001046 -0.21195561 1.1345197e-38
1.4749571 0.40457761 -0.21149307 1.2357897e-38
1.3373883 0.44049928 -0.17788813 8.3041844e-39
1.3622916 0.4250634 -0.18689343 9.9633428e-39
1.3837199 0.42185321 -0.18277407 1.1262714e-38
1.3107002 0.46883214 -0.17006618 8.0257842e-39
1.3211808 0.45482075 -0.17775524 7.658452e-39
1.2872864 0.50413501 -0.16059163 7.4697462e-39
1.2981442 0.49339929 -0.16922502 8.1172568e-39
1.2800722 0.52418035 -0.16396216 7.9317907e-39
1.2706866 0.55500817 -0.16114987 8.4838729e-39
1.2709489 0.5850774 -0.1608997 8.2998305e-39
1.2530575 0.62793761 -0.14487025 6.0892822e-39
1.276752 0.61300504 -0.16154136 6.5495485e-39
1.2258565 0.65291119 -0.14547011 7.8403112e-39
1.2425892 0.64076024 -0.1547081 7.4733293e-39
1.2778012 0.63597566 -0.15969811 4.5219649e-39
1.2906852 0.63993835 -0.17492086 4.5219663e-39
1.2249427 0.67564154 -0.14825317 8.3009124e-39
1.2308613 0.67364401 -0.16258313 8.2047384e-39
1.2235708 0.69116336 -0.15488179 9.5916512e-39
1.3826244 0.41638017 -0.15531017 9.4105305e-39
1.4032646 0.41225466 -0.16710047 1.0700545e-38
1.4291501 0.40566108 -0.16927762 1.0791667e-38
1.4533926 0.40408683 -0.17718782 1.2080974e-38
1.4836134 0.40764138 -0.19206749 1.1252285e-38
1.3243023 0.44816437 -0.1372218 9.13538e-39
1.3379917 0.44013789 -0.1490787 8.6729683e-39
1.3679518 0.42628703 -0.15567696 9.3179706e-39
1.2955893 0.47772932 -0.1274513 8.3030844e-39
1.3080328 0.46414801 -0.14058609 8.3952828e-39
1.3252914 0.45083669 -0.15322143 8.6708075e-39
1.2883486 0.49610552 -0.13350968 7.4722433e-39
1.2986826 0.48530167 -0.1482562 6.919431e-39
1.2700948 0.5359413 -0.11920863 7.3786239e-39
1.2757438 0.52367568 -0.13218763 7.9310508e-39
1.2695111 0.5482617 -0.12144375 7.6584394e-39
1.2724419 0.55478275 -0.13163462 7.9303348e-39
1.2626044 0.59679019 -0.11623022 6.0900151e-39
1.2719672 0.58273059 -0.1305692 7.2856828e-39
1.2395195 0.62588257 -0.10964377 4.1506671e-39
1.2545824 0.61634094 -0.12367824 5.4432122e-39
1.274995 0.61216491 -0.14021803 5.5357567e-39
1.2342936 0.64676362 -0.12024125 8.2087181e-39
1.2422668 0.63483304 -0.12729278 6.7343125e-39
1.2256277 0.67261833 -0.11752649 8.5760559e-39
1.3877488 0.4150165 -0.12777235 1.0056612e-38
1.4090984 0.41062069 -0.13642161 9.6860384e-39
1.4339824 0.40314889 -0.14013618 9.9637029e-39
1.4598858 0.39806387 -0.14915909 1.2634829e-38
1.3294276 0.44792295 -0.11759673 8.5789608e-39
1.3478086 0.43752697 -0.11924034 9.1332136e-39
1.3767514 0.42382863 -0.12807176 9.8715059e-39
1.2981452 0.47379649 -0.10440792 7.7477582e-39
1.3152364 0.45943886 -0.11202332 8.6715222e-39
1.2747941 0.50489908 -0.091321163 5.9971188e-39
1.2834135 0.492825 -0.10503403 7.656273e-39
1.2702713 0.52523512 -0.095622621 6.7321475e-39
1.2769688 0.52138877 -0.11091733 7.0091001e-39
1.2691215 0.55502057 -0.097023197 6.0867767e-39
1.2758869 0.5515486 -0.11286069 1.0237367e-38
1.2403591 0.59357685 -0.082892172 6.1807688e-39
1.2612211 0.58514136 -0.097518578 5.1666197e-39
1.2764724 0.58225459 -0.11061846 5.7198005e-39
1.2397394 0.61582398 -0.091337644 7.2863989e-39
1.2512729 0.6047315 -0.10619345 6.3622874e-39
1.2346507 0.64471561 -0.089863822 7.1009258e-39
1.2327496 0.67342407 -0.088583909 7.929955e-39
1.4684967 0.38977984 -0.13518383 1.4657711e-38
1.3906549 0.41671434 -0.11136881 9.8693437e-39
1.4154249 0.41254526 -0.10391764 1.0054811e-38
1.4403837 0.40329161 -0.11410859 1.0424674e-38
1.4761858 0.39608219 -0.11999007 1.2910705e-38
1.3369238 0.44844037 -0.088893399 8.3931304e-39
1.3555386 0.43690059 -0.090204053 9.0413767e-39
1.3844039 0.42284846 -0.097673491 9.9626267e-39
1.2989798 0.47311956 -0.074991457 8.487484e-39
1.3230211 0.45793602 -0.082127325 8.3942136e-39
1.273955 0.49899235 -0.068811737 8.024701e-39
1.2862777 0.48538119 -0.074596606 7.4722503e-39
1.2538557 0.53222537 -0.054750245 6.0875194e-39
1.2617669 0.52474815 -0.06780652 7.0101847e-39
1.2510905 0.55829358 -0.052146949 5.2555923e-39
1.2638129 0.55591029 -0.067238443 6.1807716e-39
1.2217665 0.59978348 -0.043066949 7.0037135e-39
1.2361162 0.58510363 -0.057785779 6.1804129e-39
1.2642833 0.57576293 -0.071766108 4.1513859e-39
1.2241275 0.60917002 -0.044579942 9.1299317e-39
1.2321572 0.61580622 -0.059622772 7.0083701e-39
1.2376268 0.64473349 -0.058902506 8.1150721e-39
1.2354014 0.6734798 -0.0583391 8.7604416e-39
1.4258146 0.41527104 -0.079258405 1.0330316e-38
1.4506191 0.4081172 -0.083217978 1.079238e-38
1.4809234 0.39910606 -0.092998303 1.2174581e-38
1.3477324 0.44913027 -0.047507204 7.469749e-39
1.3615451 0.44097885 -0.062334396 8.5793335e-39
1.3898276 0.42742163 -0.067660592 1.0145933e-38
1.4172162 0.42126238 -0.069026932 9.7771565e-39
1.3090825 0.47360343 -0.04834092 9.0410193e-39
1.3339467 0.46014526 -0.053299122 9.2243274e-39
1.3491782 0.45083672 -0.061758868 8.9502586e-39
1.2829523 0.50066358 -0.04133841 8.9463e-39
1.2955868 0.486781 -0.041387718 9.6856629e-39
1.257656 0.52973306 -0.034193866 8.2080133e-39
1.2682439 0.51783592 -0.036995396 8.6707851e-39
1.2308693 0.56423175 -0.019519361 8.2094426e-39
1.2514797 0.55598962 -0.033395167 6.3640867e-39
1.2636739 0.55578715 -0.047496852 6.3647915e-39
1.2295599 0.58556789 -0.024057491 8.2994718e-39
1.2344162 0.586631 -0.032109823 8.2058342e-39
1.2287781 0.61401594 -0.023669109 8.3001865e-39
1.2334915 0.6219523 -0.033789191 8.9462593e-39
1.2312467 0.64549112 -0.019264877 8.8522757e-39
1.2350322 0.64481801 -0.031406447 8.2072664e-39
1.2305145 0.66473275 -0.014847302 8.3009011e-39
1.242661 0.67444009 -0.030452276 8.2987319e-39
1.4383173 0.41822752 -0.060783755 7.0102324e-39
1.4593242 0.41320959 -0.057912953 1.0792378e-38
1.4869313 0.4057703 -0.064597972 1.2544445e-38
1.5102154 0.40000457 -0.066463403 1.3091478e-38
1.3711051 0.44382545 -0.03490134 1.0332113e-38
1.3983891 0.43398002 -0.039541811 1.0423599e-38
1.4316477 0.4261772 -0.046182103 1.0607623e-38
1.451812 0.42211819 -0.047103923 1.1433776e-38
1.321178 0.4774954 -0.026998207 1.0052293e-38
1.341464 0.46533301 -0.023247769 1.0053362e-38
1.3576168 0.45191395 -0.029447332 9.6856699e-39
1.2921793 0.50176615 -0.013631961 9.774976e-39
1.3089261 0.48703712 -0.014583186 1.0422142e-38
1.2631892 0.53259444 -0.0060841758 9.4069138e-39
1.2796454 0.51851881 -0.0083721448 9.5909449e-39
1.2338107 0.56619656 -0.0037345844 1.0145904e-38
1.2568357 0.55561602 -0.002025862 8.0239793e-39
1.2359607 0.58592856 0.0035349571 9.1292381e-39
1.2459527 0.58014798 0.00073342765 8.3002019e-39
1.2336702 0.61452949 0.0042709783 9.2217868e-39
1.2342105 0.64402288 0.0032605871 9.3125349e-39
1.2360308 0.66685468 -0.002300232 9.5891274e-39
1.2449535 0.6747601 0.0027122742 1.0694744e-38
1.4735959 0.41601837 -0.036510479 1.1806518e-38
1.4948241 0.41442776 -0.037768167 1.3005412e-38
1.5240588 0.41177276 -0.042598095 1.2541205e-38
1.5488832 0.41254681 -0.04108505 1.318621e-38
1.3866981 0.44946909 -0.0071368613 1.0145219e-38
1.4089928 0.44260558 -0.01207949 1.0608345e-38
1.4387156 0.43368757 -0.019683985 1.1162594e-38
1.4688082 0.42609149 -0.027139518 9.8697038e-39
1.4894942 0.42126238 -0.023124663 1.3003967e-38
1.3259894 0.47986788 0.0037911993 1.2452577e-38
1.3480825 0.47027528 0.003850345 9.5002024e-39
1.3743706 0.45588529 -0.0002888226 1.0054452e-38
1.3033048 0.50565779 0.010426708 9.3136336e-39
1.3206158 0.49444374 0.012697969 9.5909463e-39
1.3386229 0.48227525 0.0099523095 1.1986914e-38
1.2708182 0.53460604 0.016135182 9.9582939e-39
1.2903962 0.52284849 0.019390324 9.6831363e-39
1.2645657 0.55411267 0.0268222 9.8664444e-39
1.2425723 0.59101945 0.029342011 9.2225015e-39
1.2518291 0.57795024 0.030622866 9.1288808e-39
1.2411691 0.61444724 0.032015961 1.0143384e-38
1.2532759 0.60430831 0.041965384 8.7572158e-39
1.2420479 0.63788128 0.029553212 1.0788021e-38
1.2526138 0.6536094 0.033777282 1.1246481e-38
1.2620431 0.67491645 0.028377015 1.1525215e-38
1.2734071 0.69303608 0.033303797 1.2625432e-38
1.277701 0.69624954 0.016766485 1.1245387e-38
1.5324966 0.41800731 -0.024679894 1.244574e-38
1.5611957 0.41730276 -0.022433557 1.1991984e-38
1.5796479 0.41697979 -0.028158711 1.2543697e-38
1.389086 0.44911435 0.01585735 9.7811053e-39
1.411244 0.44327319 0.013389628 1.1162968e-38
1.4452808 0.44023728 0.0063340529 1.1436662e-38
1.4742233 0.43707338 -0.00046913166 1.0974588e-38
1.4986067 0.43259296 -0.0012356684 1.1252268e-38
1.5325791 0.42515364 -0.0099739255 1.2352135e-38
1.5543364 0.42044035 -0.01426798 1.2357886e-38
1.3604627 0.47206262 0.026843935 1.0794181e-38
1.3818322 0.46137527 0.025858935 1.0606885e-38
1.4199156 0.45618424 0.030218996 9.0280209e-39
1.3296783 0.50143296 0.035358772 9.4065621e-39
1.3500705 0.48983601 0.03663674 1.0699822e-38
1.381336 0.48173943 0.041586436 1.4657338e-38
1.3040814 0.53041542 0.043377496 1.005192e-38
1.3203775 0.51915413 0.046940863 9.7746173e-39
1.2784202 0.558658 0.051296353 1.0511452e-38
1.2943599 0.54664373 0.056183401 1.1156812e-38
1.2513925 0.58861649 0.054541148 9.8714456e-39
1.2616291 0.58360547 0.05797331 1.0604365e-38
1.2500019 0.61499989 0.052381665 1.1341196e-38
1.2618579 0.61387688 0.065085709 1.1709624e-38
1.2500604 0.63430017 0.049440984 1.1890776e-38
1.2662301 0.64676577 0.058918756 1.3274775e-38
1.2773761 0.67446667 0.051139809 1.1891482e-38
1.2757387 0.69116336 0.044869773 1.4097287e-38
1.5683044 0.41807342 -0.0062947511 1.4380399e-38
1.4062172 0.44898897 0.063644439 1.44661e-38
1.4213643 0.44683009 0.052387401 1.2263522e-38
1.4471262 0.44743854 0.026370982 1.3378157e-38
1.5088977 0.44188783 0.016119774 1.1434858e-38
1.5422505 0.43290707 0.014732313 1.2909246e-38
1.5631803 0.42169538 0.0017871038 1.4292867e-38
1.3972812 0.46760267 0.055922151 1.3359404e-38
1.4165642 0.45717341 0.043382023 9.9492541e-39
1.4470824 0.45212403 0.037679318 1.0614479e-38
1.4916381 0.45351195 0.024658611 1.2084155e-38
1.5094445 0.4561688 0.02952056 1.161601e-38
1.5340091 0.45242572 0.030578924 8.6657909e-39
1.369904 0.50147498 0.058494415 1.4101296e-38
1.3840762 0.49096251 0.059146706 1.4833443e-38
1.3379681 0.52573287 0.064976797 1.0512896e-38
1.3643148 0.51663381 0.068281479 1.3731429e-38
1.2836608 0.56473714 0.070680425 1.1064602e-38
1.308812 0.55652916 0.074408703 1.1247221e-38
1.3337226 0.54842865 0.077461429 1.097243e-38
1.2791333 0.58916956 0.078842364 1.2168804e-38
1.3027109 0.58302766 0.086076833 1.2445388e-38
1.2816632 0.614658 0.086113863 1.3736473e-38
1.3013337 0.60325873 0.091426834 1.5954884e-38
1.2781538 0.63903517 0.077861458 1.3920855e-38
1.3425034 0.41666666 0.11055584 8.3844199e-39
1.3313868 0.43429723 0.11547935 1.1332514e-38
1.3412646 0.43781069 0.11030924 7.0933364e-39
1.3779204 0.4420895 0.098524801 9.672642e-39
1.3992003 0.44005686 0.084198289 1.3360826e-38
1.4240546 0.44309634 0.068625338 1.5488172e-38
1.5540966 0.44452751 0.032303028 1.0970645e-38
1.5679636 0.44256881 0.037910353 1.4382183e-38
1.3472917 0.45771557 0.10910298 4.9713838e-39
1.3814359 0.46548888 0.092849173 9.9474296e-39
1.388707 0.46758547 0.074466936 1.2988809e-38
1.4249356 0.45016515 0.062104929 1.4096611e-38
1.5187413 0.46657979 0.048299156 1.3000022e-38
1.5445896 0.45785466 0.045105204 1.3647167e-38
1.5674511 0.45318165 0.041884404 1.5864519e-38
1.3812456 0.49534109 0.088907726 1.3355054e-38
1.3853145 0.48477063 0.076607555 1.4554682e-38
1.3796529 0.52370173 0.08864025 1.4462845e-38
1.3896018 0.53117007 0.093023904 1.5102088e-38
1.3243819 0.56828254 0.088657886 1.3551737e-38
1.3418812 0.56112468 0.091682851 1.1892934e-38
1.3738778 0.55144846 0.094551921 1.1708905e-38
1.3908268 0.54294312 0.09771429 1.4000785e-38
1.3156761 0.58744651 0.097865075 1.3181498e-38
1.3366985 0.57267064 0.097233094 1.216772e-38
1.3762449 0.57032663 0.10124186 1.0970651e-38
1.2856958 0.60390824 0.098825812 1.3455544e-38
1.3083253 0.60569364 0.098410338 1.3273336e-38
1.3527683 0.41318256 0.11622171 1.0595323e-38
1.3851609 0.41855779 0.11559411 1.1980404e-38
1.3430194 0.42177612 0.11648832 9.9535379e-39
1.4091246 0.431144 0.10676602 1.1980059e-38
1.4255702 0.42979822 0.10015173 1.1429062e-38
1.3503945 0.46684331 0.11623475 7.2759144e-39
1.3644512 0.47185138 0.11049854 6.3539511e-39
1.3760933 0.49649695 0.11315797 1.0221475e-38
1.388182 0.52216333 0.11355862 1.4918769e-38
1.3928684 0.53486365 0.10553162 1.4918055e-38
1.3880031 0.54571742 0.10668973 1.4185494e-38
1.3982333 0.55478752 0.11024419 1.4282799e-38
1.4348196 0.55815047 0.11973821 1.3078488e-38
1.4413664 0.55770457 0.12501857 1.3639564e-38
