# .PCD v0.7 - Point Cloud Data file format
VERSION 0.7
FIELDS x y z rgb
SIZE 4 4 4 4
TYPE F F F F
COUNT 1 1 1 1
WIDTH 1012
HEIGHT 1
VIEWPOINT 0 0 0 1 0 0 0
POINTS 1012
DATA ascii
2.5335512 -1.0675027 -1.2633408 9.5854981e-39
2.5114648 -1.0303645 -1.2567768 7.5557299e-39
2.5308225 -1.0267421 -1.2731708 8.1081862e-39
2.5125039 -1.0030761 -1.2528775 7.6500807e-39
2.5321462 -1.0063591 -1.2682558 8.2021839e-39
2.5508494 -1.0040615 -1.2832571 7.8323322e-39
2.5348039 -0.97578394 -1.2584261 7.2795143e-39
2.5508237 -0.97838259 -1.2832571 8.1975133e-39
2.5334368 -0.95285589 -1.263341 9.4000194e-39
2.5545831 -0.94448274 -1.2693863 8.7553731e-39
2.5726597 -0.94327146 -1.2904721 9.0179203e-39
2.7182121 -0.90099132 -1.3077679 1.2811951e-38
2.7391436 -0.90888971 -1.3298224 1.0978093e-38
2.7170417 -0.87921631 -1.3119688 6.9100087e-39
2.7391217 -0.88692272 -1.3298224 7.2812884e-39
2.7405372 -0.85397083 -1.3245252 7.2773325e-39
2.7657921 -0.83923006 -1.330688 7.6457619e-39
2.7657754 -0.82261169 -1.330688 7.7383289e-39
2.76722 -0.80599189 -1.3253448 8.1081834e-39
2.7924538 -0.79829556 -1.3354008 8.2918558e-39
2.8181989 -0.79785275 -1.343612 8.290425e-39
2.8423741 -0.79374421 -1.3613429 1.1508595e-38
2.538938 -1.0776882 -1.2436811 1.3639847e-38
2.5187767 -1.0552863 -1.230131 9.8599115e-39
2.5130579 -1.0276397 -1.2310387 7.7415757e-39
2.5159121 -0.99926221 -1.23244 7.7401267e-39
2.5191331 -0.96769679 -1.2285063 7.647215e-39
2.5204461 -0.94748271 -1.2236321 7.0014519e-39
2.5398788 -0.94316816 -1.2397492 8.4791323e-39
2.5616152 -0.93214977 -1.2436261 7.8334168e-39
2.561605 -0.92187822 -1.2436261 1.0855338e-38
2.7210844 -0.90098846 -1.2972654 1.6397096e-38
2.7478354 -0.90888101 -1.2980391 1.4933453e-38
2.6780457 -0.89650679 -1.2650784 1.6394183e-38
2.7207041 -0.8769114 -1.2867205 7.1865788e-39
2.723913 -0.85743332 -1.286763 7.0007638e-39
2.7477748 -0.84847182 -1.2980391 7.0940272e-39
2.771637 -0.8392241 -1.309315 7.6457577e-39
2.7506557 -0.83199376 -1.2874446 7.7372456e-39
2.7730815 -0.8226043 -1.3039718 7.922353e-39
2.7978745 -0.81319427 -1.3156337 8.4758673e-39
2.7993376 -0.80201471 -1.3102427 8.2918474e-39
2.8256357 -0.79784536 -1.3164178 8.836029e-39
2.5117452 -1.0557477 -1.19898 1.1241735e-38
2.514297 -1.0286311 -1.1986483 8.2940236e-39
2.5203104 -0.99772429 -1.200428 7.6479297e-39
2.5257978 -0.96769017 -1.2041352 7.7394135e-39
2.5257778 -0.9474774 -1.2041352 7.0936643e-39
2.5468652 -0.94010395 -1.2141916 8.0145458e-39
2.5704236 -0.93470889 -1.2114259 8.0156248e-39
2.5922236 -0.92944402 -1.2188832 9.2084269e-39
2.5441513 -0.91462964 -1.2240213 1.0486204e-38
2.5922134 -0.91908801 -1.2188832 1.2800382e-38
2.6851158 -0.90720433 -1.2392648 1.4737561e-38
2.7095611 -0.91497803 -1.2446789 1.2438451e-38
2.6843913 -0.88847196 -1.2418462 9.8591647e-39
2.7153065 -0.87994885 -1.2590811 7.2766234e-39
2.7310932 -0.85742611 -1.2605069 6.8160082e-39
2.7564666 -0.84846312 -1.2662556 7.1847809e-39
2.7564447 -0.82649618 -1.2662556 7.4624412e-39
2.7803822 -0.81705755 -1.2772555 8.0149157e-39
2.7810988 -0.80320829 -1.2745838 8.4744267e-39
2.8052347 -0.80200881 -1.2886784 7.6450444e-39
2.5132349 -1.0505689 -1.170768 1.0505626e-38
2.5145376 -1.0305089 -1.165931 8.6631816e-39
2.514178 -1.0016749 -1.1671402 7.8341216e-39
2.5230134 -0.97003305 -1.1709027 7.5553837e-39
2.5286252 -0.94250625 -1.1709586 7.3709841e-39
2.5549242 -0.93500054 -1.1847018 6.9074822e-39
2.6700487 -0.93158263 -1.2034674 1.3352484e-38
2.6907902 -0.93396014 -1.218614 1.3813471e-38
2.7124307 -0.93656772 -1.234265 1.3356092e-38
2.5364163 -0.92220068 -1.1651412 7.091149e-39
2.5566957 -0.91461706 -1.1781485 8.4719268e-39
2.5751524 -0.92186469 -1.1940873 7.8326839e-39
2.6017745 -0.91907847 -1.1839211 9.9405801e-39
2.6912374 -0.91076642 -1.2168931 1.1794519e-38
2.7152677 -0.92576867 -1.223851 1.317637e-38
2.690742 -0.88578945 -1.218614 6.2653414e-39
2.7310829 -0.87190044 -1.2369021 6.5408535e-39
2.7276802 -0.85197562 -1.2255796 6.9078451e-39
2.7666016 -0.84296131 -1.229175 7.1851383e-39
2.7382514 -0.83564281 -1.2342508 7.2769695e-39
2.7647703 -0.8223691 -1.2357966 7.8294329e-39
2.7622118 -0.79903173 -1.2450666 8.4773246e-39
2.4634101 -1.0357527 -1.1102849 1.3635539e-38
2.4827859 -1.0290948 -1.1190208 1.0506346e-38
2.4995489 -1.0346441 -1.1373529 9.9524589e-39
2.5198238 -1.0254889 -1.1465826 7.9295556e-39
2.5021405 -1.0023085 -1.1277566 8.3847885e-39
2.5198038 -1.0054302 -1.1465826 8.0185227e-39
2.500365 -0.97578049 -1.1341542 7.6493786e-39
2.5217452 -0.96280348 -1.139327 7.5553837e-39
2.5223839 -0.94023675 -1.1369085 7.4631769e-39
2.6770499 -0.93157566 -1.1778661 1.3447576e-38
2.6971407 -0.93127757 -1.1953816 1.4286644e-38
2.5421267 -0.92002934 -1.1442517 7.0936783e-39
2.5620687 -0.91121477 -1.1584888 7.9198404e-39
2.5886893 -0.91157955 -1.1445485 8.6487469e-39
2.6284955 -0.92656368 -1.1734291 9.1972487e-39
2.6978252 -0.90986776 -1.1928003 6.9035067e-39
2.7238114 -0.92576009 -1.1926091 6.9938722e-39
2.6978011 -0.88578236 -1.1928003 5.9887615e-39
2.7237575 -0.87177843 -1.1926092 6.1738604e-39
2.6949561 -0.86437607 -1.2031257 5.9894775e-39
2.7332549 -0.856354 -1.1984401 6.3571853e-39
2.7724016 -0.8484472 -1.207986 7.0925937e-39
2.7718987 -0.82831132 -1.2097517 7.0929552e-39
2.4873428 -1.0290903 -1.1023574 1.1058441e-38
2.5074193 -1.0321491 -1.108564 1.0320902e-38
2.4882958 -1.0056443 -1.0987868 8.939407e-39
2.5047603 -0.99733144 -1.1181604 8.4787834e-39
2.4886837 -0.97479528 -1.0972564 8.2021881e-39
2.5066962 -0.96499646 -1.1109631 7.8337797e-39
2.5329864 -0.96028489 -1.098212 7.6486275e-39
2.5090857 -0.94924206 -1.1021665 8.2940166e-39
2.5294356 -0.93688649 -1.1111108 7.9248851e-39
2.6812506 -0.93157142 -1.1625053 1.2157563e-38
2.7063222 -0.93572873 -1.161824 7.7411595e-39
2.5410271 -0.91699183 -1.1141433 7.3699037e-39
2.572377 -0.91460139 -1.1208075 7.1894487e-39
2.6296568 -0.9240585 -1.1401095 8.3786242e-39
2.6854298 -0.91033417 -1.1471446 5.8940253e-39
2.7055957 -0.91521233 -1.1644053 5.8007423e-39
2.7062724 -0.8857739 -1.1618239 5.7132578e-39
2.7381332 -0.87061173 -1.1716291 6.3564412e-39
2.7521844 -0.85324574 -1.1698263 7.1847767e-39
2.7535658 -0.83199811 -1.1782378 7.462437e-39
2.495152 -1.0266145 -1.0737916 1.0783285e-38
2.5179265 -1.0420872 -1.070179 8.5680951e-39
2.4957812 -1.0044029 -1.0714113 8.8475673e-39
2.4957514 -0.97478819 -1.0714113 8.110354e-39
2.5125983 -0.96250337 -1.0893716 7.4635566e-39
2.4970334 -0.95504373 -1.0666502 7.8337811e-39
2.5155296 -0.94135964 -1.0785758 7.4631741e-39
2.5382476 -0.93019146 -1.0788636 7.0047225e-39
2.6910522 -0.93156165 -1.1266636 6.2660532e-39
2.5483148 -0.91486353 -1.0817993 7.0025603e-39
2.5790925 -0.90949929 -1.0962329 6.1749604e-39
2.6422653 -0.92654991 -1.1230762 6.7234525e-39
2.6700971 -0.91330367 -1.1122391 5.6203251e-39
2.6919625 -0.90855825 -1.1232501 5.1589756e-39
2.7147646 -0.90717465 -1.1308476 5.1604245e-39
2.69381 -0.8890928 -1.1164231 5.3444585e-39
2.7143369 -0.88270742 -1.1323227 5.8043744e-39
2.7147219 -0.86435628 -1.1308476 6.3571684e-39
2.7438018 -0.86007488 -1.1429623 6.9092576e-39
2.7897961 -0.85941333 -1.1444192 7.7375862e-39
2.8111119 -0.86134249 -1.1650472 7.3709588e-39
2.4866629 -1.0357294 -1.0252566 1.0504526e-38
2.5023105 -1.0241394 -1.0476063 1.0692559e-38
2.5238285 -1.0395941 -1.0485874 1.0872961e-38
2.503593 -1.0043951 -1.0428455 8.7571723e-39
2.5035634 -0.97478038 -1.0428455 7.4653475e-39
2.5231154 -0.98239011 -1.0509865 7.3731505e-39
2.5035431 -0.95503724 -1.0428454 7.188734e-39
2.5230758 -0.9425956 -1.0509866 7.2798688e-39
2.5448616 -0.93018484 -1.0546783 7.5524957e-39
2.5458324 -0.90887159 -1.0510505 7.1858767e-39
2.6438973 -0.9019959 -1.0734223 6.0795138e-39
2.6728745 -0.91330087 -1.1020836 6.0780662e-39
2.6994269 -0.90501195 -1.095942 5.2486475e-39
2.565716 -0.8969053 -1.0579081 6.7281272e-39
2.5884855 -0.89420366 -1.0618283 6.6341183e-39
2.6998742 -0.88554782 -1.0942353 5.5266917e-39
2.7225003 -0.87772924 -1.1024526 5.9891132e-39
2.7479646 -0.87175423 -1.1040906 6.9110513e-39
2.7217705 -0.85364467 -1.105034 7.0911364e-39
2.7516458 -0.86006701 -1.1142797 7.2762479e-39
2.5301619 -1.0304682 -1.0253966 8.5658867e-39
2.5542214 -1.0304693 -1.0208188 8.936795e-39
2.5113947 -0.99451572 -1.0142796 9.3117712e-39
2.5310156 -1.0097409 -1.0221977 9.5854827e-39
2.4930532 -0.96716142 -1.0016376 8.5698972e-39
2.5110033 -0.97477293 -1.0156399 8.3865793e-39
2.5113473 -0.94713211 -1.0142796 7.6490129e-39
2.5305128 -0.94424629 -1.0237972 7.280952e-39
2.5139196 -0.91554058 -1.0047576 7.3742295e-39
2.5303955 -0.91473228 -1.024117 6.2639387e-39
2.5514503 -0.90510494 -1.030493 4.7898862e-39
2.6811955 -0.90276414 -1.071617 6.0824004e-39
2.7036221 -0.89969951 -1.0805814 5.062101e-39
2.5335228 -0.89284211 -1.0126015 7.460314e-39
2.564219 -0.88465363 -1.0235316 6.6345008e-39
2.6521215 -0.88636935 -1.0432919 6.4504641e-39
2.6839623 -0.89223295 -1.0614614 5.6203223e-39
2.7064066 -0.88377196 -1.0703409 5.2490202e-39
2.730263 -0.87504536 -1.0740576 5.5277721e-39
2.7550843 -0.87174714 -1.0780557 6.1727884e-39
2.7550678 -0.85555255 -1.0780556 7.920174e-39
2.5166323 -1.0241251 -0.9952358 2.6668644e-39
2.500406 -0.99980253 -0.97486943 7.646087e-39
2.5183549 -1.0109614 -0.98888779 6.629082e-39
2.4995222 -0.97694957 -0.9780187 8.3854961e-39
2.5165732 -0.96489584 -0.9952358 8.8457652e-39
2.5007892 -0.9524619 -0.97329479 7.8330496e-39
2.5187826 -0.94233 -0.98707414 8.0181429e-39
2.5191278 -0.91553533 -0.9857139 8.0181597e-39
2.5361571 -0.9027881 -1.0030053 6.8199739e-39
2.5204098 -0.89579099 -0.98095286 7.7433581e-39
2.5394251 -0.89034909 -0.99100989 7.2794933e-39
2.5615683 -0.88169301 -0.9934088 7.2805737e-39
2.6625633 -0.87889647 -1.0196153 6.7259468e-39
2.6908946 -0.8816976 -1.0360726 5.9862377e-39
2.7148027 -0.87845528 -1.0396193 6.076962e-39
2.7373221 -0.87503827 -1.048244 6.4453984e-39
2.5413659 -0.86298835 -0.98381269 7.7415378e-39
2.5751097 -0.86436743 -0.99690175 7.4638747e-39
2.7387233 -0.86433226 -1.0430813 6.7241601e-39
2.7621932 -0.86094362 -1.0520209 7.089707e-39
2.5467737 -1.022161 -0.96462017 1.3836631e-39
2.5700948 -1.0304534 -0.96277404 2.6664986e-39
2.5047088 -0.99653333 -0.95912343 5.9865516e-39
2.5270314 -1.0076622 -0.95714796 3.4915789e-39
2.5072732 -0.97694182 -0.94967592 8.4802071e-39
2.5041065 -0.94147158 -0.94848979 7.0032904e-39
2.5097978 -0.91817224 -0.94022828 7.0018246e-39
2.526613 -0.91429394 -0.95833838 7.8326867e-39
2.54403 -0.90278023 -0.9742164 8.2957962e-39
2.5282218 -0.89578319 -0.95238709 7.8333887e-39
2.5473859 -0.88430083 -0.96187842 7.9263214e-39
2.6630826 -0.87596017 -1.0031724 6.3589635e-39
2.7232041 -0.87844688 -1.0088979 5.8029227e-39
2.7457933 -0.8750298 -1.0172676 5.985844e-39
2.5466142 -0.86298311 -0.96462011 7.2791542e-39
2.5765126 -0.85878807 -0.96521521 7.2769878e-39
2.6113045 -0.86360836 -0.97827423 7.0929496e-39
2.6563573 -0.86724406 -0.98413754 6.7259454e-39
2.7457771 -0.85897297 -1.0172676 7.6482534e-39
2.7700222 -0.85823673 -1.0233825 8.5590539e-39
2.5150433 -0.99652302 -0.92133307 1.6545061e-39
2.5348341 -0.99844092 -0.92858225 5.3426774e-39
2.5124304 -0.96714205 -0.93078065 1.0322301e-38
2.5353374 -0.98067153 -0.92667788 9.4932702e-39
2.5149899 -0.94265324 -0.92133319 8.6635306e-39
2.5146339 -0.9095971 -0.92251408 6.4483047e-39
2.5121946 -0.88743579 -0.91618735 6.4468642e-39
2.5341952 -0.87998283 -0.93048668 6.8192396e-39
2.554497 -0.87292391 -0.93583131 7.3713358e-39
2.7089362 -0.87115103 -0.9700616 6.8181396e-39
2.7297316 -0.87136263 -0.98500341 5.8958091e-39
2.5544825 -0.85800105 -0.93583143 7.8330412e-39
2.5844493 -0.85209394 -0.93616796 8.0170723e-39
2.6220469 -0.85340679 -0.93895471 7.7422665e-39
2.6401181 -0.86017036 -0.95630103 7.6475597e-39
2.6590891 -0.86724132 -0.97414839 7.279129e-39
2.7117028 -0.86061978 -0.95990604 6.0787963e-39
2.7343848 -0.85720271 -0.96793586 5.9869384e-39
2.7537739 -0.85539669 -0.98801219 5.6156447e-39
2.7778456 -0.85013169 -0.99474418 6.8970159e-39
2.5413404 -0.9944858 -0.90477747 1.0514265e-38
2.5247123 -0.9769243 -0.88590461 9.2163442e-39
2.5408895 -0.97803354 -0.90636438 7.6500877e-39
2.5205922 -0.9448815 -0.89327306 7.9263243e-39
2.5041242 -0.91006362 -0.88512665 7.8348251e-39
2.5134835 -0.88347197 -0.8887139 6.9110793e-39
2.5412219 -0.87602711 -0.90477747 6.3571783e-39
2.5597458 -0.87291867 -0.91663885 5.5317154e-39
2.5252359 -0.8544926 -0.88354272 6.4482935e-39
2.5425019 -0.85430837 -0.90001649 6.265347e-39
2.5623434 -0.84638637 -0.9070425 7.2773367e-39
2.5923965 -0.84203094 -0.90707123 7.46243e-39
2.6455266 -0.84989339 -0.93648553 7.0079329e-39
2.6931415 -0.85341638 -0.93677026 6.7277699e-39
2.7399857 -0.85719711 -0.94745487 6.7248509e-39
2.7627139 -0.85360366 -0.95531493 6.5365038e-39
2.795378 -0.8591361 -0.97805429 8.0073095e-39
2.6069767 -0.83622545 -0.90680677 7.3727721e-39
2.5279615 -0.99651009 -0.87409514 1.2258448e-38
2.5305257 -0.97691852 -0.86464757 8.5738545e-39
2.5199513 -0.94359857 -0.86107159 7.6500793e-39
2.5114977 -0.91127145 -0.8581683 8.1106987e-39
2.5131049 -0.88081545 -0.859761 7.5564571e-39
2.5267615 -0.85467184 -0.86111611 6.818134e-39
2.5490041 -0.84640467 -0.87621164 6.6330463e-39
2.5689011 -0.84306353 -0.88305193 6.5394115e-39
2.6754587 -0.84651297 -0.9142133 7.5553725e-39
2.7455866 -0.8571915 -0.92697388 7.0947223e-39
2.5529001 -0.83652914 -0.86192876 6.9078171e-39
2.5715153 -0.8331123 -0.87345564 6.8159648e-39
2.6021965 -0.82435352 -0.87647831 7.0014561e-39
2.5218325 -0.98902988 -0.82066113 1.2442484e-38
2.5027659 -0.96226734 -0.81446517 8.852242e-39
2.5189281 -0.96959066 -0.83121002 8.9429901e-39
2.5192196 -0.94042701 -0.83003795 7.4653419e-39
2.5191905 -0.91126376 -0.83003795 7.6497205e-39
2.5191612 -0.88210052 -0.83003795 7.9255984e-39
2.5245779 -0.8529104 -0.83286983 7.2787688e-39
2.523421 -0.8289057 -0.82943016 6.9096234e-39
2.5606971 -0.82171398 -0.833363 7.0925503e-39
2.5776289 -0.82315755 -0.85106444 7.0021595e-39
2.5989754 -0.80977839 -0.85635853 7.7353945e-39
2.5806704 -0.80325723 -0.83986872 8.6447616e-39
2.6016109 -0.79974639 -0.8466844 1.3270767e-38
2.5072217 -0.96467477 -0.79817963 1.0420647e-38
2.5269368 -0.9647221 -0.80190754 8.4809288e-39
2.5103762 -0.93814045 -0.78654712 6.7252629e-39
2.5253756 -0.94236511 -0.80753362 7.2795031e-39
2.5095103 -0.92045391 -0.78964913 7.4639028e-39
2.5265615 -0.91004121 -0.80307966 7.0961782e-39
2.526854 -0.88209271 -0.80190754 7.464972e-39
2.5265055 -0.85414493 -0.80307966 7.4660383e-39
2.5102701 -0.83201575 -0.78654712 7.1890871e-39
2.5325165 -0.82073486 -0.80372393 7.0014547e-39
2.5632963 -0.81677556 -0.82384104 7.2773101e-39
2.5833049 -0.81320316 -0.8302725 7.3702568e-39
2.5484347 -0.80059952 -0.79851437 7.0921845e-39
2.5671871 -0.80196434 -0.80955815 7.7325457e-39
2.5859156 -0.79993582 -0.82067615 1.0400078e-38
2.6095476 -0.79973847 -0.817662 1.3173516e-38
2.5154903 -0.96225464 -0.7679351 1.1706694e-38
2.4988575 -0.94057035 -0.75285786 1.0598897e-38
2.5141985 -0.94296044 -0.77258813 7.3760301e-39
2.4981995 -0.91424161 -0.75516671 6.9121471e-39
2.5145919 -0.91240901 -0.77103716 6.3568279e-39
2.5154178 -0.88989693 -0.76793516 7.0933084e-39
2.53403 -0.87819713 -0.77565253 7.4620951e-39
2.5179386 -0.86577511 -0.75862914 7.1872878e-39
2.5345225 -0.8577823 -0.77377713 7.4638958e-39
2.5153551 -0.82718682 -0.76793516 7.2787702e-39
2.5416152 -0.8125785 -0.77800351 7.0932916e-39
2.5370333 -0.80431372 -0.76440036 7.277701e-39
2.5737019 -0.80689353 -0.78575331 7.4616915e-39
2.5937917 -0.80324411 -0.79188734 7.8286453e-39
2.6362715 -0.80587685 -0.7995736 1.151252e-38
2.5449109 -0.98900682 -0.73626995 1.2718333e-38
2.5231273 -0.96465886 -0.74001712 1.0693629e-38
2.5449011 -0.97928578 -0.73626995 1.1523354e-38
2.5005682 -0.93817264 -0.73142868 7.7412043e-39
2.5205703 -0.95260179 -0.74932313 9.2188371e-39
2.4953461 -0.9134903 -0.73190117 7.557162e-39
2.5051186 -0.8879053 -0.72976989 7.1880235e-39
2.5217752 -0.88506669 -0.74467009 6.080234e-39
2.5063477 -0.85439402 -0.72515225 6.2657029e-39
2.5225945 -0.85612273 -0.74156815 6.3575398e-39
2.5396461 -0.85291666 -0.75502354 6.821413e-39
2.5232425 -0.82524937 -0.73908651 6.909629e-39
2.5408895 -0.81403106 -0.75033516 6.9099905e-39
2.5517571 -0.80244768 -0.74846154 7.0932916e-39
2.5815039 -0.79701424 -0.75718749 7.554983e-39
2.6003425 -0.79328895 -0.76789677 1.0310351e-38
2.6280668 -0.79971993 -0.74994302 9.1100627e-39
2.5603178 -0.99518329 -0.71786308 1.1431884e-38
2.5140345 -0.96449101 -0.69744664 7.2759312e-39
2.5282149 -0.96224189 -0.72140509 7.648671e-39
2.5487475 -0.97928196 -0.72220474 9.3103167e-39
2.4949491 -0.9378252 -0.70079619 6.8196011e-39
2.4755657 -0.90606207 -0.6900534 6.4518934e-39
2.490324 -0.91197246 -0.70813793 6.7288418e-39
2.4755499 -0.89034355 -0.6900534 6.3611299e-39
2.4918582 -0.87990528 -0.70241016 6.2653414e-39
2.5033722 -0.85162634 -0.70443046 6.7241671e-39
2.5113702 -0.82566619 -0.70668185 6.7234398e-39
2.5306101 -0.81269991 -0.71209913 6.6337539e-39
2.559479 -0.80243993 -0.72022498 7.0943691e-39
2.5906179 -0.79700518 -0.7238608 7.6443031e-39
2.6095326 -0.79825407 -0.73430985 7.8301391e-39
2.6315875 -0.79303026 -0.73704416 1.0495126e-38
2.5435517 -1.0297606 -0.66556913 1.106383e-38
2.508338 -0.99923986 -0.66785747 1.0965877e-38
2.4839165 -0.96421283 -0.65972954 5.8040283e-39
2.50664 -0.98176193 -0.67400247 9.1262884e-39
2.4723063 -0.93988562 -0.66208142 4.9746124e-39
2.497261 -0.95709497 -0.68293577 6.2657295e-39
2.4483678 -0.91743362 -0.64549345 4.422163e-39
2.4697654 -0.91323793 -0.66087073 4.8824139e-39
2.4669266 -0.88212442 -0.65913236 4.4228763e-39
2.4779685 -0.85416216 -0.66306996 4.1441342e-39
2.4984002 -0.84308267 -0.67835355 4.6973038e-39
2.4837728 -0.82060152 -0.65972954 3.9611667e-39
2.5025768 -0.82326108 -0.68196362 5.4355779e-39
2.5356951 -0.80787104 -0.69348711 6.6316057e-39
2.4849951 -0.79916579 -0.65518099 3.6842225e-39
2.5098462 -0.79801798 -0.66666055 4.5136286e-39
2.5403447 -0.79178691 -0.67642611 4.9742522e-39
2.5667574 -0.78942227 -0.69356298 6.4475508e-39
2.5945139 -0.78712964 -0.70957792 7.4567015e-39
2.5432863 -0.76444882 -0.66556913 6.7172951e-39
2.5649636 -0.76069897 -0.67727119 1.2713596e-38
2.5971081 -0.77725548 -0.70005602 9.9293613e-39
2.5819631 -0.74179906 -0.67569566 1.5945536e-38
2.510983 -0.66610128 -0.66418892 1.3359405e-38
2.5372503 -0.6663698 -0.6872831 1.5294396e-38
2.5548568 -0.67792153 -0.69876277 1.640219e-38
2.5398593 -0.64578533 -0.6776669 1.3075201e-38
2.5573821 -0.63903457 -0.68938595 1.7513536e-38
2.8279908 -1.1853807 -0.71782953 1.2347738e-38
2.8279693 -1.1639717 -0.71782953 1.1972094e-38
2.5706215 -1.0570289 -0.64250201 9.3848784e-39
2.527992 -1.0314972 -0.646653 1.0875121e-38
2.5491505 -1.029755 -0.64509588 6.6305324e-39
2.5175922 -1.0019906 -0.63908243 5.1607945e-39
2.49138 -0.96420532 -0.63243806 4.7009121e-39
2.5098205 -0.98558515 -0.63711369 4.8849349e-39
2.476625 -0.9406811 -0.62868416 4.5165237e-39
2.4553092 -0.91432941 -0.62009931 4.1452146e-39
2.4725592 -0.91495085 -0.62905252 4.2391955e-39
2.4556835 -0.88025945 -0.61860549 3.7782244e-39
2.4704099 -0.88218778 -0.63679236 3.9619024e-39
2.4394174 -0.85554898 -0.60975838 3.9622443e-39
2.4544394 -0.86167711 -0.62308687 3.8646635e-39
2.4851296 -0.85361463 -0.63087952 3.5005683e-39
2.4878881 -0.82292414 -0.631594 3.4090649e-39
2.4866109 -0.80002296 -0.63126916 3.3150938e-39
2.5193229 -0.79385257 -0.63957453 3.5927429e-39
2.5483956 -0.78373909 -0.6469571 3.8700388e-39
2.5477424 -0.76685625 -0.64928359 4.2366606e-39
2.5753479 -0.75657403 -0.65255237 5.1560973e-39
2.5871303 -0.74179387 -0.65680045 6.5393975e-39
2.4566956 -0.66654813 -0.61412418 1.6588737e-38
2.4880044 -0.66158539 -0.63166994 1.5852615e-38
2.5200198 -0.64919186 -0.63649613 1.3172825e-38
2.5474041 -0.64063239 -0.6500591 1.150789e-38
2.8121865 -1.1791593 -0.68461549 1.0770699e-38
2.831944 -1.1853766 -0.70337391 1.1604053e-38
2.5879393 -1.0657294 -0.62469858 7.8240084e-39
2.5562763 -1.0297478 -0.61903906 5.7125375e-39
2.5757403 -1.0473026 -0.62374842 6.6301708e-39
2.5238378 -1.0024157 -0.6111902 5.1604371e-39
2.4988477 -0.96891356 -0.60514659 4.7920218e-39
2.4803436 -0.9383468 -0.60067284 4.699466e-39
2.462539 -0.90812767 -0.59363806 4.2388396e-39
2.4778507 -0.91494548 -0.60970271 4.2392137e-39
2.4618108 -0.88025331 -0.59619886 3.9619052e-39
2.4418509 -0.85554653 -0.60085946 3.869362e-39
2.4622772 -0.85609424 -0.59440637 3.5934814e-39
2.4834492 -0.84692001 -0.603387 3.592401e-39
2.4642158 -0.83379215 -0.58723629 3.3172448e-39
2.4940786 -0.82120669 -0.60403931 3.4087118e-39
2.498678 -0.79915202 -0.60514659 3.2246989e-39
2.5268703 -0.793845 -0.61197507 3.3165189e-39
2.5560303 -0.7837314 -0.61903906 3.409425e-39
2.5585606 -0.76925737 -0.6097331 3.1342759e-39
2.5770445 -0.76277691 -0.62636322 3.4090621e-39
2.5754356 -0.74270833 -0.62374842 3.3161588e-39
2.4465566 -0.69409221 -0.58306158 5.6181419e-39
2.4616253 -0.69441849 -0.59619892 9.119408e-39
2.4416664 -0.67103291 -0.60085946 1.6498336e-38
2.4620988 -0.67769289 -0.59440637 1.6220674e-38
2.4896142 -0.66345286 -0.60178095 1.5388391e-38
2.500386 -0.64117789 -0.5983237 1.3352151e-38
2.5271544 -0.64461422 -0.61797303 1.270787e-38
2.5533359 -0.63419461 -0.62834507 1.0677377e-38
2.7981339 -1.1974437 -0.6450842 1.2531423e-38
2.8159485 -1.2074661 -0.6709615 1.2809415e-38
2.7962685 -1.1834075 -0.65185463 1.0131811e-38
2.8159325 -1.1915416 -0.6709615 1.0039264e-38
2.7728543 -1.1595875 -0.64640164 6.5343907e-39
2.6055584 -1.0845829 -0.59066731 6.5340389e-39
2.6208596 -1.0931219 -0.61435866 7.359464e-39
2.593204 -1.0659034 -0.59786642 5.8003947e-39
2.5469241 -1.021904 -0.57738894 5.4352374e-39
2.5634077 -1.0355294 -0.59298229 5.4377527e-39
2.5038426 -0.98777092 -0.58695227 5.068973e-39
2.5253739 -1.000771 -0.58029437 5.6203461e-39
2.5063112 -0.9689061 -0.57785511 4.7009107e-39
2.4939332 -0.94068044 -0.57499588 3.9647764e-39
2.4687018 -0.90812159 -0.57110351 3.9640534e-39
2.4877377 -0.92429709 -0.57358307 4.2399186e-39
2.4532332 -0.88116217 -0.55933112 3.8707829e-39
2.468344 -0.87714946 -0.57229853 3.8711347e-39
2.4540279 -0.8647601 -0.55636477 4.1455607e-39
2.4694436 -0.85353184 -0.56819057 3.593473e-39
2.4851933 -0.84940785 -0.58261299 3.7774733e-39
2.4691179 -0.83378726 -0.56931096 3.3172364e-39
2.4968977 -0.81966418 -0.57571912 3.04136e-39
2.5061414 -0.79914457 -0.57785511 3.4083502e-39
2.5344179 -0.79383749 -0.58437568 3.5927387e-39
2.5636649 -0.78372377 -0.59112108 3.1328507e-39
2.5636504 -0.76925224 -0.59112108 2.7640626e-39
2.591872 -0.76087379 -0.59620571 2.671881e-39
2.5441017 -0.72510296 -0.58662415 3.7666931e-39
2.5661566 -0.73065889 -0.58181506 4.3198584e-39
2.5818498 -0.74594229 -0.60030639 2.3059627e-39
2.4489856 -0.68947697 -0.57416266 1.004171e-38
2.4677575 -0.69905823 -0.57379228 6.444318e-39
2.4887428 -0.69494009 -0.56906813 1.3456235e-38
2.4681489 -0.68202287 -0.57229853 1.6131706e-38
2.4911854 -0.66782928 -0.57444429 1.5476272e-38
2.502897 -0.64586341 -0.57715428 1.3444719e-38
2.7815928 -1.1769795 -0.61451143 1.2434153e-38
2.8009005 -1.1869124 -0.63492864 1.1512585e-38
2.7652087 -1.1602532 -0.61623478 9.6697497e-39
2.7137201 -1.1284674 -0.60473859 7.1808531e-39
2.6107256 -1.0845778 -0.57177216 7.8237002e-39
2.6338794 -1.0931088 -0.56674898 7.9169482e-39
2.6009259 -1.0658958 -0.56962985 5.7103585e-39
2.5721796 -1.02732 -0.56087655 4.7919937e-39
2.591126 -1.0472872 -0.5674876 4.8842048e-39
2.5436306 -1.0035058 -0.55903763 5.713241e-39
2.5131457 -0.96182573 -0.55283797 5.7132424e-39
2.5328734 -0.98176163 -0.55280113 5.7125459e-39
2.4814749 -0.93598413 -0.52449769 6.2628695e-39
2.499373 -0.94441688 -0.54551488 4.9771305e-39
2.4623446 -0.90718997 -0.52610844 4.1477257e-39
2.4765527 -0.91585684 -0.54242295 4.1488118e-39
2.4926763 -0.92429215 -0.55552328 3.9637002e-39
2.4593866 -0.88249415 -0.52925372 3.7793132e-39
2.4613287 -0.86475283 -0.52966803 3.7775167e-39
2.4775815 -0.85545945 -0.53843957 3.5931016e-39
2.4964769 -0.84404713 -0.5413335 3.5905989e-39
2.5068593 -0.82001537 -0.54760373 3.5923687e-39
2.5136049 -0.79913712 -0.55056363 3.5916625e-39
2.5409243 -0.79134947 -0.55516106 3.2243149e-39
2.5707898 -0.78275198 -0.56506425 2.7640724e-39
2.571285 -0.76924461 -0.5632031 2.7626151e-39
2.5929623 -0.76121932 -0.56920415 2.5800371e-39
2.5529411 -0.72509414 -0.5543009 4.685048e-39
2.5908213 -0.74269295 -0.5674876 3.3147155e-39
2.4812334 -0.69439888 -0.52449769 1.1885261e-38
2.4949212 -0.69961458 -0.54649335 1.1606179e-38
2.4784608 -0.67930251 -0.53458065 1.5113964e-38
2.4972143 -0.66745716 -0.54699379 1.4552508e-38
2.4936397 -0.65280849 -0.55100834 1.4644686e-38
2.7722559 -1.1724457 -0.58324409 1.2527782e-38
2.7217946 -1.1386502 -0.5752489 1.0128192e-38
2.7406559 -1.1476736 -0.58971387 1.0219325e-38
2.6812992 -1.1206063 -0.55646026 9.026139e-39
2.639087 -1.0931036 -0.54770505 7.4563259e-39
2.6184618 -1.0698783 -0.54342937 5.250109e-39
2.5791805 -1.029725 -0.53528506 4.6076039e-39
2.5988188 -1.0472795 -0.53935724 4.5132376e-39
2.5598497 -1.0039392 -0.5300585 4.8813349e-39
2.5212288 -0.95945984 -0.52327216 5.8036401e-39
2.5398853 -0.97605407 -0.52714074 5.8036429e-39
2.5149944 -0.94417351 -0.51000011 5.8036471e-39
2.4681835 -0.90533894 -0.50475097 4.4243084e-39
2.4863646 -0.92359018 -0.50657243 5.345899e-39
2.468648 -0.88319689 -0.50297123 3.7785929e-39
2.4691126 -0.86105466 -0.50119144 3.592401e-39
2.4858832 -0.85080534 -0.50806612 3.4080111e-39
2.5049417 -0.84236699 -0.51037377 3.4991263e-39
2.5164986 -0.82337433 -0.51790905 3.4083502e-39
2.5188527 -0.7967515 -0.51535934 3.1324864e-39
2.5481043 -0.78589213 -0.52888602 2.5793126e-39
2.5789297 -0.77888471 -0.53528506 2.8533744e-39
2.5605586 -0.76577735 -0.52659529 2.4871156e-39
2.5782764 -0.76200187 -0.53761154 2.6704237e-39
2.5959678 -0.76050985 -0.54873401 2.7636857e-39
2.4861634 -0.72226918 -0.50657243 3.0399222e-39
2.5073056 -0.73704809 -0.50134385 2.854452e-39
2.5592644 -0.73466218 -0.53121293 2.9480881e-39
2.5763462 -0.74029642 -0.54459107 3.0420816e-39
2.4637854 -0.70161635 -0.49734262 5.8897247e-39
2.4861355 -0.69439399 -0.50657243 1.0960451e-38
2.5104175 -0.71161008 -0.52588654 5.0545522e-39
2.485301 -0.67735994 -0.50955993 1.2339806e-38
2.5094295 -0.67509365 -0.51135767 1.2429129e-38
2.7542238 -1.1682031 -0.54017508 9.3898964e-39
2.7723074 -1.1743551 -0.56126243 1.0042115e-38
2.7312136 -1.1488316 -0.54084432 8.8392492e-39
2.6934671 -1.1234711 -0.53851247 8.0087795e-39
2.6275194 -1.084561 -0.5103628 6.0766369e-39
2.6442952 -1.0930984 -0.52866131 6.8138292e-39
2.6098037 -1.0631957 -0.51188189 4.6072634e-39
2.5863099 -1.0335768 -0.50922829 4.0548056e-39
2.609076 -1.0472692 -0.50185001 3.6885399e-39
2.5572705 -1.0036789 -0.50157738 4.2388648e-39
2.5316038 -0.96888077 -0.48536733 3.869341e-39
2.5469861 -0.97604698 -0.50117493 4.3303177e-39
2.5311658 -0.94530308 -0.48688355 5.158998e-39
2.4747503 -0.90164214 -0.48072386 4.5154237e-39
2.4937084 -0.91429102 -0.4796845 5.0671667e-39
2.5149009 -0.92426997 -0.47425413 5.7114641e-39
2.4739764 -0.88249427 -0.47590262 3.8700669e-39
2.4762266 -0.85666537 -0.47516206 3.5009116e-39
2.4930267 -0.84537798 -0.48192513 3.5920352e-39
2.5123475 -0.84001923 -0.48328403 3.4987648e-39
2.5210605 -0.82064712 -0.48409319 3.2246834e-39
2.5279899 -0.79557151 -0.48765925 2.6718698e-39
2.5516462 -0.78532732 -0.49860072 2.1204799e-39
2.4935443 -0.75013703 -0.47968447 2.4874659e-39
2.5322351 -0.77082497 -0.48233497 2.3949256e-39
2.5508578 -0.76850903 -0.50521231 2.3041565e-39
2.4647782 -0.72900248 -0.47106659 3.5887954e-39
2.4910839 -0.74084777 -0.48864713 2.8548093e-39
2.4619827 -0.70394468 -0.47361511 8.8392464e-39
2.4934886 -0.6943866 -0.4796845 1.1601511e-38
2.5121977 -0.69023591 -0.48328403 1.2060711e-38
2.5246561 -0.67955118 -0.48570609 1.169227e-38
2.7406423 -1.1692039 -0.50643969 1.004102e-38
2.7569332 -1.1682005 -0.5302673 8.6516195e-39
2.7165823 -1.1393087 -0.50711942 8.1038604e-39
2.7379405 -1.1556188 -0.51626951 8.5633896e-39
2.6754529 -1.1115699 -0.4944033 6.9071066e-39
2.6932044 -1.1205944 -0.51292664 7.1833264e-39
2.6339784 -1.0845546 -0.48674381 5.2511866e-39
2.6573248 -1.1029569 -0.48105165 6.9056787e-39
2.614219 -1.0618458 -0.48309642 3.9629744e-39
2.59444 -1.0200619 -0.47944903 4.0551742e-39
2.6141994 -1.0424036 -0.48309642 3.5034241e-39
2.5759487 -1.0027263 -0.47118405 4.9735376e-39
2.5391445 -0.96321452 -0.45777264 3.3186839e-39
2.5568089 -0.98316282 -0.46528095 4.3310534e-39
2.5292354 -0.94180721 -0.4579156 4.2374074e-39
2.4865158 -0.90470564 -0.43771237 5.6185258e-39
2.5002413 -0.91118723 -0.45578411 4.9771179e-39
2.5173705 -0.92426747 -0.46522424 5.1618833e-39
2.4740803 -0.87949777 -0.44328767 4.2395668e-39
2.4844387 -0.85550404 -0.44512814 3.5924038e-39
2.4844201 -0.83705258 -0.44512817 3.3150994e-39
2.5009811 -0.83375537 -0.45279655 3.4065636e-39
2.5269959 -0.8218568 -0.45846316 3.408346e-39
2.5033762 -0.7780025 -0.44383392 1.7524204e-39
2.5264313 -0.79305381 -0.45862246 2.4871086e-39
2.4523549 -0.75231397 -0.42559677 3.129625e-39
2.4729321 -0.75446004 -0.44589195 2.8537345e-39
2.4507344 -0.73109728 -0.43144441 8.7463389e-39
2.4635062 -0.73259646 -0.45298508 5.0646304e-39
2.4499197 -0.71594214 -0.43436825 1.1694766e-38
2.4716876 -0.70295489 -0.44395587 1.2061413e-38
2.4474664 -0.66138303 -0.44313976 1.0956478e-38
2.4693015 -0.67998439 -0.44524816 1.1968859e-38
2.7246101 -1.1696199 -0.47787404 1.0415948e-38
2.7228792 -1.1522963 -0.48414087 9.1158305e-39
2.6651466 -1.1128206 -0.45248586 8.2864313e-39
2.6807015 -1.1115646 -0.47521079 6.8113363e-39
2.7037966 -1.1306132 -0.47423011 8.2885837e-39
2.6423774 -1.0869946 -0.45603913 5.5259757e-39
2.6625326 -1.1029516 -0.46200779 6.8141977e-39
2.6219118 -1.0618382 -0.45496601 3.871492e-39
2.6037748 -1.0232685 -0.44532704 3.9597472e-39
2.6210358 -1.0407766 -0.45809165 3.8686207e-39
2.5781808 -1.0001553 -0.43773943 4.4210826e-39
2.5461159 -0.96886617 -0.43230057 4.1470041e-39
2.5624502 -0.98553246 -0.44466105 4.9782025e-39
2.5280886 -0.94141954 -0.42609474 3.6856574e-39
2.510251 -0.91272581 -0.41918656 4.7916462e-39
2.5272479 -0.92425758 -0.42910463 4.5121881e-39
2.4859822 -0.87967306 -0.41398278 4.6987471e-39
2.4850161 -0.85275841 -0.41267869 3.684598e-39
2.5095687 -0.8430385 -0.42142728 3.5898758e-39
2.5296333 -0.84000194 -0.42007473 3.5909282e-39
2.4953713 -0.83704162 -0.40508297 3.1321109e-39
2.5071084 -0.83374923 -0.43038994 3.7735286e-39
2.5396981 -0.82538277 -0.43123525 3.0395747e-39
2.4595783 -0.77958751 -0.39928222 2.9448483e-39
2.4916701 -0.78630406 -0.41843137 2.854445e-39
2.508292 -0.79193521 -0.4259086 3.038839e-39
2.524657 -0.8025611 -0.43813452 3.3136295e-39
2.457761 -0.76140219 -0.40586087 4.6000565e-39
2.4738138 -0.77151459 -0.41543543 3.2192814e-39
2.4476109 -0.73448384 -0.40565687 1.1325643e-38
2.4571159 -0.71593493 -0.40805376 1.3074846e-38
2.4746106 -0.70543355 -0.41227996 1.2798974e-38
2.7104509 -1.170724 -0.45004475 1.1427579e-38
2.6922882 -1.1513476 -0.43298724 1.0866838e-38
2.7100501 -1.1478002 -0.45142683 9.8537654e-39
2.6703544 -1.1128155 -0.43344194 8.1049155e-39
2.6938429 -1.1314489 -0.42722943 9.3938551e-39
2.6438713 -1.0898354 -0.43163213 6.078076e-39
2.6135607 -1.0538099 -0.40965402 3.8714962e-39
2.6291819 -1.0666915 -0.4283984 4.1473544e-39
2.5936468 -1.0218573 -0.40653759 3.0435292e-39
2.6103556 -1.0296938 -0.42128652 3.6853015e-39
2.6270258 -1.0472513 -0.43621245 3.5949107e-39
2.5880237 -1.0031812 -0.40807608 3.6860357e-39
2.5530818 -0.96885926 -0.40682855 4.7916434e-39
2.5737281 -0.9855212 -0.40342116 4.7912833e-39
2.5394535 -0.94339776 -0.39764008 3.6871021e-39
2.5177257 -0.91178918 -0.39185056 4.4224923e-39
2.5395949 -0.92424524 -0.38395512 3.2264911e-39
2.4903352 -0.8796742 -0.38574463 4.9771235e-39
2.486326 -0.8507095 -0.38513544 3.6860343e-39
2.5358067 -0.83999574 -0.39749995 3.2221709e-39
2.5002315 -0.83011746 -0.38728511 3.1306857e-39
2.520575 -0.81979811 -0.38109535 2.8551764e-39
2.5416117 -0.82935214 -0.40504554 3.0402852e-39
2.4584093 -0.78676665 -0.38083613 2.5792986e-39
2.4173288 -0.75431603 -0.35655373 1.0497686e-38
2.4333308 -0.76139587 -0.36251128 8.7466976e-39
2.4457798 -0.76618278 -0.38145432 6.074825e-39
2.4547832 -0.73685628 -0.37766671 1.2890811e-38
2.4846361 -0.72112578 -0.37567696 1.3259616e-38
2.4631126 -0.71592897 -0.386125 1.3440773e-38
2.4851909 -0.70823348 -0.38497436 1.2705338e-38
2.6585915 -1.1530915 -0.39699167 1.1705594e-38
2.6782057 -1.1522939 -0.4048762 1.1329268e-38
2.6964867 -1.1513435 -0.41763315 1.1051223e-38
2.6598537 -1.1237067 -0.39226788 1.0038165e-38
2.6773078 -1.1226799 -0.40805015 9.3013217e-39
2.6964672 -1.1314462 -0.41763321 9.4839067e-39
2.653774 -1.096603 -0.39923808 6.9982373e-39
2.5974636 -1.0505763 -0.39268479 4.0551349e-39
2.6204309 -1.0528382 -0.3845278 4.5150523e-39
2.6373119 -1.0764045 -0.39870524 4.6991353e-39
2.5999701 -1.0314252 -0.38344955 4.2395654e-39
2.5866585 -1.0071034 -0.38148993 3.3161728e-39
2.5610411 -0.96727943 -0.37771767 4.5154265e-39
2.5812466 -0.98551363 -0.37592795 3.777151e-39
2.5280442 -0.93593758 -0.35420743 3.780025e-39
2.543313 -0.9382838 -0.37041026 3.6870951e-39
2.5263884 -0.91425836 -0.36018249 3.6871119e-39
2.5445313 -0.92189997 -0.3658953 3.4105068e-39
2.4954004 -0.87774354 -0.35549778 5.0675226e-39
2.4908049 -0.84935451 -0.35358891 3.7789418e-39
2.4764059 -0.81594503 -0.33788174 2.4867555e-39
2.5018089 -0.82684565 -0.35876021 2.8558911e-39
2.5230308 -0.82444155 -0.37213272 2.7619032e-39
2.4661949 -0.79939198 -0.34104025 3.4051328e-39
2.4895511 -0.80355763 -0.35800651 2.8537317e-39
2.4232042 -0.75876153 -0.33508515 1.2523474e-38
2.4390094 -0.76457775 -0.34175703 1.0217876e-38
2.4651444 -0.74077821 -0.34845799 1.3809152e-38
2.4935563 -0.73133337 -0.3567431 1.3903518e-38
2.5241585 -0.72687703 -0.3676514 1.3348542e-38
2.5822527 -0.73848861 -0.37134573 1.2522014e-38
2.7083163 -1.1712289 -0.37445006 1.1612686e-38
2.6650472 -1.14982 -0.3733727 1.1237101e-38
2.6834133 -1.1522887 -0.38583231 1.1238143e-38
2.665343 -1.1224768 -0.37219182 9.9437905e-39
2.6487961 -1.0920113 -0.36624503 6.4482767e-39
2.6275578 -1.0537958 -0.35847104 4.1476977e-39
2.6471384 -1.0731542 -0.36276084 3.5938317e-39
2.6071274 -1.0330138 -0.35728317 4.5150691e-39
2.5975254 -1.007174 -0.35438922 3.2257596e-39
2.5689962 -0.96129835 -0.34860677 4.4232168e-39
2.5880096 -0.98170656 -0.35118404 3.6845938e-39
2.5519607 -0.94295585 -0.33880562 4.0562378e-39
2.5329273 -0.9173491 -0.33628207 3.4094432e-39
2.5519419 -0.92423284 -0.33880562 3.0406453e-39
2.5060155 -0.88029706 -0.32537621 4.6083368e-39
2.4992614 -0.84934604 -0.32266569 3.7796621e-39
2.4812033 -0.81594026 -0.32033876 2.4853345e-39
2.499243 -0.83102685 -0.32266566 2.7633452e-39
2.4477026 -0.78648388 -0.31004912 1.0862546e-38
2.4631615 -0.79872888 -0.31801182 5.7985857e-39
2.4319012 -0.76676536 -0.30331168 1.408648e-38
2.4461029 -0.76343226 -0.31581423 1.3258157e-38
2.4733241 -0.75406551 -0.31480542 1.4177581e-38
2.5015767 -0.74858767 -0.31383044 1.4268692e-38
2.5872746 -0.74798459 -0.35301691 1.3259197e-38
2.6259813 -0.74989444 -0.36312401 1.1878426e-38
2.6498122 -0.75559539 -0.35182127 9.9466393e-39
2.4735301 -0.74440289 -0.3253895 1.4085384e-38
2.505167 -0.74120802 -0.32342011 1.38113e-38
2.5315256 -0.74080729 -0.34076345 1.3718776e-38
2.5660121 -0.74346095 -0.34071496 1.28897e-38
2.6272442 -0.74024552 -0.35847101 7.0893819e-39
2.6446743 -0.74587947 -0.37057486 9.213791e-39
2.6727912 -1.1432827 -0.34502992 1.1605499e-38
2.6680813 -1.124037 -0.3432292 1.0682809e-38
2.6377614 -1.0779048 -0.32124698 3.9594038e-39
2.6549618 -1.0970441 -0.33423975 7.1837005e-39
2.6364672 -1.0561988 -0.32590002 4.3295807e-39
2.6542282 -1.0686108 -0.3368184 3.6878028e-39
2.6144848 -1.0242299 -0.33034712 4.5164914e-39
2.6364503 -1.0393153 -0.32590002 4.4246574e-39
2.5988023 -1.0007108 -0.32126459 3.4094474e-39
2.5778332 -0.96647674 -0.3163119 3.9608121e-39
2.59553 -0.98359919 -0.3236908 3.224689e-39
2.5402992 -0.9359253 -0.30939421 4.6079962e-39
2.559371 -0.94482082 -0.31171587 4.5147062e-39
2.527077 -0.90620267 -0.28939682 3.2253953e-39
2.5409794 -0.91601366 -0.30683339 3.5019822e-39
2.5568807 -0.92422795 -0.3207458 3.4079845e-39
2.4860554 -0.87049687 -0.30279577 5.4334283e-39
2.5106463 -0.88359082 -0.29480743 4.4210826e-39
2.4884403 -0.85685408 -0.29402426 4.7931008e-39
2.5065053 -0.84475893 -0.29616001 3.6863917e-39
2.4760234 -0.81148672 -0.28808448 4.7769074e-39
2.5064914 -0.83101958 -0.29616001 2.6700747e-39
2.4544075 -0.79095972 -0.28554758 1.242947e-38
2.4726861 -0.79796702 -0.28318068 1.1691179e-38
2.4378927 -0.76987529 -0.2814137 1.4914803e-38
2.4560349 -0.76316619 -0.27949426 1.4546742e-38
2.4792991 -0.75405961 -0.29295629 1.4268338e-38
2.5064089 -0.74858284 -0.29616001 1.3717311e-38
2.5413389 -0.75008929 -0.30491287 1.3164861e-38
2.5794845 -0.75191534 -0.30948898 1.1328886e-38
2.6173711 -0.75375271 -0.31880313 7.6481777e-39
2.6348884 -0.74988556 -0.33055303 5.7100054e-39
2.5269156 -0.74475318 -0.28939682 1.2890057e-38
2.5662234 -0.74442393 -0.3219403 1.114445e-38
2.6792505 -1.1432762 -0.32141095 1.2250143e-38
2.6454444 -1.1261358 -0.29332897 5.9909405e-39
2.6673806 -1.124678 -0.30788356 8.9321651e-39
2.6415787 -1.077901 -0.30728799 3.9608178e-39
2.6633432 -1.098598 -0.30359772 4.328873e-39
2.6201935 -1.0505536 -0.30956793 3.3201007e-39
2.6432595 -1.0618199 -0.30108398 3.6863749e-39
2.6222806 -1.0329987 -0.30187196 4.237748e-39
2.5884275 -0.98768634 -0.2776489 3.5023605e-39
2.6043584 -1.0044924 -0.29148439 4.1462852e-39
2.5859253 -0.97354198 -0.28674603 3.4990969e-39
2.5488777 -0.93591672 -0.27802488 4.7916378e-39
2.5667865 -0.95230252 -0.28462616 4.421419e-39
2.5319488 -0.91081071 -0.27159896 3.5941722e-39
2.545192 -0.92662859 -0.29146886 3.5048717e-39
2.5137904 -0.88139027 -0.26965436 4.2384724e-39
2.4956365 -0.85684687 -0.26770973 5.067894e-39
2.5131519 -0.84704226 -0.27186316 4.1466313e-39
2.4899337 -0.82237554 -0.25810939 4.9673971e-39
2.5113239 -0.83101475 -0.27848956 2.7633269e-39
2.4798286 -0.79645538 -0.25705731 1.4548176e-38
2.4628739 -0.76527834 -0.25449482 1.4637835e-38
2.4959347 -0.75530165 -0.26624781 1.3623328e-38
2.5148656 -0.74857438 -0.26523674 1.3166633e-38
2.6224222 -0.75374764 -0.30033267 4.7880098e-39
2.6399832 -0.75470436 -0.311941 5.5252232e-39
2.4501975 -0.74538046 -0.23632966 9.5775149e-39
2.4979155 -0.73711246 -0.25893822 1.021963e-38
2.5191634 -0.73438716 -0.26896605 8.656639e-39
2.5498941 -0.72685134 -0.27354357 4.141951e-39
2.576133 -0.73500037 -0.28566933 5.8918645e-39
2.6136057 -0.73656923 -0.29459929 4.5096433e-39
2.6416619 -0.73701519 -0.30573699 6.531476e-39
2.5251083 -0.70988894 -0.26175964 3.3111155e-39
2.5510917 -0.69897491 -0.26906225 1.4371336e-38
2.5773394 -0.71154314 -0.28117117 1.1329944e-38
2.6530695 -1.1164805 -0.26541096 3.593494e-39
2.6694138 -1.1249779 -0.28149527 4.422512e-39
2.65306 -1.1068327 -0.26541096 3.0428299e-39
2.6706667 -1.0958133 -0.27680683 3.408367e-39
2.6504667 -1.0585968 -0.27471697 3.7782258e-39
2.6290042 -1.0218219 -0.27724466 4.0540658e-39
2.6504474 -1.0393013 -0.27471697 3.4105236e-39
2.5934031 -0.98768133 -0.25945458 4.3295863e-39
2.6130981 -1.0082841 -0.2595399 4.3295961e-39
2.5850315 -0.96994334 -0.25398901 3.4079929e-39
2.5574586 -0.93823105 -0.24665566 4.606906e-39
2.5750179 -0.95229423 -0.2545265 4.4217805e-39
2.5392509 -0.9121213 -0.24490218 3.6871133e-39
2.5549867 -0.91732699 -0.2556183 3.3179763e-39
2.5237377 -0.88081628 -0.23852609 4.5136272e-39
2.5061829 -0.84865206 -0.22911511 4.6065459e-39
2.5204098 -0.85619467 -0.24535747 5.158998e-39
2.4951396 -0.82419264 -0.23041409 3.8686165e-39
2.4716229 -0.79542512 -0.22261216 5.066431e-39
2.484591 -0.79645056 -0.23964176 7.6310062e-39
2.4546196 -0.76429433 -0.22022828 4.3292219e-39
2.4701431 -0.76106018 -0.22789685 7.64285e-39
2.4541056 -0.73944139 -0.2220173 4.5136258e-39
2.4709077 -0.7371524 -0.2250143 5.6185202e-39
2.4969618 -0.72919101 -0.2331526 5.2490146e-39
2.5184715 -0.73025155 -0.25198391 5.9826168e-39
2.5046072 -0.71224993 -0.23437804 3.3157917e-39
2.5244927 -0.70480168 -0.23962177 3.0406439e-39
2.5547731 -0.70361704 -0.2556183 1.0112681e-39
2.5714726 -0.69953811 -0.26656637 1.7230404e-38
2.5208418 -0.68445104 -0.24314868 1.9292727e-39
2.618963 -1.1089879 -0.23846173 8.3941519e-39
2.6783864 -1.1225387 -0.24867646 3.7785859e-39
2.642957 -1.0840411 -0.22645104 4.1433859e-39
2.6590896 -1.092355 -0.24330921 3.5012815e-39
2.6757953 -1.0958081 -0.25805327 3.4087202e-39
2.6414139 -1.0562768 -0.23199216 4.0544441e-39
2.657253 -1.0585899 -0.24990097 3.9629477e-39
2.677058 -1.0763646 -0.25336486 3.9626072e-39
2.6302559 -1.0322067 -0.23479465 4.054807e-39
2.6555371 -1.0392963 -0.25610498 3.7760551e-39
2.6033542 -0.98767138 -0.22306599 3.8693186e-39
2.6197994 -1.0056646 -0.23502511 3.7782202e-39
2.5874422 -0.96683824 -0.22355264 3.0431606e-39
2.5514359 -0.92924255 -0.20040755 4.7919979e-39
2.5660348 -0.93589956 -0.21528639 4.7902001e-39
2.5834527 -0.94994551 -0.22367433 4.4221378e-39
2.5482924 -0.91474813 -0.21184905 4.3324617e-39
2.5623488 -0.92661142 -0.22873037 4.9767563e-39
2.5108452 -0.87350327 -0.21215692 4.2359781e-39
2.5312409 -0.88188171 -0.20584445 4.2363284e-39
2.5128975 -0.84682673 -0.20455499 4.1477299e-39
2.5282643 -0.8584767 -0.21664307 5.6181881e-39
2.4996004 -0.82278055 -0.20191191 4.1437699e-39
2.4792418 -0.79429686 -0.19474767 4.8827628e-39
2.4619589 -0.76465797 -0.19339259 4.237748e-39
2.4792056 -0.75806278 -0.19474761 4.1459181e-39
2.5033953 -0.73604047 -0.20215316 4.2399004e-39
2.5329595 -0.72107744 -0.19897261 4.791635e-39
2.5110874 -0.71588099 -0.21069501 4.6065361e-39
2.538635 -0.70499837 -0.20848809 5.0653548e-39
2.6835175 -1.1249638 -0.22992288 5.7175514e-39
2.6473768 -1.0840367 -0.21028942 3.4097964e-39
2.6664157 -1.1019956 -0.21655446 3.5931254e-39
2.6310635 -1.0580785 -0.20666368 4.0537365e-39
2.6294348 -1.0318552 -0.20746925 4.0551658e-39
2.6105134 -0.99473763 -0.19691165 3.4101509e-39
2.6276367 -1.0108031 -0.20638627 3.5956226e-39
2.6018181 -0.97112203 -0.1977534 3.5938233e-39
2.5563068 -0.93292791 -0.18260969 4.8805936e-39
2.5721717 -0.94518518 -0.19287977 4.3288604e-39
2.5461674 -0.90967667 -0.18060946 4.7923693e-39
2.541374 -0.88264418 -0.18244086 3.9618968e-39
2.5211151 -0.84886456 -0.17451261 4.2391913e-39
2.5355129 -0.85846949 -0.19013742 4.8831286e-39
2.4887204 -0.81333822 -0.16015722 4.2366844e-39
2.5089743 -0.82202381 -0.17331789 4.0526462e-39
2.4839637 -0.78644764 -0.17745243 4.7923623e-39
2.5040371 -0.79492658 -0.16852817 4.5139915e-39
2.4666541 -0.76316947 -0.17621765 4.3292219e-39
2.4859703 -0.7659539 -0.17004022 4.5139719e-39
2.5243258 -0.76133555 -0.16245176 4.422128e-39
2.4689846 -0.74536169 -0.16763021 4.3313673e-39
2.4851012 -0.74162078 -0.17312863 4.4225106e-39
2.5152013 -0.73244566 -0.17524232 4.6061605e-39
2.5377917 -0.72107261 -0.1813022 4.7894994e-39
2.5461254 -0.70834136 -0.1849011 4.8802363e-39
2.6568427 -1.07924 -0.17565744 3.8689767e-39
2.6734123 -1.0999211 -0.19096296 3.9622541e-39
2.6487772 -1.062171 -0.17981437 4.3274353e-39
2.6354918 -1.0341517 -0.17774743 4.4235854e-39
2.6182809 -0.98765647 -0.16848306 3.4094334e-39
2.6356556 -1.0101618 -0.17706016 4.2373962e-39
2.6085849 -0.96992862 -0.16786031 3.5956212e-39
2.5619845 -0.93230724 -0.16184555 4.5121797e-39
2.5831966 -0.94052833 -0.15254787 4.4214176e-39
2.5595088 -0.90932256 -0.15565068 5.0678814e-39
2.5451958 -0.87677902 -0.15479656 4.1469999e-39
2.5255349 -0.85102832 -0.14471097 4.6072648e-39
2.5110276 -0.8222757 -0.14306447 4.328873e-39
2.4957924 -0.79091835 -0.13421434 4.5139831e-39
2.5122504 -0.78984678 -0.14984742 4.3313855e-39
2.4969614 -0.77746946 -0.12989055 4.0533539e-39
2.5226586 -0.76259035 -0.14374016 4.2381095e-39
2.5261328 -0.73587745 -0.14600228 4.4228637e-39
2.5560606 -0.72784919 -0.15546641 4.3313841e-39
2.5817528 -0.72217357 -0.15702914 4.7909105e-39
2.5998893 -0.71823251 -0.16272253 4.8748315e-39
2.5768414 -0.71288675 -0.17495449 4.3331904e-39
2.5974107 -0.70887351 -0.17175241 8.6498062e-39
2.6533723 -1.0878012 -0.15046898 5.5339098e-39
2.6800222 -1.0932989 -0.16676737 4.3303135e-39
2.650367 -1.0610249 -0.14872304 4.0558636e-39
2.6423404 -1.0356718 -0.15270905 4.6998121e-39
2.6254857 -1.0054637 -0.14220236 4.5139929e-39
2.6426673 -1.0044541 -0.15139987 4.5125636e-39
2.6251011 -0.96642941 -0.14346583 3.8707675e-39
2.6451495 -0.9806993 -0.14223538 3.9622597e-39
2.5917704 -0.93587387 -0.12117857 4.7905742e-39
2.6062908 -0.94602209 -0.14014773 4.4225008e-39
2.561058 -0.91099852 -0.12616301 5.1607903e-39
2.5536592 -0.88331324 -0.12387323 4.976399e-39
2.5370126 -0.85453212 -0.11640137 4.8831412e-39
2.5029273 -0.8312543 -0.10827152 5.1554345e-39
2.524441 -0.82443607 -0.11883758 3.9600863e-39
2.5221903 -0.7928791 -0.11351183 4.1473362e-39
2.5572035 -0.80348998 -0.11062045 4.2388186e-39
2.5005085 -0.77746594 -0.11691913 4.1477075e-39
2.5231385 -0.76550233 -0.11718195 4.0533665e-39
2.5319903 -0.74063337 -0.11729038 4.1462684e-39
2.5608754 -0.72852004 -0.12616307 4.6058242e-39
2.6502619 -1.0804539 -0.12390655 5.8044109e-39
2.6525204 -1.0623549 -0.12400493 4.1459209e-39
2.6513293 -1.0340039 -0.11983348 4.8827572e-39
2.6329436 -1.0002167 -0.11491085 4.5139873e-39
2.64767 -0.99494815 -0.13307098 3.780388e-39
2.6290438 -0.97208083 -0.1084899 4.1459195e-39
2.6496599 -0.97974467 -0.12573946 3.8693494e-39
2.6205573 -0.94804031 -0.10239054 4.5146824e-39
2.5802133 -0.90922475 -0.095103517 5.3430502e-39
2.5978885 -0.9265759 -0.098771952 5.0678744e-39
2.567054 -0.88513047 -0.094394721 5.6189014e-39
2.5439508 -0.85355091 -0.091026649 4.792728e-39
2.5596745 -0.85844529 -0.10178524 5.0678884e-39
2.5076571 -0.83124959 -0.090976313 5.1590246e-39
2.5432796 -0.82497168 -0.093376175 3.8689837e-39
2.5644794 -0.83096159 -0.084114827 3.8689682e-39
2.5393755 -0.79282087 -0.088924639 4.0547986e-39
2.5428317 -0.76261616 -0.094785802 4.3310296e-39
2.5637999 -0.75539517 -0.086323611 4.5150621e-39
2.5410991 -0.7431317 -0.10105123 4.2391927e-39
2.5712144 -0.73743176 -0.093264036 4.6068892e-39
2.6757843 -1.079221 -0.10639332 3.5938261e-39
2.699358 -1.0874908 -0.096041724 5.810159e-39
2.7193878 -1.0957645 -0.098647736 3.6820995e-39
2.6779273 -1.0573347 -0.098477438 4.4243098e-39
2.6602345 -1.0281888 -0.087248944 4.332103e-39
2.6402657 -0.99706572 -0.088124834 4.606899e-39
2.6627214 -1.0091845 -0.078084528 4.9739019e-39
2.6357794 -0.97076666 -0.083855294 3.9626086e-39
2.6052508 -0.93586034 -0.071883991 4.1444887e-39
2.622963 -0.94990599 -0.079195879 3.9625946e-39
2.5871084 -0.90921783 -0.069889888 4.6983842e-39
2.6040115 -0.92192388 -0.076365381 4.974248e-39
2.5775979 -0.87958705 -0.066650242 5.4352178e-39
2.5696332 -0.85042065 -0.065339901 5.0671569e-39
2.548377 -0.82496667 -0.074736707 4.1459251e-39
2.5699942 -0.82310498 -0.063919924 4.1455593e-39
2.548722 -0.78787369 -0.064808853 4.0540714e-39
2.5704923 -0.80347669 -0.06202672 3.961524e-39
2.5507152 -0.7643404 -0.065965258 4.3292359e-39
2.5692353 -0.75462651 -0.066444352 4.3310142e-39
2.5861297 -0.74161875 -0.07285621 4.6068948e-39
2.7039289 -1.0778387 -0.079290919 5.0650634e-39
2.684602 -1.0576699 -0.074070096 5.6239278e-39
2.7064643 -1.0681885 -0.069984898 4.0606014e-39
2.672946 -1.0292593 -0.066042691 4.4228665e-39
2.6481345 -0.98762661 -0.059317164 5.0660891e-39
2.6677318 -1.0071435 -0.059755698 5.157926e-39
2.6486187 -0.97442245 -0.057497725 4.2402815e-39
2.6313372 -0.94555116 -0.048558772 3.777137e-39
2.5927885 -0.91074985 -0.049125683 4.6994534e-39
2.6105397 -0.9141742 -0.05246491 5.0653632e-39
2.6334276 -0.91947067 -0.040818814 4.79057e-39
2.5887239 -0.87920153 -0.046812989 5.4334395e-39
2.6154077 -0.88009971 -0.034539681 5.4337842e-39
2.59254 -0.85348308 -0.041295081 5.43415e-39
2.5868835 -0.82508963 -0.040077519 4.3303135e-39
2.5819108 -0.79313493 -0.042979795 4.1441258e-39
2.5746839 -0.76683396 -0.046565093 4.2388256e-39
2.6543539 -0.98762035 -0.036574207 5.6250587e-39
2.6727414 -1.004424 -0.041426864 5.4331382e-39
2.6561995 -0.96757728 -0.029751388 4.8845845e-39
2.6471634 -0.93917203 -0.021532094 3.6878224e-39
2.6448054 -0.91497445 -0.026208827 4.328859e-39
2.677659 -0.90940994 -0.023098033 4.8813125e-39
2.6186664 -0.87080467 -0.022589471 5.3426802e-39
2.6399705 -0.87733746 -0.016739072 4.9735291e-39
2.6186526 -0.85686702 -0.022589471 5.0678688e-39
2.6450648 -0.84847641 -0.016012058 4.5143433e-39
2.6000154 -0.83693695 -0.022428893 4.7913015e-39
2.6517718 -0.82575864 -0.027417786 4.9756479e-39
