# .PCD v0.7 - Point Cloud Data file format
VERSION 0.7
FIELDS x y z rgb
SIZE 4 4 4 4
TYPE F F F F
COUNT 1 1 1 1
WIDTH 1025
HEIGHT 1
VIEWPOINT 0 0 0 1 0 0 0
POINTS 1025
DATA ascii
6.9886017 -5.5751643 -1.0847731 3.6878252e-40
6.9885092 -5.5471439 -1.1036642 3.6878252e-40
6.9772797 -5.578496 -1.0847731 2.7658689e-40
6.9569244 -5.55585 -1.1007402 3.6878252e-40
6.9310555 -5.4984789 -1.110181 2.7658689e-40
6.9034224 -5.4747992 -1.1209171 2.7658689e-40
7.235486 -5.7026615 -1.04008 5.5317378e-40
7.233511 -5.6731367 -1.0329189 4.6097815e-40
7.2236719 -5.7017593 -1.0183239 7.3756504e-40
7.2099795 -5.6802826 -1.0340164 4.6097815e-40
7.181159 -5.7142706 -1.0183239 7.3756504e-40
7.1871428 -5.68715 -1.0347481 8.2976067e-40
7.1609788 -5.6939292 -1.0301751 4.6097815e-40
7.1414905 -5.673172 -1.0409675 3.6878252e-40
7.1035647 -5.5688353 -1.0631742 4.6097815e-40
7.1218252 -5.6502419 -1.045983 4.6097815e-40
7.1058621 -5.5969992 -1.0534968 6.4536941e-40
7.0888186 -5.573945 -1.0670009 5.5317378e-40
7.0898662 -5.5430317 -1.0731852 3.1346514e-39
7.0439472 -5.5542126 -1.0615975 5.5317378e-40
7.0359602 -5.5290604 -1.0831963 4.6097815e-40
7.0326257 -5.5575447 -1.0615975 4.6097815e-40
7.0114527 -5.53439 -1.0738395 3.6878252e-40
6.991323 -5.5704765 -1.0654601 2.7658689e-40
6.9838996 -5.5420275 -1.0715004 3.6878252e-40
6.9763327 -5.5752764 -1.0673913 3.6878252e-40
6.9553308 -5.5504346 -1.0715004 3.6878252e-40
6.9338779 -5.5247078 -1.0758296 2.7658689e-40
6.9181066 -5.4974904 -1.0863352 2.7658689e-40
6.8959012 -5.4709558 -1.0908215 2.7658689e-40
6.8776021 -5.473917 -1.0787834 2.7658689e-40
6.8736825 -5.4456234 -1.1012694 2.7658689e-40
7.2331142 -5.694602 -0.99656796 1.4751301e-39
7.2185478 -5.6974287 -0.98931593 8.2976067e-40
7.2145419 -5.6746693 -1.0127975 5.5317378e-40
7.1906013 -5.7071123 -0.99656796 5.5317378e-40
7.1637344 -5.7139249 -0.99112892 5.5317378e-40
7.1529021 -5.6922197 -1.0098708 4.6097815e-40
7.1332493 -5.6691346 -1.008857 4.6097815e-40
7.1199985 -5.6440334 -1.0124626 6.4536941e-40
7.1062374 -5.6179276 -1.0103301 4.6097815e-40
7.1046224 -5.5927858 -1.0307463 4.6097815e-40
7.0886025 -5.5387392 -1.0500096 6.4536941e-40
7.0280151 -5.52316 -1.0422605 4.6097815e-40
7.0181537 -5.5571389 -1.0384218 5.5317378e-40
6.9929943 -5.5650091 -1.0407394 2.7658689e-40
6.9745812 -5.5384922 -1.0403112 2.7658689e-40
6.9537373 -5.5450187 -1.0422605 2.7658689e-40
6.9322691 -5.5192404 -1.0463105 2.7658689e-40
6.9200888 -5.5204482 -1.034503 2.7658689e-40
6.9106574 -5.4936838 -1.0565279 2.7658689e-40
6.8870339 -5.4994354 -1.0505664 1.8439126e-40
7.2329969 -5.7161713 -0.96641678 7.3756504e-40
7.2156897 -5.6942563 -0.96937299 3.6878252e-40
7.2188988 -5.6630788 -0.96157956 4.6097815e-40
7.1891189 -5.7020755 -0.96937299 3.6878252e-40
7.1594191 -5.7110348 -0.97046077 4.6097815e-40
7.144135 -5.6861849 -0.96706718 3.6878252e-40
7.1323442 -5.6660585 -0.99224812 4.6097815e-40
7.1252198 -5.6911993 -0.96432334 4.6097815e-40
7.1187801 -5.6398945 -0.9901157 4.6097815e-40
7.1056228 -5.615839 -0.99905574 4.6097815e-40
7.0267401 -5.518827 -1.0188688 3.6878252e-40
7.0128002 -5.5528836 -1.0094522 2.7658689e-40
6.9901571 -5.5595474 -1.0094522 2.7658689e-40
6.9675136 -5.5662107 -1.0094522 2.7658689e-40
6.9464297 -5.5412846 -1.0130209 2.7658689e-40
6.9346833 -5.5435638 -1.0071728 2.7658689e-40
6.9133549 -5.5188656 -1.0167915 2.7658689e-40
6.8829846 -5.4964285 -1.0297014 2.7658689e-40
6.8746495 -5.4638834 -1.0246114 2.7658689e-40
6.8581648 -5.4367371 -1.034425 2.7658689e-40
7.2301497 -5.6845274 -0.94217801 4.6097815e-40
7.209486 -5.6927977 -0.95305598 4.6097815e-40
7.2126398 -5.6616073 -0.94511658 4.6097815e-40
7.1876364 -5.6970387 -0.94217801 4.6097815e-40
7.1570063 -5.7057791 -0.94081825 3.6878252e-40
7.1288848 -5.7132339 -0.93673903 4.6097815e-40
7.1129422 -5.7179251 -0.93673903 4.6097815e-40
7.1000452 -5.6947422 -0.94511658 4.6097815e-40
7.0168824 -5.5458522 -0.98048264 4.6097815e-40
6.9885778 -5.5541816 -0.98048264 2.7658689e-40
6.963418 -5.5612526 -0.97882724 2.7658689e-40
6.9451547 -5.5369515 -0.98962897 2.7658689e-40
6.9369984 -5.567028 -0.96889484 2.7658689e-40
6.9219809 -5.542594 -0.98378098 2.7658689e-40
6.9066215 -5.5172825 -0.99908006 2.7658689e-40
6.8883514 -5.519094 -0.98136866 2.7658689e-40
6.8782849 -5.4912119 -0.99691331 1.8439126e-40
6.8619032 -5.4640002 -1.006554 2.7658689e-40
7.2315183 -5.6760974 -0.90229195 4.6097815e-40
7.2300577 -5.7061834 -0.9124952 4.6097815e-40
7.2124286 -5.6831751 -0.90954399 3.6878252e-40
7.1858578 -5.6909943 -0.90954399 2.7658689e-40
7.1539731 -5.7003775 -0.90954399 2.7658689e-40
7.1274023 -5.7081966 -0.90954399 4.6097815e-40
7.100832 -5.7160158 -0.90954399 7.3756504e-40
7.0789824 -5.7202559 -0.89866596 5.5317378e-40
7.0300102 -5.5673771 -0.94837695 7.3756504e-40
7.0134931 -5.5395613 -0.94427067 4.6097815e-40
6.9866829 -5.5477428 -0.94571918 3.6878252e-40
6.9583788 -5.5560722 -0.94571918 2.7658689e-40
6.9357347 -5.5627356 -0.94571924 2.7658689e-40
6.9146738 -5.5388594 -0.95454121 2.7658689e-40
6.8928342 -5.544816 -0.95220196 2.7658689e-40
6.8697591 -5.5198126 -0.95775342 1.8439126e-40
6.8533621 -5.4925475 -0.96710598 2.7658689e-40
7.2305298 -5.672739 -0.88416201 5.5317378e-40
7.2109461 -5.6781378 -0.88234901 3.6878252e-40
7.1911216 -5.7100449 -0.87475014 3.6878252e-40
7.1737471 -5.6890845 -0.88234901 1.8439126e-40
7.1524906 -5.6953402 -0.88234901 3.6878252e-40
7.1259198 -5.7031593 -0.88234901 4.6097815e-40
7.0993495 -5.7109785 -0.88234901 5.5317378e-40
7.0396624 -5.5587602 -0.91967762 5.5317378e-40
7.0804863 -5.7426033 -0.87475008 4.6097815e-40
7.0671682 -5.7193546 -0.87691003 3.6878252e-40
7.0416117 -5.5838556 -0.89424354 3.6878252e-40
7.0275073 -5.5588713 -0.90245801 3.6878252e-40
7.0112071 -5.5349283 -0.91790843 5.5317378e-40
6.9851041 -5.5423765 -0.91674966 3.6878252e-40
6.9567995 -5.5507064 -0.9167496 2.7658689e-40
6.9302769 -5.5581226 -0.91481835 2.7658689e-40
6.9133987 -5.5345268 -0.93114936 2.7658689e-40
6.8998747 -5.5662918 -0.91095579 2.7658689e-40
6.8905439 -5.5412531 -0.93114936 2.7658689e-40
6.8659096 -5.5762873 -0.91095573 2.7658689e-40
6.8730841 -5.5452137 -0.92530137 2.7658689e-40
6.852387 -5.4892349 -0.94922161 2.7658689e-40
7.2254062 -5.6684089 -0.85515398 3.6878252e-40
7.2242379 -5.6416273 -0.86280197 4.6097815e-40
7.2094636 -5.6731005 -0.85515398 4.6097815e-40
7.1843839 -5.7066021 -0.84778929 1.8439126e-40
7.1828933 -5.6809196 -0.85515398 2.7658689e-40
7.1524796 -5.7149053 -0.84239715 2.7658689e-40
7.1554966 -5.6898575 -0.85950524 2.7658689e-40
7.1334548 -5.7202873 -0.84131873 3.6878252e-40
7.1230617 -5.6999865 -0.86240602 4.6097815e-40
7.1047707 -5.7278605 -0.83700502 6.4536941e-40
7.096518 -5.706964 -0.858262 7.3756504e-40
7.070395 -5.7641163 -0.82973397 5.5317378e-40
7.0724778 -5.713851 -0.85732961 5.5317378e-40
7.0351243 -5.5823307 -0.87718064 6.4536941e-40
7.0189872 -5.5575285 -0.8833251 8.2976067e-40
7.0005074 -5.5320129 -0.88778013 3.6878252e-40
6.9835248 -5.5370111 -0.88778001 3.6878252e-40
6.9666452 -5.5729313 -0.8833251 2.7658689e-40
6.955852 -5.5474868 -0.89936793 2.7658689e-40
6.9424477 -5.5804377 -0.88523841 2.7658689e-40
6.9215708 -5.5564089 -0.893574 2.7658689e-40
6.8972754 -5.5626845 -0.88922852 1.8439126e-40
6.8756523 -5.5675898 -0.8819862 2.7658689e-40
6.8630791 -5.5428619 -0.89898556 1.8439126e-40
6.8526931 -5.5731802 -0.87619227 1.8439126e-40
7.2289414 -5.6608009 -0.82252002 7.3756504e-40
7.2138777 -5.6901083 -0.8089658 5.5317378e-40
7.2098517 -5.6678782 -0.829772 4.6097815e-40
7.1878886 -5.6990585 -0.81543642 2.7658689e-40
7.1615472 -5.706811 -0.81543636 2.7658689e-40
7.1299367 -5.7161131 -0.81543636 3.6878252e-40
7.0983267 -5.7254152 -0.81543636 6.4536941e-40
7.0725727 -5.7351646 -0.82622069 1.6595213e-39
7.0167489 -5.5533733 -0.85940903 5.5317378e-40
7.0215721 -5.5199838 -0.85881054 4.6097815e-40
6.9940553 -5.5864038 -0.83736736 5.5317378e-40
6.9911056 -5.5594177 -0.85194719 4.6097815e-40
6.9646244 -5.5958271 -0.84115916 3.6878252e-40
6.9656024 -5.5693874 -0.86419225 3.6878252e-40
6.9418831 -5.6040463 -0.8487426 2.7658689e-40
6.933032 -5.5774322 -0.85653913 1.8439126e-40
6.9082313 -5.5842686 -0.85424316 2.7658689e-40
6.8857107 -5.5599651 -0.85881054 2.7658689e-40
6.8705096 -5.5640497 -0.85687929 2.7658689e-40
6.8587875 -5.5388279 -0.87266976 2.7658689e-40
6.8520613 -5.571034 -0.86460447 2.7658689e-40
7.2293291 -5.6555777 -0.79713804 5.5317378e-40
7.2105947 -5.6867332 -0.78739715 4.6097815e-40
7.1823783 -5.7204032 -0.77628082 4.6097815e-40
7.1882734 -5.693881 -0.79027295 5.5317378e-40
7.1600776 -5.701817 -0.78847557 2.7658689e-40
7.1284671 -5.7111197 -0.78847557 3.6878252e-40
7.0990233 -5.7200012 -0.789554 7.3756504e-40
7.0836811 -5.6969805 -0.789886 4.6097815e-40
7.0730529 -5.7001076 -0.789886 6.4536941e-40
7.0189543 -5.5752602 -0.81840867 1.4751301e-39
7.0237532 -5.546114 -0.83357966 4.6097815e-40
6.9960361 -5.6095138 -0.80739188 4.6097815e-40
7.0006375 -5.5814133 -0.82220042 5.5317378e-40
6.9850206 -5.6127558 -0.80739188 5.5317378e-40
6.9687362 -5.5906496 -0.82144201 3.6878252e-40
6.9375548 -5.599597 -0.82030445 2.7658689e-40
6.9080052 -5.5772882 -0.81922996 1.8439126e-40
6.8887868 -5.5536966 -0.83215851 1.8439126e-40
6.8671494 -5.5595975 -0.8298409 1.8439126e-40
7.2329526 -5.6771154 -0.77229911 4.6097815e-40
7.2249408 -5.7073393 -0.74723107 7.3756504e-40
7.2095366 -5.6831379 -0.7679854 5.5317378e-40
7.1886096 -5.7126522 -0.7468816 5.5317378e-40
7.1870975 -5.6898861 -0.76870435 6.4536941e-40
7.1600313 -5.7216005 -0.74955422 3.6878252e-40
7.1591959 -5.6988211 -0.77229911 2.7658689e-40
7.1339183 -5.7292852 -0.74955422 3.6878252e-40
7.132854 -5.7065725 -0.77229911 3.6878252e-40
7.1136537 -5.7405376 -0.75385445 7.3756504e-40
7.0929003 -5.7167025 -0.76421088 1.2907388e-39
7.0821991 -5.6919432 -0.76269102 3.6878252e-40
7.0749021 -5.7236271 -0.77229911 6.4536941e-40
7.0715709 -5.6950707 -0.76269102 5.5317378e-40
7.0520148 -5.6145663 -0.7666465 2.1204995e-39
7.0388689 -5.592371 -0.78484321 3.6878252e-40
7.0204716 -5.5694718 -0.79186642 5.5317378e-40
7.0215631 -5.5386715 -0.79340059 5.5317378e-40
6.9948072 -5.6053371 -0.78484321 9.219563e-40
7.0026889 -5.5747051 -0.79186642 4.6097815e-40
6.9727764 -5.6118207 -0.78484321 4.6097815e-40
6.9397297 -5.6215458 -0.78484321 2.7658689e-40
6.9360046 -5.5943294 -0.79186642 3.6878252e-40
6.9096584 -5.6005559 -0.78428298 2.7658689e-40
6.8908124 -5.5775347 -0.79531389 1.8439126e-40
6.8655701 -5.5542316 -0.80087143 1.8439126e-40
7.2217708 -5.7093086 -0.7201407 4.6097815e-40
7.1960378 -5.7225084 -0.71879733 5.5317378e-40
7.1702361 -5.7329121 -0.71811062 3.6878252e-40
7.1393557 -5.7447262 -0.7188347 2.7658689e-40
7.1101136 -5.7414541 -0.71869016 5.5317378e-40
7.088356 -5.7109861 -0.72916186 8.2976067e-40
7.0813093 -5.688921 -0.74637401 4.6097815e-40
7.0700884 -5.6900339 -0.73549604 2.0283039e-39
7.056808 -5.6666007 -0.74207389 2.9502602e-39
7.0535526 -5.63799 -0.73757905 5.5317378e-40
7.0370255 -5.5861063 -0.75102013 2.9502602e-39
7.0212064 -5.5637608 -0.76456583 3.6878252e-40
6.99684 -5.5986881 -0.75477827 5.5317378e-40
7.0014491 -5.5704913 -0.76911592 3.6878252e-40
6.97124 -5.6066003 -0.7566573 4.6097815e-40
6.9495163 -5.6141276 -0.76229447 3.6878252e-40
6.9309692 -5.588943 -0.75774068 2.7658689e-40
6.9119163 -5.5945492 -0.75774074 2.7658689e-40
6.8910131 -5.5713139 -0.76470131 2.7658689e-40
6.8685808 -5.5779157 -0.76470131 2.7658689e-40
6.8639908 -5.5488658 -0.77190185 2.7658689e-40
7.2217975 -5.7423296 -0.67911518 3.6878252e-40
7.2279372 -5.7165747 -0.69200248 5.5317378e-40
7.2035422 -5.7485476 -0.68331933 5.5317378e-40
7.1901536 -5.7284055 -0.69553602 4.6097815e-40
7.1807213 -5.7544174 -0.67911518 4.6097815e-40
7.1671371 -5.7343254 -0.6912958 3.6878252e-40
7.1426415 -5.7672105 -0.68699801 1.8439126e-40
7.1383681 -5.7436447 -0.69553602 2.7658689e-40
7.1293755 -5.7695279 -0.67911518 4.6097815e-40
7.1059208 -5.7394481 -0.69317585 7.3756504e-40
7.0813241 -5.7065439 -0.69680887 5.5317378e-40
7.0657368 -5.6573467 -0.70914799 3.6878252e-40
7.0683098 -5.683989 -0.70286202 4.6097815e-40
7.0523453 -5.6338882 -0.7154339 4.6097815e-40
7.0380526 -5.6074309 -0.71077925 5.5317378e-40
7.0293102 -5.5842924 -0.7307263 5.5317378e-40
7.0027499 -5.5916543 -0.72847146 9.219563e-40
6.9834681 -5.6234941 -0.71077925 9.219563e-40
6.9684033 -5.602046 -0.72988075 5.5317378e-40
6.9431434 -5.6087418 -0.72621655 4.6097815e-40
6.9253345 -5.6133022 -0.72283429 1.8439126e-40
6.9103665 -5.5892825 -0.72930259 1.8439126e-40
6.8914223 -5.5658026 -0.73791522 1.8439126e-40
6.8790789 -5.5374289 -0.73713839 3.6878252e-40
6.861721 -5.5753136 -0.74174184 1.8439126e-40
6.8641934 -5.5425863 -0.74100107 1.8439126e-40
7.2206516 -5.7384357 -0.65809423 8.2976067e-40
7.2304268 -5.7122869 -0.67433488 7.3756504e-40
7.2001133 -5.7444801 -0.65809423 6.4536941e-40
7.1693063 -5.7535458 -0.65809423 4.6097815e-40
7.1436334 -5.7611012 -0.65809423 1.8439126e-40
7.1265664 -5.7417841 -0.6690346 2.7658689e-40
7.1173873 -5.7667093 -0.64758372 3.6878252e-40
7.1036162 -5.7408247 -0.66838741 6.4536941e-40
7.0822535 -5.7272758 -0.66402918 4.6097815e-40
7.0693178 -5.7046509 -0.66984808 5.5317378e-40
7.0559025 -5.6810722 -0.67022806 4.6097815e-40
7.0538168 -5.6564364 -0.68719745 1.1063476e-39
7.0394149 -5.6298933 -0.67667991 3.6878252e-40
7.0295568 -5.6054335 -0.68843234 5.5317378e-40
7.0235519 -5.5809946 -0.70592272 4.6097815e-40
7.0039968 -5.6126342 -0.68683612 3.6878252e-40
7.0012136 -5.5864339 -0.70028555 6.4536941e-40
6.9678597 -5.5951147 -0.69464839 4.6097815e-40
6.940321 -5.603219 -0.69464839 4.6097815e-40
6.9193101 -5.5786371 -0.68948925 2.7658689e-40
6.9241052 -5.6091251 -0.70028555 1.8439126e-40
6.9091263 -5.5850687 -0.70655209 1.8439126e-40
6.8961401 -5.5576754 -0.70443273 1.8439126e-40
6.8778152 -5.5331364 -0.71396279 1.8439126e-40
6.862246 -5.5083857 -0.72647077 1.8439126e-40
7.2226071 -5.7559566 -0.62140757 1.0141519e-39
7.2292023 -5.7295732 -0.62656277 7.3756504e-40
7.2061024 -5.7594151 -0.61445826 5.5317378e-40
7.1951628 -5.7402964 -0.63006628 5.5317378e-40
7.1675873 -5.7477055 -0.62656277 4.6097815e-40
7.1433921 -5.7782192 -0.61619562 2.7658689e-40
7.1420579 -5.7557478 -0.62919044 1.8439126e-40
7.1162415 -5.762816 -0.62656277 3.6878252e-40
7.0934725 -5.7440557 -0.63193268 3.6878252e-40
7.0957031 -5.7688599 -0.62656277 5.5317378e-40
7.0786204 -5.7287979 -0.63331002 4.6097815e-40
7.0681419 -5.7006559 -0.64827949 4.6097815e-40
7.0519114 -5.6773205 -0.64575255 4.6097815e-40
7.0412989 -5.6534939 -0.6542716 5.5317378e-40
7.0273895 -5.6289759 -0.65453482 4.6097815e-40
7.0080194 -5.6061497 -0.66049868 1.1985432e-39
6.9883547 -5.5834107 -0.66646254 5.5317378e-40
6.9663234 -5.5898943 -0.66646254 5.5317378e-40
6.9387846 -5.5979986 -0.66646254 3.6878252e-40
6.9183803 -5.5754766 -0.6724264 1.8439126e-40
6.8919277 -5.5537167 -0.67860329 1.8439126e-40
6.8645988 -5.5300293 -0.67919928 2.7658689e-40
7.231936 -5.7469177 -0.59013563 7.3756504e-40
7.2232614 -5.7245526 -0.5929293 5.5317378e-40
7.2030792 -5.7554092 -0.59013557 5.5317378e-40
7.1866937 -5.7367949 -0.6002866 4.6097815e-40
7.1746454 -5.7622037 -0.58231759 5.5317378e-40
7.1688657 -5.7425699 -0.60291421 5.5317378e-40
7.1491838 -5.7696967 -0.58231759 2.7658689e-40
7.1404824 -5.7503939 -0.6002866 2.7658689e-40
7.1264105 -5.7769232 -0.58492362 3.6878252e-40
7.1116705 -5.7581172 -0.59653288 4.6097815e-40
7.0939846 -5.7630196 -0.59503138 5.5317378e-40
7.0749927 -5.7303362 -0.60268086 5.5317378e-40
7.0555477 -5.6967654 -0.61053437 6.4536941e-40
7.0426059 -5.6751328 -0.62127703 4.6097815e-40
7.0444231 -5.6978683 -0.59975004 6.4536941e-40
7.0313849 -5.6762457 -0.61039907 4.6097815e-40
7.0180578 -5.6537066 -0.62134576 1.0141519e-39
7.0045457 -5.6312408 -0.63238966 5.5317378e-40
6.9904261 -5.6068296 -0.63815176 4.6097815e-40
6.9928217 -5.6313481 -0.61578083 4.6097815e-40
6.9789004 -5.6079726 -0.62697828 4.6097815e-40
6.9617276 -5.5858979 -0.63988727 7.3756504e-40
6.9355373 -5.6218581 -0.63256502 3.6878252e-40
6.9383497 -5.5924535 -0.6382767 6.4536941e-40
6.9207253 -5.59764 -0.6382767 2.7658689e-40
6.9050961 -5.5713735 -0.63261306 2.7658689e-40
6.88904 -5.5490789 -0.65133899 2.7658689e-40
6.8636513 -5.5268097 -0.66181749 2.7658689e-40
7.2477741 -5.738061 -0.5692876 5.5317378e-40
7.2463031 -5.7118492 -0.56349993 3.6878252e-40
7.2166519 -5.745122 -0.55886364 4.6097815e-40
7.2281628 -5.7184567 -0.56980622 5.5317378e-40
7.2016587 -5.7505827 -0.56407559 5.5317378e-40
7.1761971 -5.7580757 -0.56407559 4.6097815e-40
7.1456432 -5.767067 -0.56407559 2.7658689e-40
7.1252737 -5.7730618 -0.56407559 3.6878252e-40
7.1079559 -5.7536197 -0.56875521 3.6878252e-40
7.0925522 -5.758153 -0.56875521 6.4536941e-40
7.0735416 -5.7254071 -0.57606685 5.5317378e-40
7.0540781 -5.6917715 -0.58357358 4.6097815e-40
7.0435414 -5.6948724 -0.58357358 4.6097815e-40
7.0248852 -5.6737804 -0.58864307 5.5317378e-40
7.0058389 -5.6517801 -0.59390754 4.6097815e-40
6.9889035 -5.6016555 -0.61021811 4.6097815e-40
6.9916148 -5.6272469 -0.59363568 5.5317378e-40
6.9739418 -5.6045594 -0.60276914 3.6878252e-40
6.9560094 -5.5819621 -0.61196989 4.6097815e-40
6.9357119 -5.5875568 -0.61009079 1.8439126e-40
6.919189 -5.5924196 -0.61009079 1.8439126e-40
6.8986092 -5.5698481 -0.61555022 1.8439126e-40
6.8754339 -5.6064301 -0.61572796 2.7658689e-40
6.87813 -5.5754933 -0.61365443 1.8439126e-40
7.2590232 -5.6644001 -0.54415262 4.6097815e-40
7.2445846 -5.7060089 -0.53196853 4.6097815e-40
7.2476597 -5.681613 -0.54712826 4.6097815e-40
7.222116 -5.7386189 -0.53454095 4.6097815e-40
7.2318473 -5.7132826 -0.54948598 4.6097815e-40
7.2002382 -5.7457557 -0.5380156 5.5317378e-40
7.1757169 -5.7754726 -0.52321482 4.6097815e-40
7.1748481 -5.7534904 -0.53931862 4.6097815e-40
7.1442227 -5.7622404 -0.5380156 3.6878252e-40
7.1136689 -5.7712317 -0.5380156 4.6097815e-40
7.0927315 -5.7752953 -0.52759165 4.6097815e-40
7.0825624 -5.7558041 -0.54247904 4.6097815e-40
7.0619802 -5.724524 -0.55477566 3.6878252e-40
7.0507083 -5.7246275 -0.53880727 4.6097815e-40
7.0368037 -5.6914291 -0.55661279 4.6097815e-40
7.0208941 -5.6700287 -0.56416756 4.6097815e-40
7.0046549 -5.6737127 -0.55872858 4.6097815e-40
6.9862714 -5.6512794 -0.5628109 3.6878252e-40
6.9770355 -5.6276369 -0.57425869 3.6878252e-40
6.9658518 -5.6039419 -0.58787119 4.6097815e-40
6.9464412 -5.6070843 -0.57510155 2.7658689e-40
6.9289751 -5.585001 -0.58754212 1.8439126e-40
6.9147449 -5.5874872 -0.57908636 1.8439126e-40
6.897059 -5.5645809 -0.58711213 2.7658689e-40
6.885242 -5.5392799 -0.59709722 1.8439126e-40
7.2637663 -5.6726065 -0.52592719 5.5317378e-40
7.2518053 -5.6989479 -0.50744408 5.5317378e-40
7.2531199 -5.6746731 -0.5206269 5.5317378e-40
7.2239957 -5.7324705 -0.50674367 7.3756504e-40
7.198534 -5.7399635 -0.50674367 5.5317378e-40
7.1761794 -5.7708292 -0.50081682 4.6097815e-40
7.1698666 -5.7490993 -0.51021832 5.5317378e-40
7.1465325 -5.7788601 -0.49737105 3.6878252e-40
7.1407084 -5.7578197 -0.51091325 4.6097815e-40
7.1119642 -5.76544 -0.50674367 7.3756504e-40
7.0915947 -5.7714338 -0.50674361 4.6097815e-40
7.0739975 -5.7519789 -0.51094759 6.4536941e-40
7.0583076 -5.7555385 -0.50569236 6.4536941e-40
7.042614 -5.7227244 -0.51751608 6.4536941e-40
7.022016 -5.6898117 -0.52695596 8.2976067e-40
7.0081105 -5.6911907 -0.51347554 4.6097815e-40
6.9950533 -5.6705179 -0.52881408 5.5317378e-40
6.9743519 -5.6503696 -0.54086035 6.4536941e-40
6.9663568 -5.6213083 -0.52720028 3.6878252e-40
6.9564438 -5.6275682 -0.54380912 2.7658689e-40
6.9395595 -5.6019344 -0.53945285 2.7658689e-40
6.9274387 -5.5797806 -0.55935627 2.7658689e-40
6.9130549 -5.5817442 -0.54808187 1.8439126e-40
6.8971996 -5.5302162 -0.56954587 1.8439126e-40
7.2976274 -5.6777067 -0.46890569 5.5317378e-40
7.2755685 -5.6849031 -0.47240919 4.6097815e-40
7.2477527 -5.7191858 -0.47547165 1.3829344e-39
7.2598343 -5.691473 -0.4820438 4.6097815e-40
7.2329369 -5.7461505 -0.46118972 5.5317378e-40
7.2225752 -5.727644 -0.48068365 1.0141519e-39
7.2039194 -5.7793932 -0.45733172 2.2126951e-39
7.2079682 -5.754539 -0.46635848 5.5317378e-40
7.1955109 -5.7359581 -0.48242098 1.2907388e-39
7.183888 -5.7852879 -0.45733172 5.5317378e-40
7.1752572 -5.7664537 -0.47772974 7.3756504e-40
7.1559758 -5.7952213 -0.46587425 4.6097815e-40
7.1390443 -5.7751684 -0.46808138 4.6097815e-40
7.1346474 -5.8028736 -0.47270828 3.6878252e-40
7.1218348 -5.7788458 -0.46118972 4.6097815e-40
7.1090574 -5.7602634 -0.47677466 6.4536941e-40
7.0825343 -5.7675066 -0.47398251 7.3756504e-40
7.067431 -5.7486229 -0.48467141 5.5317378e-40
7.0568752 -5.7506714 -0.47941616 4.6097815e-40
7.037406 -5.7178292 -0.48557931 4.6097815e-40
7.0174718 -5.6840954 -0.49190691 5.5317378e-40
7.0069351 -5.6871963 -0.49190691 8.2976067e-40
6.9932747 -5.6644735 -0.49618009 4.6097815e-40
6.9793072 -5.6408119 -0.50061762 3.6878252e-40
6.9618931 -5.5904894 -0.51524371 3.6878252e-40
6.9509764 -5.5937023 -0.51524371 6.4536941e-40
6.932734 -5.5706587 -0.52177507 1.8439126e-40
6.9158769 -5.5464516 -0.52454835 1.8439126e-40
7.3014956 -5.6949778 -0.43377566 1.1063476e-39
7.2983842 -5.6739583 -0.45138824 6.4536941e-40
7.2759433 -5.6798573 -0.44788474 6.4536941e-40
7.2443504 -5.7138929 -0.44419965 1.1985432e-39
7.2563171 -5.6852098 -0.44578266 9.219563e-40
7.2301264 -5.7428169 -0.44051462 5.5317378e-40
7.2094789 -5.7736311 -0.43682963 5.5317378e-40
7.212173 -5.7501802 -0.45085219 5.5317378e-40
7.186202 -5.7808247 -0.43853813 5.5317378e-40
7.1743875 -5.7585258 -0.43706882 1.2907388e-39
7.1569533 -5.7899137 -0.44093007 4.6097815e-40
7.14259 -5.7673283 -0.43431216 5.5317378e-40
7.1292086 -5.748826 -0.44941166 4.6097815e-40
7.1201444 -5.7731018 -0.43017715 4.6097815e-40
7.1073532 -5.7544708 -0.44550264 4.6097815e-40
7.078001 -5.7628465 -0.44419965 4.6097815e-40
7.0551567 -5.7448311 -0.44788477 6.4536941e-40
7.0361252 -5.7160764 -0.45301783 5.5317378e-40
7.0160022 -5.6791015 -0.46494612 4.6097815e-40
7.0054655 -5.6822023 -0.46494612 4.6097815e-40
6.9917922 -5.6594362 -0.46898508 4.6097815e-40
6.9778118 -5.6357298 -0.47317943 5.5317378e-40
6.9639425 -5.6131048 -0.48290998 3.6878252e-40
6.9494534 -5.5885286 -0.48731005 3.6878252e-40
6.9347672 -5.5640092 -0.49171019 1.8439126e-40
6.9198837 -5.5395484 -0.49611032 1.8439126e-40
7.3003592 -5.6911163 -0.41292766 3.6878252e-40
7.2902012 -5.6714306 -0.42686382 5.5317378e-40
7.2898903 -5.6931486 -0.40771568 5.5317378e-40
7.2742248 -5.674017 -0.41635334 5.5317378e-40
7.2491517 -5.7051373 -0.40771568 4.6097815e-40
7.2563968 -5.6797924 -0.41898096 6.4536941e-40
7.2330856 -5.7360015 -0.41097882 6.4536941e-40
7.2098193 -5.7670832 -0.40479505 8.2976067e-40
7.1813984 -5.7809806 -0.40532857 4.6097815e-40
7.1610627 -5.7816896 -0.40607649 5.5317378e-40
7.1392179 -5.7633276 -0.40950206 4.6097815e-40
7.1107049 -5.7954774 -0.40095097 6.4536941e-40
7.1166334 -5.770494 -0.41208649 4.6097815e-40
7.0946646 -5.7760229 -0.40743461 5.5317378e-40
7.0789847 -5.7567873 -0.41553366 3.6878252e-40
7.0637069 -5.7359686 -0.41635334 4.6097815e-40
7.0492158 -5.73981 -0.41425124 7.3756504e-40
7.029851 -5.7152581 -0.42878664 4.6097815e-40
7.0145326 -5.6741076 -0.43798533 6.4536941e-40
7.0039959 -5.6772089 -0.43798533 4.6097815e-40
6.9903097 -5.6543989 -0.4417901 5.5317378e-40
6.976017 -5.629631 -0.44025359 5.5317378e-40
6.9735541 -5.6058197 -0.46076483 4.6097815e-40
6.9585433 -5.5791068 -0.45378968 2.7658689e-40
6.9442463 -5.5555472 -0.46352428 2.7658689e-40
6.933538 -5.5598326 -0.46916145 1.8439126e-40
6.9291377 -5.5299568 -0.46198454 1.8439126e-40
7.2992225 -5.6872549 -0.39207965 5.5317378e-40
7.2995567 -5.7456236 -0.36872211 4.6097815e-40
7.2884665 -5.7110844 -0.36815202 4.6097815e-40
7.2852645 -5.6899643 -0.38513035 5.5317378e-40
7.2711763 -5.6699781 -0.39182889 5.5317378e-40
7.2477312 -5.7003098 -0.38165569 6.4536941e-40
7.2540612 -5.6750145 -0.39182889 5.5317378e-40
7.2318606 -5.7541494 -0.37276059 4.6097815e-40
7.238811 -5.7288179 -0.38365832 4.6097815e-40
7.2096057 -5.7638617 -0.37499544 4.6097815e-40
7.1800613 -5.7804899 -0.37397483 4.6097815e-40
7.1509614 -5.7841706 -0.3733041 3.6878252e-40
7.1330409 -5.7609844 -0.38882706 5.5317378e-40
7.1215825 -5.7914705 -0.37268293 4.6097815e-40
7.1105938 -5.7655096 -0.37848955 4.6097815e-40
7.0947428 -5.7706947 -0.38107392 6.4536941e-40
7.0748763 -5.7522273 -0.38686767 4.6097815e-40
7.0619884 -5.7301283 -0.38482192 5.5317378e-40
7.0468707 -5.7356348 -0.39007714 4.6097815e-40
7.0255232 -5.710113 -0.3968949 7.3756504e-40
7.013063 -5.6691141 -0.41102454 3.6878252e-40
7.0022326 -5.671216 -0.40563238 3.6878252e-40
6.9885311 -5.6483545 -0.40915611 3.6878252e-40
6.9742222 -5.6235328 -0.40732771 2.7658689e-40
6.9660325 -5.6002331 -0.42201084 3.6878252e-40
6.957325 -5.5749674 -0.43144277 2.7658689e-40
6.9390116 -5.5224724 -0.43923405 2.7658689e-40
6.9351811 -5.4936237 -0.44326887 2.7658689e-40
6.9205284 -5.4692583 -0.4590306 1.8439126e-40
6.9158287 -5.4372997 -0.45161667 2.7658689e-40
7.2984886 -5.7309313 -0.35482126 4.6097815e-40
7.290894 -5.7069016 -0.35092282 6.4536941e-40
7.2771487 -5.6874571 -0.36080772 8.2976067e-40
7.2662253 -5.6657944 -0.36380097 5.5317378e-40
7.2489991 -5.6952167 -0.35820171 4.6097815e-40
7.2562428 -5.6697893 -0.3690562 5.5317378e-40
7.2328277 -5.7481914 -0.34457022 5.5317378e-40
7.2084813 -5.76861 -0.34302267 6.4536941e-40
7.1790142 -5.7852364 -0.34210333 4.6097815e-40
7.1486025 -5.7862296 -0.34301347 4.6097815e-40
7.1189189 -5.7811236 -0.34164131 4.6097815e-40
7.1111503 -5.7611847 -0.35781452 4.6097815e-40
7.093905 -5.7876983 -0.33773622 3.6878252e-40
7.085618 -5.7676582 -0.35264575 6.4536941e-40
7.07025 -5.7490435 -0.36428234 4.6097815e-40
7.0525184 -5.7514639 -0.3503837 7.3756504e-40
7.042016 -5.7317753 -0.36380094 7.3756504e-40
7.0194135 -5.6973915 -0.37090969 4.6097815e-40
7.0004687 -5.6652241 -0.37327942 4.6097815e-40
6.9870486 -5.6433172 -0.38196111 4.6097815e-40
6.9730258 -5.6194668 -0.38537717 2.7658689e-40
6.9591146 -5.5966978 -0.39432946 1.8439126e-40
7.2932873 -5.725585 -0.32065111 5.5317378e-40
7.2841926 -5.7040195 -0.32680193 5.5317378e-40
7.2709203 -5.6850944 -0.33995971 4.6097815e-40
7.2556868 -5.711576 -0.32266694 7.3756504e-40
7.2518692 -5.689302 -0.33301038 7.3756504e-40
7.2314897 -5.75037 -0.31299907 5.5317378e-40
7.2082338 -5.7600751 -0.31565869 4.6097815e-40
7.1777968 -5.7831268 -0.31636417 8.2976067e-40
7.1471596 -5.7831526 -0.31213495 4.6097815e-40
7.1194568 -5.782495 -0.31458032 4.6097815e-40
7.0967073 -5.7903752 -0.31469375 4.6097815e-40
7.0746727 -5.7677584 -0.33713946 6.4536941e-40
7.0655265 -5.7430205 -0.3274509 4.6097815e-40
7.047194 -5.7484155 -0.32745087 4.6097815e-40
7.0321212 -5.7297511 -0.33927652 4.6097815e-40
7.0128369 -5.6842308 -0.34865552 3.6878252e-40
7.0304441 -5.7516661 -0.31911168 3.6878252e-40
7.0174742 -5.730536 -0.32175905 4.6097815e-40
7.0096831 -5.7079091 -0.32981694 2.7658689e-40
6.9989991 -5.6602297 -0.34631866 3.6878252e-40
6.9811964 -5.6391287 -0.35259053 2.7658689e-40
6.9661684 -5.6159625 -0.35793895 2.7658689e-40
6.9579072 -5.5925961 -0.37218428 2.7658689e-40
6.9589958 -5.6460996 -0.35476613 1.8439126e-40
6.9714961 -5.8646922 -0.29865775 1.8439126e-40
6.9584022 -5.8446217 -0.30111194 1.8439126e-40
6.9250517 -5.7577343 -0.32175905 2.7658689e-40
6.9038877 -5.7249827 -0.32589543 2.7658689e-40
7.2785749 -5.6998472 -0.2978569 4.6097815e-40
7.2833562 -5.6709447 -0.28783971 6.4536941e-40
7.2450576 -5.7342768 -0.29331502 8.2976067e-40
7.2554846 -5.7062263 -0.29578933 5.5317378e-40
7.2304978 -5.7604551 -0.28077558 6.4536941e-40
7.2045016 -5.7601471 -0.28535044 6.4536941e-40
7.1742501 -5.7609005 -0.28897825 4.6097815e-40
7.1458726 -5.7826991 -0.28103906 7.3756504e-40
7.1212163 -5.7926149 -0.28077558 5.5317378e-40
7.0956297 -5.7909775 -0.28375775 4.6097815e-40
7.0777502 -5.7595706 -0.30095816 3.6878252e-40
7.0706148 -5.7377467 -0.30868769 3.6878252e-40
7.0634575 -5.8315401 -0.26840186 3.6878252e-40
7.0628514 -5.8001156 -0.284697 3.6878252e-40
7.0527816 -5.7679586 -0.30612689 3.6878252e-40
7.0502453 -5.743741 -0.30868769 3.6878252e-40
7.0364971 -5.8399816 -0.2709232 1.8439126e-40
7.0321703 -5.8108835 -0.28987524 2.7658689e-40
7.0275311 -5.7753897 -0.30612689 2.7658689e-40
6.9820185 -5.6608858 -0.32475001 1.8439126e-40
6.973752 -5.6373782 -0.33301011 2.7658689e-40
6.9596105 -5.6134748 -0.33598837 2.7658689e-40
7.0114527 -5.8476562 -0.27243599 1.8439126e-40
7.004899 -5.8283796 -0.28840169 1.8439126e-40
6.9993219 -5.7587271 -0.30868769 1.8439126e-40
6.9815512 -5.8579273 -0.27974781 1.8439126e-40
6.9666739 -5.8360476 -0.27060744 1.8439126e-40
6.9476891 -5.8374376 -0.28008702 1.8439126e-40
6.9310164 -5.801712 -0.29578939 1.8439126e-40
6.9277453 -5.7787418 -0.30347571 1.8439126e-40
6.9193444 -5.7572985 -0.3112486 1.8439126e-40
6.9203525 -5.8027697 -0.28545186 1.8439126e-40
6.8999448 -5.7608919 -0.3007381 1.8439126e-40
6.9000664 -5.7369671 -0.31391612 2.7658689e-40
7.2797327 -5.716507 -0.25572786 6.4536941e-40
7.2829447 -5.6923199 -0.2668443 4.6097815e-40
7.2512255 -5.7298355 -0.25600326 4.6097815e-40
7.2554789 -5.7015467 -0.27252996 4.6097815e-40
7.2342491 -5.7751899 -0.23814595 5.5317378e-40
7.2308607 -5.7555737 -0.25704983 3.6878252e-40
7.2156534 -5.8036423 -0.23627414 5.5317378e-40
7.2150912 -5.7828574 -0.24823126 4.6097815e-40
7.2045527 -5.763998 -0.26043922 5.5317378e-40
7.1925774 -5.8344564 -0.23431727 6.4536941e-40
7.1819816 -5.8155651 -0.24628018 6.4536941e-40
7.1858048 -5.792491 -0.2532739 7.3756504e-40
7.1777811 -5.7645664 -0.2645638 5.5317378e-40
7.1683393 -5.8415899 -0.23431727 3.6878252e-40
7.157268 -5.8218307 -0.24127716 3.6878252e-40
7.151042 -5.8017063 -0.24823126 4.6097815e-40
7.1499119 -5.7800775 -0.26043928 4.6097815e-40
7.1261477 -5.831593 -0.24427898 3.6878252e-40
7.1333432 -5.8082676 -0.25495479 6.4536941e-40
7.1198626 -5.8558555 -0.23431727 7.3756504e-40
7.0986104 -5.8390923 -0.24127722 3.6878252e-40
7.0973959 -5.8195229 -0.25831658 3.6878252e-40
7.0685167 -5.8259916 -0.24823129 3.6878252e-40
7.0597782 -5.8515272 -0.24628018 3.6878252e-40
7.037724 -5.8350534 -0.24823126 1.8439126e-40
7.0081625 -5.8437529 -0.24823126 1.8439126e-40
6.9838033 -5.8519363 -0.2532739 2.7658689e-40
6.9658427 -5.8332224 -0.25535518 1.8439126e-40
6.9453421 -5.820261 -0.25803697 2.7658689e-40
6.9203801 -5.7725172 -0.26177973 2.7658689e-40
6.9113455 -5.7490759 -0.25869626 3.6878252e-40
6.9234381 -5.8247972 -0.27281293 1.8439126e-40
6.9023714 -5.7802649 -0.27394104 2.7658689e-40
6.8877659 -5.7574248 -0.26570323 1.8439126e-40
6.8782616 -5.8089142 -0.25443932 2.7658689e-40
6.8751173 -5.7879353 -0.27220368 1.8439126e-40
7.3028593 -5.8179922 -0.20298807 6.4536941e-40
7.2896795 -5.7213058 -0.23345524 1.1985432e-39
7.2879081 -5.8004112 -0.20454781 3.6878252e-40
7.269598 -5.7823973 -0.2095914 4.6097815e-40
7.2728944 -5.7609754 -0.22402653 5.5317378e-40
7.2630525 -5.7426891 -0.24010284 6.4536941e-40
7.2476912 -5.812912 -0.20785554 8.2976067e-40
7.2536678 -5.7884274 -0.2162621 4.6097815e-40
7.2484798 -5.7689724 -0.22806066 5.5317378e-40
7.2431831 -5.7485361 -0.2401029 4.6097815e-40
7.2297621 -5.8612208 -0.19484185 5.5317378e-40
7.2262535 -5.8372784 -0.21449429 4.6097815e-40
7.1975608 -5.8509617 -0.21283555 4.6097815e-40
7.1682162 -5.8522739 -0.21337229 4.6097815e-40
7.1395822 -5.8488054 -0.214276 4.6097815e-40
7.1192436 -5.8279858 -0.2162621 4.6097815e-40
7.0975742 -5.8355713 -0.22226574 4.6097815e-40
7.0947847 -5.8106499 -0.2104114 3.6878252e-40
7.0672007 -5.8208694 -0.22085688 3.6878252e-40
7.0464783 -5.8284178 -0.22806066 1.8439126e-40
7.0286098 -5.7987843 -0.22455028 1.8439126e-40
7.0179734 -5.7615576 -0.22342673 1.8439126e-40
7.0070634 -5.8400168 -0.22806066 2.7658689e-40
7.0006967 -5.810812 -0.22529843 2.7658689e-40
6.9745355 -5.8167849 -0.23188777 1.8439126e-40
6.9483991 -5.7861934 -0.24410178 1.8439126e-40
6.9441376 -5.7592325 -0.23050772 2.7658689e-40
6.9310241 -5.7401114 -0.24293049 2.7658689e-40
6.9108911 -5.7133808 -0.24552172 2.7658689e-40
6.8953686 -5.7516618 -0.24818575 2.7658689e-40
7.3303814 -5.8049378 -0.17836937 7.3756504e-40
7.3096609 -5.7988777 -0.18126276 4.6097815e-40
7.2822466 -5.807869 -0.18409237 5.5317378e-40
7.253139 -5.8139892 -0.18424883 6.4536941e-40
7.2354145 -5.8569355 -0.18181764 5.5317378e-40
7.2214284 -5.8373313 -0.18001062 7.3756504e-40
7.1984143 -5.8387589 -0.18510224 9.219563e-40
7.1801567 -5.8033476 -0.18290868 1.0141519e-39
7.1718283 -5.7813807 -0.17763419 5.5317378e-40
7.1710234 -5.8328114 -0.19462465 4.6097815e-40
7.149653 -5.8140025 -0.19124705 6.4536941e-40
7.1543112 -5.7873473 -0.1816683 4.6097815e-40
7.1419373 -5.8413706 -0.19462465 6.4536941e-40
7.1301007 -5.8197565 -0.19124705 4.6097815e-40
7.1196413 -5.7980914 -0.18435772 3.6878252e-40
7.1009383 -5.8042717 -0.18771948 3.6878252e-40
7.0851378 -5.7861786 -0.19604076 4.6097815e-40
7.0546212 -5.7847033 -0.19923705 2.7658689e-40
7.0275102 -5.756671 -0.21308921 2.7658689e-40
7.0241942 -5.7304277 -0.20444775 1.8439126e-40
7.011745 -5.7110682 -0.21665433 1.8439126e-40
6.9960194 -5.6882482 -0.21215081 1.8439126e-40
6.9777231 -5.6949129 -0.21851115 2.7658689e-40
6.9301648 -5.7371912 -0.22716479 1.8439126e-40
6.9124207 -5.690114 -0.23105855 2.7658689e-40
6.8979969 -5.6671629 -0.23308335 2.7658689e-40
7.3290396 -5.8003778 -0.15375064 5.5317378e-40
7.3292565 -5.8234215 -0.152513 4.6097815e-40
7.3097968 -5.8060408 -0.15375064 5.5317378e-40
7.2807388 -5.8072348 -0.1541193 4.6097815e-40
7.251615 -5.810904 -0.15438175 6.4536941e-40
7.2257528 -5.813056 -0.15803021 5.5317378e-40
7.2112899 -5.7888155 -0.15622593 5.5317378e-40
7.2002897 -5.7689447 -0.15746358 5.5317378e-40
7.1922827 -5.7964225 -0.16623195 9.219563e-40
7.1788316 -5.7760715 -0.16149771 6.4536941e-40
7.1512961 -5.7843781 -0.16250622 8.2976067e-40
7.1217346 -5.7930775 -0.16250622 4.6097815e-40
7.0971003 -5.8003268 -0.16250622 4.6097815e-40
7.0829701 -5.7818708 -0.17146777 3.6878252e-40
7.059649 -5.7801752 -0.16938464 2.7658689e-40
7.0353565 -5.7460394 -0.1717391 1.8439126e-40
7.0230579 -5.7265663 -0.18359976 1.8439126e-40
7.0097399 -5.7042546 -0.17986768 1.8439126e-40
6.9929442 -5.6768513 -0.18870291 2.7658689e-40
6.9699903 -5.6394653 -0.2007304 2.7658689e-40
6.9733434 -5.6657305 -0.19898668 2.7658689e-40
7.3055143 -5.8016386 -0.125615 6.4536941e-40
7.2790608 -5.7993183 -0.12464077 6.4536941e-40
7.2496471 -5.7956934 -0.12516256 1.1063476e-39
7.2297516 -5.7793546 -0.13621387 5.5317378e-40
7.2299862 -5.8004808 -0.12020103 4.6097815e-40
7.2191572 -5.7794514 -0.12120483 4.6097815e-40
7.2062287 -5.7631378 -0.13729295 6.4536941e-40
7.1748915 -5.7914715 -0.11620183 4.6097815e-40
7.1794829 -5.7710085 -0.13729298 5.5317378e-40
7.1435275 -5.8022118 -0.12370637 8.2976067e-40
7.1528158 -5.7791462 -0.13873374 4.6097815e-40
7.1203604 -5.7884073 -0.13729298 6.4536941e-40
7.0920496 -5.7961588 -0.13441144 3.6878252e-40
7.0842071 -5.7769022 -0.14858939 3.6878252e-40
7.0579815 -5.7745094 -0.13879727 2.7658689e-40
7.0339479 -5.7412524 -0.14589535 2.7658689e-40
7.0213532 -5.7207737 -0.15232778 1.8439126e-40
7.0043149 -5.7009859 -0.15569361 1.8439126e-40
6.9833245 -5.6683922 -0.16086625 2.7658689e-40
6.9685206 -5.6344719 -0.17376961 2.7658689e-40
7.3345113 -5.8697062 -0.063121654 8.2976067e-40
7.3017654 -5.7965126 -0.094665691 5.5317378e-40
7.2772775 -5.8229904 -0.074367225 4.6097815e-40
7.2789817 -5.8034649 -0.095896594 5.5317378e-40
7.2603111 -5.8287697 -0.078274533 4.6097815e-40
7.2476006 -5.8099337 -0.095996976 5.5317378e-40
7.2246208 -5.815526 -0.094799511 7.3756504e-40
7.2054372 -5.7779512 -0.093688227 4.6097815e-40
7.2001424 -5.759347 -0.1095584 4.6097815e-40
7.1786885 -5.7863259 -0.096189804 4.6097815e-40
7.1882372 -5.7643728 -0.1171224 1.1985432e-39
7.1513948 -5.7928476 -0.088685237 4.6097815e-40
7.148181 -5.7737923 -0.10535616 7.3756504e-40
7.1187115 -5.7828035 -0.10703708 5.5317378e-40
7.08915 -5.791503 -0.10703705 4.6097815e-40
7.0691676 -5.7963681 -0.10199441 1.1063476e-39
7.0496731 -5.7707987 -0.10820989 7.3756504e-40
7.0328207 -5.7374229 -0.12522033 2.7658689e-40
7.0218754 -5.7375231 -0.10971398 3.6878252e-40
7.0145564 -5.7164803 -0.12105579 2.7658689e-40
6.999743 -5.6955619 -0.12206008 2.7658689e-40
6.9870844 -5.6702576 -0.13607211 3.6878252e-40
6.9664631 -5.6274805 -0.13602453 8.2976067e-40
6.9642653 -5.6051407 -0.15896216 4.6097815e-40
6.9692645 -5.6518698 -0.12415227 3.6878252e-40
7.3247452 -5.7857862 -0.074970707 7.3756504e-40
7.3246908 -5.8504915 -0.058789738 5.5317378e-40
7.3236523 -5.8256693 -0.044713508 7.3756504e-40
7.3106771 -5.8096228 -0.056784395 4.6097815e-40
7.301332 -5.7914867 -0.069062233 5.5317378e-40
7.2801366 -5.8186102 -0.056784395 4.6097815e-40
7.2862597 -5.7971115 -0.074970707 4.6097815e-40
7.267889 -5.8459811 -0.064098611 3.6878252e-40
7.2587152 -5.8245206 -0.054830842 4.6097815e-40
7.2398872 -5.8082809 -0.062661372 4.6097815e-40
7.2245688 -5.8341761 -0.052877169 4.6097815e-40
7.215157 -5.8130183 -0.068501785 4.6097815e-40
7.1971507 -5.7768655 -0.076177679 4.6097815e-40
7.2088723 -5.8372231 -0.045062575 3.6878252e-40
7.1883621 -5.8081479 -0.060507834 5.5317378e-40
7.1733603 -5.7826586 -0.070174076 4.6097815e-40
7.1551576 -5.8111181 -0.063638985 6.4536941e-40
7.1415696 -5.792551 -0.072842322 7.3756504e-40
7.1343646 -5.8156385 -0.055700466 3.6878252e-40
7.1207023 -5.7968454 -0.063670151 7.3756504e-40
7.1143255 -5.7782946 -0.078221962 6.4536941e-40
7.087501 -5.7858982 -0.076781191 5.5317378e-40
7.0675187 -5.7907639 -0.071738549 6.4536941e-40
7.0484109 -5.7681694 -0.07982114 5.5317378e-40
7.0207486 -5.7336936 -0.089038961 3.6878252e-40
7.0080438 -5.7131519 -0.094995759 3.6878252e-40
6.9951739 -5.6926756 -0.10103909 2.7658689e-40
6.9825778 -5.6562939 -0.099665314 3.6878252e-40
6.9649935 -5.6224866 -0.10906371 3.6878252e-40
6.9506721 -5.5981941 -0.10457214 3.6878252e-40
7.3231239 -5.8238745 -0.035020944 5.5317378e-40
7.3133235 -5.8045187 -0.035294343 3.6878252e-40
7.30053 -5.7847013 -0.034173977 5.5317378e-40
7.2775197 -5.7910957 -0.032298233 8.2976067e-40
7.2525234 -5.8211002 -0.028782254 7.3756504e-40
7.2395711 -5.804245 -0.042145766 7.3756504e-40
7.225636 -5.8281116 -0.024305154 4.6097815e-40
7.2078075 -5.8336048 -0.025526075 5.5317378e-40
7.1877556 -5.8157015 -0.035611123 4.6097815e-40
7.1585479 -5.8193579 -0.035688732 4.6097815e-40
7.1304297 -5.8236766 -0.034495961 4.6097815e-40
7.1124158 -5.7957602 -0.046159625 4.6097815e-40
7.1087742 -5.8181767 -0.030892611 3.6878252e-40
7.0972061 -5.7982225 -0.036153577 4.6097815e-40
7.0831151 -5.7813897 -0.047966037 3.6878252e-40
7.0661445 -5.7860937 -0.0465253 3.6878252e-40
7.0432043 -5.7610779 -0.050452031 5.5317378e-40
7.0162396 -5.7033973 -0.058511764 4.6097815e-40
7.0037246 -5.6838131 -0.069507696 4.6097815e-40
6.985044 -5.6527514 -0.072479703 3.6878252e-40
6.9635239 -5.6174927 -0.082102939 2.7658689e-40
6.9451165 -5.5950127 -0.080640592 3.6878252e-40
7.3003578 -5.7654071 -0.00728876 4.6097815e-40
7.2728181 -5.7847166 -0.0060350695 4.6097815e-40
7.247045 -5.7941179 -0.0027558026 3.6878252e-40
7.2226472 -5.8236198 0.0023830116 8.2976067e-40
7.2022862 -5.828938 0.0057320953 3.6878252e-40
7.185153 -5.8132401 -0.0072692744 4.6097815e-40
7.1572461 -5.8187275 -0.0060350108 3.6878252e-40
7.1286602 -5.8156853 -0.0060484069 3.6878252e-40
7.1102343 -5.7883468 -0.0061355252 3.6878252e-40
7.1079631 -5.8154202 -0.016007844 3.6878252e-40
7.0958424 -5.7935886 -0.011138549 2.7658689e-40
7.0792756 -5.7761402 -0.016269404 3.6878252e-40
7.0650449 -5.7823582 -0.026354693 2.7658689e-40
7.051435 -5.7529755 -0.016453173 2.7658689e-40
7.0274677 -5.7192326 -0.027013835 1.8439126e-40
7.0148191 -5.6985703 -0.032451794 2.7658689e-40
7.0020061 -5.6779733 -0.03797631 2.7658689e-40
6.9821229 -5.6451864 -0.043809712 4.6097815e-40
6.9620543 -5.6124992 -0.055142112 2.7658689e-40
6.944056 -5.5606203 -0.050630994 1.8439126e-40
6.9304442 -5.6218014 -0.055142112 1.8439126e-40
6.9429865 -5.5916986 -0.061060168 3.6878252e-40
6.9333329 -5.563776 -0.050630994 2.7658689e-40
7.2939968 -5.7530842 0.021700148 4.6097815e-40
7.2709332 -5.7693949 0.023612894 4.6097815e-40
7.2424068 -5.7901974 0.023504173 5.5317378e-40
7.2244616 -5.8382783 0.037673123 4.6097815e-40
7.2166758 -5.8196898 0.030641051 4.6097815e-40
7.1961951 -5.8249798 0.034304112 4.6097815e-40
7.1790128 -5.8092499 0.021534672 3.6878252e-40
7.1551061 -5.8059645 0.023584455 5.5317378e-40
7.1300378 -5.8009348 0.023684748 3.6878252e-40
7.1080565 -5.7845569 0.015877789 3.6878252e-40
7.0950241 -5.7908087 0.0038705214 5.5317378e-40
7.0812531 -5.7692156 0.015247121 4.6097815e-40
7.0633955 -5.7767539 0.0039011713 3.6878252e-40
7.0499282 -5.7478552 0.011193467 2.7658689e-40
7.0353141 -5.708602 0.014336209 1.8439126e-40
7.0232992 -5.6897812 -0.00117978 1.8439126e-40
7.0105562 -5.6691108 -0.0064448602 1.8439126e-40
7.0008602 -5.6740794 -0.016955324 1.8439126e-40
6.9849439 -5.631834 -0.014559469 1.8439126e-40
6.9705338 -5.6024075 -0.017397074 2.7658689e-40
6.95715 -5.5809622 -0.028426131 1.8439126e-40
6.9428596 -5.5565548 -0.028680418 2.7658689e-40
6.9398012 -5.5310698 -0.040007226 2.7658689e-40
6.9286809 -5.5332279 -0.034470934 1.8439126e-40
7.2886581 -5.7492628 0.048492633 5.5317378e-40
7.2692428 -5.7614365 0.053318396 5.5317378e-40
7.2407961 -5.7847261 0.053046573 5.5317378e-40
7.2236691 -5.8355856 0.052212015 3.6878252e-40
7.2162704 -5.8130264 0.064341508 4.6097815e-40
7.1962743 -5.8195848 0.060992308 5.5317378e-40
7.1757178 -5.8033819 0.055508494 3.6878252e-40
7.1542039 -5.8102083 0.053046633 4.6097815e-40
7.1271424 -5.8056707 0.051861942 4.6097815e-40
7.1076436 -5.7795434 0.041393109 3.6878252e-40
7.1000619 -5.7558146 0.05432773 3.6878252e-40
7.0822048 -5.7633533 0.042981662 4.6097815e-40
7.0534582 -5.7419682 0.039612636 4.6097815e-40
7.0344691 -5.70573 0.029842496 2.7658689e-40
7.0218787 -5.6849542 0.024880221 1.8439126e-40
7.0091243 -5.6642437 0.019831328 1.8439126e-40
6.992733 -5.6159163 0.020171292 1.8439126e-40
6.9874673 -5.6288257 0.0076872604 1.8439126e-40
6.9696522 -5.599411 -0.0012205719 2.7658689e-40
6.9589138 -5.5738754 0.004207788 2.7658689e-40
6.9379907 -5.5249171 -0.0067894738 2.7658689e-40
6.9223666 -5.5317435 -0.017862059 1.8439126e-40
6.923265 -5.4995365 -0.006851376 1.8439126e-40
7.2872777 -5.7221489 0.063906685 3.6878252e-40
7.2678919 -5.7658234 0.082730129 4.6097815e-40
7.2391863 -5.779254 0.08258909 6.4536941e-40
7.215734 -5.8076797 0.091692425 1.1985432e-39
7.2016845 -5.8127975 0.086808383 4.6097815e-40
7.1801882 -5.7963681 0.083820023 4.6097815e-40
7.1522293 -5.799859 0.082738556 3.6878252e-40
7.1319103 -5.7893991 0.078262106 4.6097815e-40
7.1205354 -5.7692041 0.073912732 5.5317378e-40
7.1059222 -5.7497406 0.075939104 4.6097815e-40
7.0896583 -5.7568464 0.064413019 4.6097815e-40
7.0712724 -5.7333488 0.069387481 3.6878252e-40
7.0503082 -5.7295961 0.063226171 3.6878252e-40
7.0330601 -5.700943 0.05568631 2.7658689e-40
7.0204582 -5.6801271 0.050940223 1.8439126e-40
7.0047064 -5.6336346 0.046502639 2.7658689e-40
6.9883742 -5.5852194 0.041916672 1.8439126e-40
6.978425 -5.5903177 0.031132376 2.7658689e-40
6.9648137 -5.5677605 0.025963774 2.7658689e-40
6.9541659 -5.542182 0.026195938 2.7658689e-40
6.9329638 -5.4921846 0.015495583 1.8439126e-40
6.9181285 -5.4667959 0.015635472 2.7658689e-40
6.9226561 -5.497467 0.0043221037 1.8439126e-40
7.2565975 -5.7477131 0.10306999 3.6878252e-40
7.2373905 -5.7688456 0.11231466 5.5317378e-40
7.2144032 -5.8031564 0.116113 5.5317378e-40
7.1990905 -5.7851076 0.11213155 6.4536941e-40
7.1796885 -5.7883196 0.11223578 3.6878252e-40
7.1572318 -5.7912631 0.10582853 8.2976067e-40
7.1430674 -5.7555256 0.10893384 3.6878252e-40
7.1292005 -5.7365828 0.10727549 9.219563e-40
7.1131892 -5.7422085 0.10273714 2.7658689e-40
7.0954647 -5.7234507 0.10053086 3.6878252e-40
7.0732245 -5.7238541 0.094646737 3.6878252e-40
7.0510068 -5.6873398 0.097036414 3.6878252e-40
7.0382705 -5.6654444 0.097848214 3.6878252e-40
7.0367017 -5.6946697 0.081530124 3.6878252e-40
7.0252595 -5.6713715 0.087424189 2.7658689e-40
7.0168152 -5.6524611 0.067128502 3.6878252e-40
7.000556 -5.6039319 0.06827914 2.7658689e-40
6.9839945 -5.5544529 0.064036839 1.8439126e-40
6.9708419 -5.5328569 0.048146516 1.8439126e-40
6.9668241 -5.5030608 0.059645917 4.6097815e-40
6.9493313 -5.4508066 0.049458478 2.7658689e-40
6.9463949 -5.5135298 0.037500747 3.6878252e-40
6.9285293 -5.4614658 0.026909787 2.7658689e-40
6.91359 -5.4360876 0.027150629 2.7658689e-40
7.167717 -5.7678781 0.13283946 4.6097815e-40
7.156641 -5.7475033 0.12894587 6.4536941e-40
7.1542368 -5.7216034 0.14509538 3.6878252e-40
7.1420145 -5.7285833 0.12828659 3.6878252e-40
7.1215639 -5.7094259 0.13205218 3.6878252e-40
7.0990462 -5.7172799 0.12595131 3.6878252e-40
7.0717397 -5.7203932 0.12614828 6.4536941e-40
7.0501614 -5.6844673 0.1125427 6.4536941e-40
7.0377026 -5.6635137 0.10827218 3.6878252e-40
7.0379052 -5.7139263 0.13495679 5.5317378e-40
7.0293036 -5.6881781 0.12460311 2.7658689e-40
7.0272336 -5.6655455 0.11348413 2.7658689e-40
6.9450722 -5.4199553 0.06127638 3.6878252e-40
7.1426444 -5.7003574 0.14628762 3.6878252e-40
7.128427 -5.6520729 0.15906151 2.7658689e-40
7.1187768 -5.7019072 0.15326518 3.6878252e-40
7.0973835 -5.7116299 0.15645579 3.6878252e-40
7.0639038 -5.7420979 0.17535125 2.7658689e-40
7.072547 -5.7189388 0.15645579 3.6878252e-40
7.0463872 -5.7480645 0.1713172 3.6878252e-40
7.041482 -5.7286654 0.1535506 3.6878252e-40
7.0168262 -5.7567639 0.1713172 1.8439126e-40
7.0116777 -5.7374363 0.1535506 1.8439126e-40
6.9856238 -5.7671642 0.16526601 2.7658689e-40
6.9927921 -5.7413864 0.16153987 1.8439126e-40
7.1154671 -5.6908932 0.17238709 4.6097815e-40
7.1033826 -5.7261667 0.19678254 4.6097815e-40
7.0944347 -5.7077231 0.18018156 2.7658689e-40
7.0677314 -5.7369118 0.19552182 2.7658689e-40
7.078474 -5.7115669 0.18441822 3.6878252e-40
7.043097 -5.7441616 0.19552188 5.5317378e-40
7.0156822 -5.773881 0.2039911 2.7658689e-40
7.0151005 -5.7529802 0.19264035 1.8439126e-40
7.001018 -5.7781963 0.2039911 1.8439126e-40
6.9863005 -5.7603683 0.19804314 2.7658689e-40
6.9840941 -5.7393417 0.18441822 1.8439126e-40
7.1086831 -5.6950026 0.22254892 3.6878252e-40
7.093781 -5.6993885 0.22254892 3.6878252e-40
7.0663571 -5.7322416 0.2207351 2.7658689e-40
7.0791564 -5.7047157 0.21746497 2.7658689e-40
7.0417228 -5.7394915 0.2207351 1.8439126e-40
7.0140462 -5.768321 0.23400913 1.8439126e-40
7.0170884 -5.7467408 0.2207351 1.8439126e-40
7.0007954 -5.7738314 0.22600436 1.8439126e-40
6.9806848 -5.7576571 0.21972668 1.8439126e-40
6.962893 -5.7626896 0.22073516 1.8439126e-40
7.1111608 -5.6887484 0.25000289 6.4536941e-40
7.0890675 -5.7184544 0.2560336 2.7658689e-40
7.0934997 -5.6947641 0.24593568 5.5317378e-40
7.0679908 -5.747076 0.26069188 2.7658689e-40
7.0699782 -5.7263556 0.24468772 4.6097815e-40
7.042284 -5.7559834 0.25402123 2.7658689e-40
7.0438161 -5.7344775 0.2425866 1.8439126e-40
7.0227313 -5.7617369 0.25402117 1.8439126e-40
7.0110621 -5.7444544 0.24090573 1.8439126e-40
6.9997382 -5.7678328 0.25735661 2.7658689e-40
6.9813361 -5.7525935 0.24393123 1.8439126e-40
6.9679346 -5.7302833 0.2530534 1.8439126e-40
6.9620686 -5.7598877 0.23586303 2.7658689e-40
6.9536734 -5.7265463 0.25203231 1.8439126e-40
7.112731 -5.6825557 0.27847379 5.5317378e-40
7.0927572 -5.712801 0.27872556 2.7658689e-40
7.0910101 -5.6899714 0.27338973 3.6878252e-40
7.0718045 -5.7641487 0.29160994 2.7658689e-40
7.0638227 -5.7449465 0.27736858 1.8439126e-40
7.078114 -5.717618 0.27620417 2.7658689e-40
7.0521436 -5.7689362 0.29657152 2.7658689e-40
7.0473471 -5.7491236 0.28070396 1.8439126e-40
7.0423503 -5.729496 0.26948068 2.7658689e-40
7.0236101 -5.780859 0.29136285 1.8439126e-40
7.0216408 -5.7580309 0.27403319 1.8439126e-40
6.9990988 -5.7626505 0.28403932 2.7658689e-40
6.9795771 -5.7466159 0.27620429 2.7658689e-40
6.967103 -5.727458 0.26830569 3.6878252e-40
6.9593196 -5.7505474 0.28628954 2.7658689e-40
6.9488926 -5.7166748 0.27571857 1.8439126e-40
6.9353757 -5.685998 0.27277422 1.8439126e-40
7.12082 -5.6262236 0.29861805 3.6878252e-40
7.1202574 -5.6970968 0.31654546 3.6878252e-40
7.1137109 -5.6709204 0.3045238 4.6097815e-40
7.0954957 -5.7274356 0.31805983 2.7658689e-40
7.0944219 -5.7075415 0.30242601 2.7658689e-40
7.069581 -5.7352915 0.31691623 2.7658689e-40
7.0770149 -5.713882 0.29637483 2.7658689e-40
7.0459437 -5.7657676 0.32137936 1.8439126e-40
7.0252976 -5.7731748 0.31476399 1.8439126e-40
7.0158367 -5.7503414 0.32072809 1.8439126e-40
6.9975986 -5.7575541 0.31155589 1.8439126e-40
