# .PCD v0.7 - Point Cloud Data file format
VERSION 0.7
FIELDS x y z rgb
SIZE 4 4 4 4
TYPE F F F F
COUNT 1 1 1 1
WIDTH 1011
HEIGHT 1
VIEWPOINT 0 0 0 1 0 0 0
POINTS 1011
DATA ascii
2.1623275 -0.095911928 -1.1318638 7.923425e-39
2.1762223 -0.075708427 -1.130392 1.0868619e-38
2.1967607 -0.061882567 -1.1304599 1.8252835e-38
2.1110582 0.11503486 -1.1144104 1.2620737e-38
2.1070013 0.1369402 -1.1141272 7.7401029e-39
2.0876346 0.17139693 -1.1051158 7.8337264e-39
2.0998595 0.16205211 -1.1178107 7.8337279e-39
2.0874946 0.19218937 -1.1056601 7.9266508e-39
2.0982757 0.19726238 -1.1239737 8.1106707e-39
2.086236 0.2229948 -1.1105584 8.4780267e-39
2.0998595 0.2290789 -1.1178107 8.6613515e-39
2.0862358 0.24445136 -1.1105584 8.8428589e-39
2.0946281 -0.21073394 -1.0779022 1.6962148e-38
2.1142833 -0.2125688 -1.0817738 1.7510309e-38
2.088557 -0.19416113 -1.078151 1.1427581e-38
2.0873294 -0.16379999 -1.0741624 8.8457218e-39
2.106195 -0.15696147 -1.0931586 8.6613277e-39
2.0967262 -0.14329907 -1.069738 8.4783756e-39
2.1148767 -0.1351234 -1.0895078 8.2936298e-39
2.124819 -0.11385932 -1.0809525 8.2003454e-39
2.140434 -0.10041956 -1.095188 7.8326503e-39
2.154398 -0.086568803 -1.09442 7.7386666e-39
2.1783183 -0.074348621 -1.1017816 8.7427305e-39
2.2000613 -0.061882567 -1.1176167 1.6952423e-38
2.0946281 0.11801101 -1.0779022 1.1421457e-38
2.1083066 0.11369101 -1.0849411 1.3359017e-38
2.0663593 0.14968073 -1.0633551 8.1096029e-39
2.0883729 0.13445871 -1.0746925 7.8337419e-39
2.106195 0.12726606 -1.0931586 7.1915926e-39
2.0663593 0.16631192 -1.0633551 8.2929095e-39
2.0874667 0.16583486 -1.0874037 8.2939913e-39
2.0659454 0.19791119 -1.0649658 8.753173e-39
2.084193 0.19319999 -1.0863657 8.386917e-39
2.0653245 0.2245211 -1.067382 9.3988956e-39
2.0831516 0.22257064 -1.0904194 8.845733e-39
2.0642896 0.2411523 -1.0714089 9.6769272e-39
2.0779543 0.24274862 -1.0785011 9.4914667e-39
2.0932605 -0.19040979 -1.051083 1.4007965e-38
2.1213362 -0.19556332 -1.0543292 1.520724e-38
2.0710163 -0.16527247 -1.0452337 9.8591576e-39
2.0956998 -0.17219999 -1.0415913 1.1889611e-38
2.1188657 -0.17817248 -1.0438542 1.3637008e-38
2.0729828 -0.1463545 -1.0375825 9.1223031e-39
2.0901678 -0.13179867 -1.0493432 8.3858226e-39
2.0967453 -0.11338532 -1.0375235 8.5684272e-39
2.1223865 -0.10303078 -1.0569372 7.7397372e-39
2.1326125 -0.085394487 -1.0506266 8.1096001e-39
2.155221 -0.07940843 -1.0655046 9.1183402e-39
2.1816788 -0.072817124 -1.0779917 1.1238842e-38
2.1051185 0.11379632 -1.0370818 1.0228666e-38
2.1146421 0.11453944 -1.060289 1.0599595e-38
2.0710902 0.14492896 -1.0449461 8.1085295e-39
2.0941262 0.13229266 -1.0477144 8.1088784e-39
2.1135862 0.12726606 -1.0643977 7.9226767e-39
2.0633881 0.16573538 -1.0436693 7.9252102e-39
2.0450222 0.188811 -1.0298692 8.6620452e-39
2.0592439 0.19970538 -1.0428306 8.6609788e-39
2.0677619 0.22339617 -1.0425584 9.858436e-39
2.0967453 0.23098531 -1.0375235 1.1334652e-38
2.1188657 0.2375633 -1.0438542 1.5110002e-38
2.069464 0.2411523 -1.0512742 9.8566703e-39
2.0862882 0.24274862 -1.0460724 1.0134325e-38
2.1372178 -0.19071437 -1.0327067 1.5392336e-38
2.1547663 -0.20205688 -1.028704 1.7689279e-38
2.0767083 -0.15799633 -1.0230855 1.1150271e-38
2.1009195 -0.15959999 -1.0212806 1.0319437e-38
2.1315677 -0.17519687 -1.0288653 9.4896633e-39
2.0535362 -0.14229235 -0.99674082 1.0596002e-38
2.0697546 -0.13434373 -1.0126462 9.0315634e-39
2.079813 -0.11641835 -1.0110047 8.0167038e-39
2.1009231 -0.1055245 -1.0166744 8.0163311e-39
2.1216815 -0.096156575 -1.0328977 8.0174087e-39
2.1322672 -0.085211001 -1.031881 8.1063505e-39
2.1620867 -0.074237801 -1.0387881 9.4839053e-39
2.0808477 0.11226055 -1.0069778 1.0042467e-38
2.0925386 0.11300366 -1.0217507 1.0787557e-38
2.0255702 0.14584954 -0.9890511 7.8340964e-39
2.0521741 0.13955596 -1.0020415 8.0170457e-39
2.0691853 0.13387035 -1.0148613 8.01668e-39
2.0904551 0.12555963 -1.0298579 8.0166856e-39
2.0202806 0.1617211 -0.9908846 8.0159695e-39
2.0405576 0.17164771 -1.0097454 8.4769379e-39
2.0505395 0.19045284 -1.0084021 9.2148798e-39
2.0723565 0.2031156 -1.0118961 9.4918227e-39
2.0972574 0.22012569 -1.0194604 1.0409836e-38
2.1294484 0.23409173 -1.0328066 1.3634507e-38
2.0891268 -0.18294312 -0.9747622 1.585725e-38
2.1294246 -0.18665689 -1.0027673 1.5302647e-38
2.1579764 -0.1977578 -1.0162127 1.814846e-38
2.0553679 -0.15838532 -0.97086442 9.3077999e-39
2.0700488 -0.15702018 -0.99275225 8.7539087e-39
2.1071992 -0.17221467 -0.99684536 9.85845e-39
2.0511432 -0.13906504 -0.9748044 9.4907311e-39
2.0721059 -0.12396332 -0.98474813 8.9397153e-39
2.0860224 -0.11433946 -0.98684299 8.3854625e-39
2.1024525 -0.099482112 -0.99120986 7.9245026e-39
2.1170077 -0.081483789 -0.99081868 7.4635174e-39
2.1283686 -0.080601834 -1.006876 7.5539166e-39
2.0603471 0.11492844 -0.97023809 7.5527969e-39
2.0731342 0.10536882 -0.98074609 1.2993806e-38
2.0257831 0.13740642 -0.96712983 8.8460847e-39
2.0476243 0.12663853 -0.97756046 8.2017761e-39
2.0199499 0.1653315 -0.96873522 9.7680578e-39
2.0326288 0.19041468 -0.96158403 9.4925429e-39
2.0518694 0.19642937 -0.97510314 9.3099313e-39
2.0750241 0.2042789 -0.99214149 9.3996172e-39
2.0828226 0.2192646 -0.98804474 1.03162e-38
2.08758 -0.18533824 -0.96203285 1.6864917e-38
2.0386791 -0.15395229 -0.93804073 1.1518669e-38
2.0552032 -0.16462962 -0.95007741 1.0689291e-38
2.0813622 -0.17354864 -0.94872957 1.3448711e-38
2.0355029 -0.13463686 -0.94017428 1.0136466e-38
2.0494833 -0.12236698 -0.95626491 8.1089064e-39
2.0396876 -0.11343852 -0.9341169 8.7564072e-39
2.0579002 -0.10631853 -0.94601226 8.0167024e-39
2.0862827 -0.09740001 -0.95770645 7.648266e-39
2.1050394 -0.092077062 -0.97310746 7.7400959e-39
2.0949223 -0.078166604 -0.95221132 7.2809394e-39
2.1075397 -0.071987517 -0.96337885 9.5728289e-39
2.0611131 0.1064688 -0.94616461 9.7658942e-39
2.0790997 0.097517811 -0.95753407 1.3176408e-38
2.0123553 0.13926384 -0.93199646 9.6740545e-39
2.0285907 0.12911743 -0.9421432 9.0304802e-39
2.0054345 0.16252142 -0.93335992 1.0595282e-38
2.021745 0.17713028 -0.947689 1.0780041e-38
2.0287287 0.19129229 -0.93658459 1.0411985e-38
2.0569522 0.20458716 -0.9553256 9.8598653e-39
2.060123 0.21299326 -0.95236224 1.0683523e-38
2.0854762 -0.18181285 -0.93272132 1.7782577e-38
2.0394015 -0.1536269 -0.91648024 1.1793453e-38
2.0661278 -0.15956512 -0.91962159 1.1792026e-38
2.096421 -0.16904497 -0.92528677 1.3729232e-38
2.0186028 -0.13395871 -0.90065521 1.0872949e-38
2.0300949 -0.13284771 -0.91519743 1.0689277e-38
2.0217183 -0.10804954 -0.89556307 9.4925289e-39
2.0387385 -0.10504954 -0.91370481 9.3070601e-39
2.0576053 -0.097893581 -0.92466068 9.1234031e-39
2.0467465 -0.089130275 -0.90664983 8.8464448e-39
2.0679214 -0.077180602 -0.91665834 8.111028e-39
2.0929902 -0.070451379 -0.93160599 7.6475429e-39
2.1025805 -0.058209173 -0.92241192 8.4697366e-39
2.1133733 -0.058594491 -0.94067866 1.2713209e-38
2.045738 0.085078895 -0.91057366 1.5481278e-38
2.0227144 0.11205138 -0.89168721 8.846812e-39
2.0378582 0.10495902 -0.90998763 8.5662692e-39
1.9928135 0.14221652 -0.89554411 9.6744077e-39
2.013195 0.13033272 -0.90373021 9.3978194e-39
2.0297608 0.12077065 -0.91649711 8.9368538e-39
1.9929923 0.16089143 -0.89484847 1.0412331e-38
2.0023079 0.16302203 -0.91484594 1.0595288e-38
2.0122478 0.1854945 -0.90429151 1.0596014e-38
2.0345004 0.19556697 -0.91211689 1.0226871e-38
2.1077549 -0.18294312 -0.90227717 1.8521185e-38
2.0790539 -0.16188715 -0.8833856 1.0230461e-38
2.1013067 -0.16757432 -0.90486974 1.1245681e-38
2.0131238 -0.13064483 -0.87275988 1.0872956e-38
2.053133 -0.14584954 -0.88179862 1.078147e-38
2.0657272 -0.14684036 -0.89305645 1.114845e-38
2.0140519 -0.10853604 -0.87316519 9.5832826e-39
2.0468881 -0.079155229 -0.87797493 8.5705824e-39
2.0652196 -0.071380734 -0.89503169 8.3851122e-39
2.0558219 -0.056719262 -0.87133491 7.7415308e-39
2.0752842 -0.049113758 -0.88399214 8.0109585e-39
2.097698 -0.049688075 -0.90391356 9.7576041e-39
2.0286908 0.088040367 -0.86843181 7.9273822e-39
2.0440848 0.077437066 -0.87763482 1.252816e-38
2.0650504 0.070700914 -0.89569014 1.8152062e-38
2.0026462 0.11851377 -0.85728282 8.9382817e-39
2.018815 0.10959449 -0.87170565 8.5705754e-39
2.0374429 0.099300303 -0.88660479 8.6620438e-39
1.9930687 0.13783193 -0.8684364 9.4907423e-39
2.0097306 0.12723669 -0.88596338 8.9400824e-39
1.9966966 0.16502753 -0.87093788 1.0504519e-38
2.0126996 0.18290275 -0.87441033 1.0780004e-38
2.0495477 0.19415779 -0.881688 9.6787363e-39
2.0828233 0.20522936 -0.88277912 1.2234658e-38
2.0618725 -0.18636329 -0.84779167 1.8426139e-38
2.0738492 -0.18762937 -0.86145222 1.8516529e-38
2.0618725 -0.16610642 -0.84779167 1.0598893e-38
2.0728338 -0.16723488 -0.86540264 1.1610516e-38
2.027144 -0.13164954 -0.84632725 1.1055188e-38
2.0598557 -0.14584954 -0.85563946 9.3981851e-39
2.0075626 -0.1077911 -0.83815217 1.0320492e-38
2.017648 -0.095427528 -0.85515523 9.4925303e-39
2.0098569 -0.08427646 -0.82922447 9.3063314e-39
2.025296 -0.075264826 -0.84414351 8.9382916e-39
2.044791 -0.064411007 -0.85801214 8.2943529e-39
2.0356634 -0.056025688 -0.84130061 8.0188394e-39
2.0536613 -0.045752902 -0.85161883 7.7393826e-39
2.072834 -0.036710091 -0.8654027 8.653416e-39
2.0758798 -0.024473395 -0.85355115 1.2065356e-38
2.0366592 0.056025688 -0.8374247 1.8793472e-38
2.0105126 0.082959637 -0.82667369 8.2939927e-39
2.0296497 0.078081146 -0.84595197 9.3974606e-39
2.0457931 0.064411007 -0.85411316 1.7142596e-38
2.0036068 0.106142 -0.83747429 8.8468078e-39
2.017648 0.095427528 -0.85515523 8.2021699e-39
1.9810686 0.13971576 -0.83203971 9.5836512e-39
1.9917269 0.13036332 -0.84754276 9.4900108e-39
1.9823476 0.15611009 -0.83181041 1.0411973e-38
1.9964969 0.16669799 -0.83942765 1.0320496e-38
2.0238853 0.18319817 -0.84494615 9.954956e-39
2.0511441 0.19364403 -0.8520391 8.5720454e-39
2.0825522 0.20480122 -0.86508566 9.4813956e-39
2.0829241 0.21482293 -0.85426366 1.2711418e-38
2.1029606 0.22313395 -0.86468613 1.6586534e-38
2.057837 -0.18557554 -0.8259961 1.796696e-38
2.0403848 -0.16517514 -0.81042951 1.1981454e-38
2.05914 -0.16392975 -0.83431953 1.0322299e-38
2.0164123 -0.12641469 -0.80371696 9.9509833e-39
2.0337238 -0.13557065 -0.8167057 9.5825694e-39
2.0583482 -0.14538716 -0.83338207 8.9379244e-39
1.9870316 -0.10127279 -0.79617333 1.0505261e-38
2.0043597 -0.10902752 -0.81330937 1.0688191e-38
1.985974 -0.081695415 -0.79158467 9.3077803e-39
2.0101712 -0.074460767 -0.81059152 8.9379244e-39
2.0255651 -0.063618347 -0.8243472 8.7564044e-39
2.0154288 -0.055306423 -0.8075431 8.7538695e-39
2.0330105 -0.042497858 -0.81412488 8.2018013e-39
2.0558331 -0.034957796 -0.83379406 7.9259109e-39
2.0446279 -0.024011008 -0.80641758 7.097609e-39
2.0636365 -0.022244036 -0.82686573 8.5565302e-39
2.03017 0.049746789 -0.81345981 1.6589416e-38
2.0097744 0.077228621 -0.80865353 8.1088882e-39
2.0265548 0.063618347 -0.82049614 9.9305188e-39
1.9892119 0.10917485 -0.7976377 8.8460847e-39
2.0003276 0.10433551 -0.81407613 8.8460847e-39
1.9750071 0.13568592 -0.80379266 9.7666019e-39
1.9857384 0.15839389 -0.80120552 1.0320849e-38
2.0059726 0.17004918 -0.81300271 1.0413398e-38
2.0164123 0.18172112 -0.80371696 9.8613086e-39
2.0354202 0.19015475 -0.81412351 9.3996284e-39
2.0558252 0.20154127 -0.82632577 8.6635053e-39
2.0683262 0.21715374 -0.82267886 9.6718825e-39
2.080956 0.22433946 -0.83379847 1.3723062e-38
2.0232952 -0.15406789 -0.77693403 9.5836512e-39
2.0394011 -0.16647421 -0.78925753 1.3271838e-38
1.9916844 -0.13216881 -0.76065969 9.3066985e-39
2.0165036 -0.13401148 -0.78377491 9.3063384e-39
2.0334826 -0.14314128 -0.79353905 9.0294278e-39
1.9877518 -0.10219903 -0.7706058 1.0412683e-38
2.0081463 -0.11779817 -0.78365189 9.8587723e-39
1.9901196 -0.07517492 -0.77110153 9.3989068e-39
2.0068431 -0.065443434 -0.78872257 8.5698762e-39
1.9951109 -0.051925387 -0.76473558 8.5705838e-39
2.0171492 -0.044676453 -0.78344005 8.1099616e-39
2.0344722 -0.031809174 -0.78968805 7.373491e-39
2.0242784 -0.019752294 -0.77310789 7.1883725e-39
2.0354619 -0.015904587 -0.78583705 8.0098599e-39
2.0588191 -0.016102752 -0.80342627 6.357523e-39
2.0374413 0 -0.77813506 1.4000321e-38
2.0188198 0.050703015 -0.7794264 1.215866e-38
2.0341425 0.042412233 -0.79097176 1.7416669e-38
2.0860324 0.032631192 -0.81404585 1.8609829e-38
1.9903573 0.079998955 -0.77079761 7.834088e-39
2.0160136 0.067984402 -0.78568226 7.7411847e-39
1.9806936 0.1045633 -0.77296007 8.7542464e-39
1.9612573 0.13792293 -0.75718868 9.8602422e-39
1.9699254 0.13403699 -0.77568895 9.6744077e-39
1.9871993 0.16454114 -0.77019823 1.0228302e-38
2.0061915 0.17277065 -0.79125798 1.0597079e-38
2.017241 0.188217 -0.78090537 9.4006976e-39
2.0354619 0.20410888 -0.78583705 8.9393635e-39
2.0588191 0.20933577 -0.80342627 8.9393776e-39
2.0516005 0.22010091 -0.77928632 8.2940152e-39
2.0668888 0.22788419 -0.79702383 1.040837e-38
2.0076041 -0.15611009 -0.73353231 1.0873992e-38
2.0242903 -0.16552332 -0.75217009 1.3268975e-38
2.0394206 -0.17495047 -0.77043301 1.7608611e-38
1.9924916 -0.13586085 -0.74446148 1.0044629e-38
1.9822842 -0.10425321 -0.74065608 1.0227581e-38
1.9798713 -0.07416486 -0.741005 9.9520805e-39
1.9904392 -0.044933207 -0.742872 8.5713069e-39
2.0211051 -0.031508259 -0.75934166 8.109247e-39
2.0066328 -0.023416515 -0.73731226 7.8337293e-39
2.0251215 -0.014197799 -0.75415802 7.2805639e-39
2.0274515 0.0070177373 -0.74915481 1.206354e-38
2.0043662 0.049434867 -0.74613208 9.0340815e-39
2.0154762 0.039266057 -0.75512916 1.5850076e-38
1.9874067 0.074414402 -0.74382442 8.1092427e-39
1.968886 0.11110459 -0.72750372 9.675474e-39
1.9778546 0.10298479 -0.74483448 9.2145113e-39
1.966025 0.13409175 -0.73863554 1.0320139e-38
1.968886 0.15707889 -0.72750372 1.1057342e-38
1.9829775 0.16651212 -0.74389249 1.0504534e-38
2.0009274 0.18955231 -0.74210221 9.8613142e-39
2.0194623 0.20005032 -0.75454164 9.4921772e-39
2.0285106 0.21780773 -0.74619359 9.8580857e-39
2.0470738 0.22485065 -0.76315171 9.4875081e-39
2.037061 -0.18435474 -0.72336817 1.8425774e-38
2.0053427 -0.15953578 -0.7162171 1.1422526e-38
2.0247612 -0.17277065 -0.7190004 1.6594829e-38
1.9755613 -0.12259817 -0.70152938 1.0872235e-38
1.9891747 -0.13682751 -0.71570903 1.1149902e-38
1.9727157 -0.10229724 -0.7038362 1.0412326e-38
1.9834473 -0.10639926 -0.72307223 1.032049e-38
1.9713918 -0.074950472 -0.70329046 1.0320489e-38
1.9840231 -0.069390826 -0.72083199 1.0044982e-38
1.989781 -0.042468116 -0.7147482 9.0312018e-39
2.0060246 -0.015552703 -0.71646625 8.0188408e-39
2.0078466 0.011684405 -0.7130034 1.0688164e-38
2.0218291 0.011779818 -0.7304095 1.2343374e-38
1.9951435 0.043351434 -0.71586245 1.1242084e-38
1.9761333 0.075091377 -0.69930303 8.8471707e-39
1.9859236 0.072233528 -0.71818477 8.4783826e-39
1.9723045 0.10498977 -0.70731443 9.3070657e-39
1.9840231 0.092521101 -0.72083199 9.2156001e-39
1.9513422 0.13248624 -0.69532955 1.0135383e-38
1.9600989 0.13332111 -0.71348447 1.0503814e-38
1.9703815 0.16181454 -0.70685047 1.0688192e-38
1.9849826 0.17733212 -0.7170983 1.0505962e-38
1.9900106 0.19157283 -0.71320212 1.0504523e-38
2.0218291 0.20418349 -0.7304095 1.0595284e-38
2.0134325 0.21074863 -0.71085274 1.0319431e-38
2.0309088 0.22450829 -0.72119194 1.2253007e-38
2.0202324 -0.18733212 -0.68439323 1.7689288e-38
2.0449274 -0.18962204 -0.6927591 1.7965515e-38
2.0117381 -0.16465199 -0.68697965 1.2991638e-38
2.0296478 -0.17277065 -0.69998527 1.5859777e-38
1.9791472 -0.12720552 -0.67552274 1.0873305e-38
1.9928987 -0.14167294 -0.68629509 1.1241731e-38
1.9592093 -0.099364683 -0.66471684 1.0412333e-38
1.9682368 -0.10570458 -0.68181807 1.0228307e-38
1.9585028 -0.079491742 -0.66746646 1.0229026e-38
1.9716027 -0.067873761 -0.67836469 1.0136107e-38
1.9751561 -0.043027855 -0.67242515 9.3070601e-39
1.9911236 -0.040092476 -0.69320244 9.1226646e-39
1.9836668 -0.017240368 -0.66998911 7.9255676e-39
2.0001206 -0.014510092 -0.69083697 8.201437e-39
1.9831899 0.022987157 -0.67184442 6.1727604e-39
1.9977452 0.0099300137 -0.68609011 7.3727609e-39
1.9769173 0.043552291 -0.67214656 7.3713134e-39
1.9913795 0.039835472 -0.6922068 7.5539208e-39
1.9727393 0.072473392 -0.67635107 8.2939997e-39
1.9594449 0.11355963 -0.6638003 9.3070671e-39
1.9696251 0.10121519 -0.67641586 8.7542534e-39
1.9504422 0.1320101 -0.66870081 1.0043553e-38
1.9547095 0.15440576 -0.6684522 1.0780748e-38
1.9733715 0.17047586 -0.67790949 1.0872587e-38
1.9812828 0.18772846 -0.67926568 1.0781473e-38
1.9993188 0.20431873 -0.68369722 1.0596386e-38
2.0116503 0.22000737 -0.68794286 1.1515097e-38
2.0482256 -0.18638489 -0.6668666 1.640324e-38
2.0671315 -0.19880734 -0.66260469 1.7873326e-38
1.9917723 -0.1532477 -0.63844889 1.0780782e-38
2.0080683 -0.16163304 -0.65628415 1.0873304e-38
2.0374665 -0.17277065 -0.66956103 1.1327086e-38
1.9657261 -0.12365382 -0.639359 1.0597789e-38
1.9811839 -0.13825075 -0.64750892 1.0964789e-38
1.9984161 -0.14649174 -0.66482615 1.0873314e-38
1.9629517 -0.10208808 -0.64111513 1.0135743e-38
1.963667 -0.071874313 -0.64134443 9.582205e-39
1.9652864 -0.04138618 -0.64106989 8.7524556e-39
1.9746366 -0.045710091 -0.65691531 9.3063454e-39
1.9667939 -0.018169541 -0.63520402 8.1095861e-39
1.9795234 -0.013078898 -0.65167576 7.5560704e-39
1.9629712 0.013574312 -0.63079482 6.8195829e-39
1.9822434 0.011453944 -0.65142262 7.0021693e-39
1.9984161 0 -0.66482615 7.0021819e-39
1.9599469 0.041776393 -0.6393491 8.0163325e-39
1.9746366 0.038091742 -0.65691531 7.2776968e-39
1.9568994 0.072369911 -0.63835073 8.385824e-39
1.9746366 0.060946789 -0.65691531 8.1099658e-39
1.9558079 0.10171652 -0.63878196 8.754252e-39
1.9586661 0.13206789 -0.63971257 9.8598793e-39
1.9657261 0.16024525 -0.639359 1.0412689e-38
1.9755847 0.17141284 -0.65322602 1.1240287e-38
1.9858601 0.1897057 -0.64699137 1.0964063e-38
2.0089104 0.20646115 -0.65881044 1.032015e-38
2.0205247 0.21958093 -0.66236383 1.215649e-38
2.0394213 0.22774313 -0.66195494 1.5850418e-38
2.0908833 0.2415413 -0.67865849 1.7507417e-38
2.0506439 -0.18736441 -0.63917792 1.7413792e-38
2.0691109 -0.19880734 -0.65490264 1.860979e-38
1.9914361 -0.15536147 -0.61565131 1.1150243e-38
2.0254397 -0.17190988 -0.62931097 1.2625028e-38
1.9689965 -0.13148844 -0.61056274 1.0504156e-38
1.9822215 -0.14474861 -0.62740093 1.151652e-38
1.9618776 -0.10164221 -0.60913777 9.1219457e-39
1.9618776 -0.071533024 -0.60913777 9.207296e-39
1.9647433 -0.041462384 -0.61003906 7.8301307e-39
1.966893 -0.015097248 -0.61071366 7.0961656e-39
1.9487553 0.026188992 -0.60897189 7.741891e-39
1.9628909 0.0082836691 -0.61182326 7.2791135e-39
1.9496868 0.041154131 -0.60534841 6.4500871e-39
1.9594752 0.048170276 -0.61547178 6.9099877e-39
1.9609741 0.070750087 -0.60964006 7.8333775e-39
1.9609741 0.10236183 -0.60964006 8.4780309e-39
1.9611614 0.1317156 -0.6089111 9.3070699e-39
1.9705278 0.16234031 -0.61103207 1.0043185e-38
1.9822215 0.16760367 -0.62740093 1.0504524e-38
1.9749908 0.18737338 -0.60330814 1.0042106e-38
1.9886332 0.19573112 -0.61998409 1.0412333e-38
2.0060923 0.20817249 -0.63495642 1.023045e-38
1.992702 0.21393028 -0.61072516 1.2061393e-38
2.0150073 0.21937494 -0.63508654 1.3632676e-38
1.9765811 -0.1586592 -0.57958925 1.2801838e-38
1.9965055 -0.16808808 -0.59592533 1.4565819e-38
1.968655 -0.1317156 -0.57975215 1.0861061e-38
1.9543428 -0.10475596 -0.58723068 1.0032006e-38
1.9693035 -0.10074072 -0.57722878 1.0858889e-38
1.9543428 -0.082308263 -0.58723068 1.0311111e-38
1.9688423 -0.070750095 -0.57902318 6.5350703e-39
1.9683874 -0.043009173 -0.58079356 4.3259765e-39
1.954828 -0.013889909 -0.57845455 3.4980291e-39
1.967718 -0.022579817 -0.58339697 4.0504714e-39
1.9481499 0.014909511 -0.58087921 4.2337809e-39
1.950855 0.047791556 -0.5815171 4.0493938e-39
1.9556729 0.079635911 -0.58205414 4.6951164e-39
1.9574468 0.10475596 -0.57515222 3.6784533e-39
1.968655 0.10612514 -0.57975215 4.9713403e-39
1.972502 0.13362098 -0.58200037 6.7226929e-39
1.9744375 0.16236882 -0.58537388 9.7604558e-39
1.9954951 0.16379449 -0.57575083 9.1086124e-39
1.9789951 0.18831974 -0.58772683 1.067847e-38
1.9952765 0.19917798 -0.58262849 9.482441e-39
2.0012922 0.21806973 -0.58935213 1.0765624e-38
1.9289852 -0.17641102 -0.54126704 1.140993e-38
1.9559159 -0.16759817 -0.54495031 6.6366084e-39
1.9756802 -0.15805873 -0.55241567 5.4287185e-39
1.9655174 -0.14591008 -0.5437482 6.6197017e-39
1.9765323 -0.12974343 -0.55280858 1.0123831e-38
1.978314 -0.10172477 -0.55120653 5.7985716e-39
1.975881 -0.073115602 -0.55163461 2.9437665e-39
1.9655174 -0.052377984 -0.5437482 2.2080022e-39
1.9748372 -0.039891012 -0.55569607 3.0359594e-39
1.9589387 -0.016197553 -0.56131119 2.9455644e-39
1.9759144 -0.016934862 -0.55150443 2.6682586e-39
1.9586817 0.014910092 -0.55347317 3.3118274e-39
1.9583949 0.048540365 -0.55338413 3.3114757e-39
1.9629097 0.077818722 -0.55389404 3.3121861e-39
1.9628565 0.1058249 -0.55410111 3.036688e-39
1.9752119 0.10913578 -0.55423808 3.2199863e-39
1.9838562 0.13035506 -0.55274069 3.404023e-39
2.0011837 0.14474861 -0.55361509 3.3114687e-39
1.9886523 0.15141283 -0.55014837 3.219273e-39
2.0035746 0.16672972 -0.55914706 3.5859074e-39
2.0024059 0.19446878 -0.55789906 9.7550594e-39
2.0069816 0.22168441 -0.55917823 1.1044716e-38
2.0262425 0.23901285 -0.55654824 1.5943299e-38
1.985402 -0.18386938 -0.52422702 1.4099424e-38
1.9673798 -0.17584038 -0.53650111 8.381487e-39
1.9860413 -0.16310859 -0.5252465 7.8243658e-39
1.9663812 -0.14202936 -0.53235126 3.9564807e-39
1.9830801 -0.1302103 -0.52362126 3.8664361e-39
1.9725015 -0.10288532 -0.51657164 3.4962158e-39
1.981635 -0.1021468 -0.52924472 3.1277949e-39
1.9729671 -0.089790829 -0.5147599 3.4047349e-39
1.9827055 -0.075266056 -0.52507919 3.3114743e-39
1.9665476 -0.048559628 -0.5246731 3.1274389e-39
1.968812 -0.018433515 -0.52449894 2.9441281e-39
1.963213 0.014914495 -0.52378941 2.9430477e-39
1.9701732 0.048636694 -0.52563047 2.9430589e-39
1.9701732 0.078566976 -0.52563047 3.0355992e-39
1.9701732 0.099767588 -0.52563047 3.0359748e-39
1.9823306 0.10988846 -0.52653706 3.3121805e-39
1.9899554 0.12749036 -0.52699918 3.2203506e-39
2.0068724 0.14284404 -0.5314793 3.2199849e-39
1.9924212 0.15141283 -0.5354836 3.4973005e-39
2.0144279 0.16545789 -0.53275967 3.0363167e-39
2.0165396 0.19519633 -0.53403944 8.7405655e-39
2.0170884 0.21984379 -0.53305244 1.0217125e-38
2.0306563 0.23592882 -0.5393731 1.1318069e-38
2.0329592 0.24672295 -0.5304122 1.6215581e-38
2.0016334 -0.1875837 -0.49963638 1.4091867e-38
2.0151711 -0.19591928 -0.51525825 1.6768072e-38
2.0009007 -0.16276881 -0.5024879 1.0492277e-38
2.0001743 -0.13244219 -0.50230122 5.5219932e-39
1.9921745 -0.10176881 -0.50028509 3.4040244e-39
1.9892623 -0.071502753 -0.49956512 3.1281648e-39
1.9788646 -0.042401221 -0.49181074 2.8522898e-39
1.9899908 -0.046832215 -0.49673021 3.1277935e-39
1.9744735 -0.018679997 -0.49202442 3.0363209e-39
1.9622512 0.014820696 -0.48896164 2.8526499e-39
1.9622434 0.048244763 -0.48899058 2.8522982e-39
1.9768052 0.078505322 -0.49259412 2.7593837e-39
1.9774899 0.10048021 -0.49715978 2.6675384e-39
1.990199 0.10913578 -0.49592024 2.7600899e-39
1.9936247 0.1320211 -0.50066918 3.1274445e-39
2.0037272 0.15141283 -0.49148929 2.8533632e-39
2.02016 0.16435441 -0.50732446 3.0370342e-39
2.0348783 0.17733212 -0.52294475 2.6707656e-39
2.0241942 0.19782886 -0.51228774 7.4537742e-39
2.0398679 0.19121028 -0.50352937 4.1394273e-39
2.0253386 0.22527413 -0.50783503 1.0030953e-38
2.0348783 0.23901285 -0.52294475 1.0114886e-38
2.0241945 0.24519634 -0.5122878 1.2607331e-38
2.0426033 0.25110278 -0.5102945 1.3813077e-38
2.0239387 -0.21331376 -0.46507204 1.6214172e-38
2.0080099 -0.18926607 -0.47482479 1.2615645e-38
2.0229905 -0.20188622 -0.46876132 1.4833379e-38
2.0085008 -0.16352588 -0.47291392 9.9412415e-39
2.0201461 -0.15236697 -0.47982922 9.4817081e-39
2.0047851 -0.13226056 -0.47230762 4.3252576e-39
1.9967558 -0.10160917 -0.4704062 3.4043789e-39
1.9887978 -0.067343116 -0.45315969 3.4047447e-39
1.9962876 -0.074638844 -0.47222862 3.1288753e-39
1.9869351 -0.048636697 -0.46040672 3.2199961e-39
1.9708567 -0.018579815 -0.45668104 2.8522912e-39
1.9531353 0.024991561 -0.44729456 3.1278005e-39
1.9662368 0.011355842 -0.45738113 2.9437679e-39
1.9545989 0.040427521 -0.44159928 3.2207038e-39
1.9648243 0.049164612 -0.45690933 2.9434106e-39
1.9754232 0.077381276 -0.45699087 3.0352433e-39
1.9884871 0.10725015 -0.45436749 3.0359622e-39
1.9958192 0.10537249 -0.47405106 2.5757029e-39
2.0004616 0.13274422 -0.47205681 2.6675496e-39
2.0084381 0.15141283 -0.47315833 3.0359678e-39
2.0288825 0.16826421 -0.47797474 2.8526555e-39
2.0327768 0.2068844 -0.47889224 8.00442e-39
2.045433 0.19275229 -0.48187381 3.3114799e-39
2.0305831 0.22579266 -0.47838813 9.4791886e-39
2.0337305 0.24519634 -0.47518161 8.9281868e-39
2.047013 0.25655735 -0.48225519 8.0948318e-39
2.0159755 -0.21197797 -0.44382882 1.5018132e-38
2.0340655 -0.21776147 -0.44977173 1.4371682e-38
2.0160613 -0.18926606 -0.44349551 1.0955749e-38
2.0284896 -0.20264807 -0.44736341 1.2803639e-38
2.0156615 -0.16823651 -0.4450509 9.757932e-39
2.0290854 -0.15672031 -0.44504443 8.2856592e-39
2.0103183 -0.1313857 -0.44334453 3.8639208e-39
2.0315235 -0.14474861 -0.43555769 4.1419552e-39
2.0049834 -0.10165046 -0.44140461 3.3121805e-39
1.9953163 -0.071832657 -0.42779493 3.3121903e-39
2.0048115 -0.076018721 -0.43906033 3.036688e-39
1.9857107 -0.047709353 -0.42981657 3.3121847e-39
1.9716425 -0.018497247 -0.42650306 2.9441267e-39
1.9564805 0.02568624 -0.42322937 2.9437651e-39
1.9709101 0.0073944959 -0.42634037 3.1277907e-39
1.9578266 0.047752753 -0.42351541 3.0356062e-39
1.9611853 0.072034493 -0.41597041 2.9448483e-39
1.9710574 0.08004304 -0.43015018 2.9444826e-39
1.985582 0.10803486 -0.42951417 3.0356006e-39
1.9953163 0.12720367 -0.4277949 3.4947865e-39
2.0062177 0.13715157 -0.44323 3.0356062e-39
2.0126894 0.15363549 -0.44054544 2.8526471e-39
2.0345423 0.16809908 -0.44791642 2.761885e-39
2.0511904 0.17733212 -0.45947146 2.4863869e-39
2.0404058 0.19539082 -0.44920728 3.1259998e-39
2.054924 0.19678114 -0.45240355 2.4842303e-39
2.0383241 0.22694626 -0.45041952 3.9561192e-39
2.0559878 0.21973762 -0.44080287 3.3121805e-39
2.0389421 0.2488514 -0.44887659 4.7869687e-39
2.0531094 0.26471317 -0.45200405 8.2777923e-39
2.0658131 0.27152294 -0.45480084 1.4554222e-38
2.0263395 -0.21197797 -0.40350071 7.81725e-39
2.0392375 -0.21372478 -0.42161131 6.6219662e-39
2.0598261 -0.22359267 -0.42586797 3.596766e-39
2.0241125 -0.18926607 -0.41216627 1.0586975e-38
2.0349367 -0.20264807 -0.42227623 1.1049418e-38
2.0229475 -0.17261066 -0.41669899 9.5735758e-39
2.0375943 -0.15937681 -0.41631845 7.8261398e-39
2.0027661 -0.12720367 -0.3988066 3.7731587e-39
2.0166512 -0.13152398 -0.41365141 3.5880569e-39
2.035316 -0.14474861 -0.42080051 4.5982544e-39
2.0124311 -0.10426535 -0.41311988 3.220345e-39
2.0018346 -0.078566968 -0.40243006 3.3121931e-39
1.9885815 -0.048344951 -0.39976299 3.3118288e-39
1.9646615 -0.022051377 -0.40244406 2.8537415e-39
1.9785351 -0.01795806 -0.39667013 3.0370384e-39
1.966491 0.025726607 -0.39532495 3.0348888e-39
1.9782721 0.0073944959 -0.39769325 3.0363181e-39
1.9637886 0.04770229 -0.39479196 2.9437679e-39
1.964178 0.075526871 -0.39485553 2.9441309e-39
1.9782723 0.088733949 -0.39769331 2.9451987e-39
1.9930001 0.10804036 -0.40064844 3.0363181e-39
2.0024555 0.12969786 -0.40001437 3.4058167e-39
2.0113416 0.13977982 -0.41365042 3.312912e-39
2.0160763 0.15693213 -0.41451064 3.2210667e-39
2.0447431 0.17335778 -0.41625911 3.0366754e-39
2.0461273 0.19539082 -0.42694357 2.9437651e-39
2.0635514 0.19681408 -0.42007655 3.6863566e-39
2.0478435 0.22680663 -0.42026442 3.1281578e-39
2.0636642 0.21588257 -0.41093311 2.6668209e-39
2.0476258 0.24848023 -0.4211126 3.9572038e-39
2.0611055 0.26471317 -0.42088971 5.4240522e-39
2.0627046 0.2775633 -0.41466683 1.5571271e-38
2.0313644 -0.21450152 -0.3839477 8.0113088e-39
2.043849 -0.21712294 -0.38759688 7.1837201e-39
2.0306466 -0.19305138 -0.38674098 1.0678822e-38
2.0466933 -0.19426788 -0.37652898 1.0772815e-38
2.0282238 -0.17412478 -0.39616832 9.4802872e-39
2.0522897 -0.16336986 -0.38918802 7.6396004e-39
2.0713406 -0.16962203 -0.38106334 8.559742e-39
2.0221901 -0.13192478 -0.38348946 3.5880527e-39
2.0106814 -0.10288533 -0.3680065 3.0355978e-39
2.018862 -0.1068778 -0.38438737 3.1281564e-39
2.0078056 -0.078511924 -0.37316969 3.3118288e-39
1.9937624 -0.048289906 -0.37056389 2.8522926e-39
1.9747239 -0.0073504588 -0.36328885 3.1285207e-39
1.9855728 -0.019225689 -0.36928484 3.3121973e-39
1.9718587 0.018951682 -0.36338988 3.0363237e-39
1.9844841 0.0083188079 -0.37352231 3.0366782e-39
1.9690641 0.047666974 -0.36597803 3.0356132e-39
1.9717447 0.075515337 -0.36541229 3.1270774e-39
1.9837939 0.088733949 -0.37620798 3.2178423e-39
1.9765534 0.095555961 -0.35616973 3.0359622e-39
1.9996358 0.10875817 -0.37241673 3.1274473e-39
2.0094705 0.13767926 -0.37271705 3.403307e-39
2.0164263 0.14300551 -0.39386395 2.9448413e-39
2.0186121 0.15554987 -0.38535932 3.3129036e-39
2.0497561 0.17191929 -0.38871711 3.4047349e-39
2.0528023 0.18389726 -0.40096924 3.857451e-39
2.0780635 0.19560611 -0.39407527 5.0714267e-39
2.0575705 0.23753396 -0.38241616 2.8526625e-39
2.0766916 0.22353309 -0.39403698 2.3916788e-39
2.0569983 0.2482613 -0.38464251 3.4044e-39
2.0678513 0.26214311 -0.39464051 3.8639236e-39
2.0528023 0.27584589 -0.40096924 9.0921009e-39
2.0694213 0.2775633 -0.38853076 1.0033102e-38
2.0357614 -0.22711927 -0.36683881 3.5063612e-39
2.0581632 -0.2209281 -0.35819373 5.7089516e-39
2.0357614 -0.1968367 -0.36683881 1.0771326e-38
2.0532045 -0.19415484 -0.35762066 7.7314401e-39
2.0628831 -0.17076173 -0.36174268 6.6265316e-39
2.076458 -0.16105527 -0.36115012 5.1532008e-39
2.0195279 -0.12720367 -0.33358288 3.6802414e-39
2.0297101 -0.12885271 -0.35532314 3.8628544e-39
2.0603316 -0.14537613 -0.35961896 3.7695699e-39
2.0167656 -0.10681206 -0.3374435 3.220359e-39
2.0269644 -0.10631332 -0.35285926 3.0359636e-39
2.0048597 -0.078132108 -0.34244755 3.1285235e-39
1.9989287 -0.0482211 -0.34142065 2.8519395e-39
1.9831399 -0.013230826 -0.33054084 3.5869737e-39
1.9920759 -0.020839034 -0.34397992 3.1281578e-39
1.9766909 0.015415162 -0.33702746 2.9434106e-39
1.9902357 0 -0.35114172 3.2196262e-39
1.9702477 0.047515597 -0.3365137 3.0352489e-39
1.9702477 0.076755956 -0.33651367 3.0352447e-39
1.9816762 0.09702605 -0.33623615 3.1274501e-39
1.9959798 0.11177382 -0.3419382 2.9437665e-39
2.0093133 0.13793762 -0.34319711 2.8519338e-39
2.0195279 0.15713395 -0.33358288 3.5894821e-39
2.0322158 0.16169962 -0.35308626 3.3121875e-39
2.0603516 0.17450862 -0.36195204 3.4036629e-39
2.0865037 0.19592293 -0.36309803 3.0374027e-39
2.0642455 0.23370276 -0.35644183 2.5749938e-39
2.0817554 0.22103213 -0.36665037 2.1151031e-39
2.0635517 0.25216216 -0.35914037 3.2203604e-39
2.0755625 0.2683112 -0.36463493 3.8653585e-39
2.0809536 0.28208029 -0.36324432 7.4498323e-39
2.0689371 -0.22199266 -0.33015087 4.7902463e-39
2.0451829 -0.1968367 -0.33017689 3.4040314e-39
2.0614631 -0.19423707 -0.32870069 3.220715e-39
2.0685821 -0.16704221 -0.32751352 1.9328628e-39
2.0818954 -0.15805689 -0.33999237 1.6584227e-39
2.0212045 -0.12701651 -0.31500632 4.7837051e-39
2.040169 -0.13587523 -0.32558241 3.7724482e-39
2.0649643 -0.14516696 -0.32953915 1.6555543e-39
2.0063112 -0.10756148 -0.31269354 3.4043818e-39
2.0003583 -0.07764221 -0.31175187 3.2192786e-39
2.0018489 -0.048091739 -0.31197873 2.7601054e-39
1.986799 -0.011760734 -0.3163026 3.4036685e-39
2.0011113 -0.02151126 -0.30882207 3.1274389e-39
1.9846237 0.014652478 -0.30929866 3.1277977e-39
1.9782084 0.047528211 -0.30829868 2.9434162e-39
1.9802556 0.076877065 -0.30861899 2.943419e-39
1.9892079 0.10474404 -0.30692908 2.8515821e-39
1.9980578 0.11276606 -0.32070419 3.1277963e-39
2.0092921 0.13744222 -0.31314707 3.0363223e-39
2.0251153 0.15713395 -0.31184164 3.4033182e-39
2.0411739 0.1646613 -0.32649279 2.9466308e-39
2.0709207 0.17623487 -0.33046749 2.6693419e-39
2.0870364 0.19691145 -0.33304513 2.2094511e-39
2.0709205 0.22768232 -0.3304674 2.3906138e-39
2.0838144 0.21588257 -0.33252493 2.1158065e-39
2.0709205 0.25668991 -0.33046743 2.9444896e-39
2.0838144 0.28141835 -0.33252493 5.4236963e-39
2.0744617 -0.22105221 -0.29915747 4.9757054e-39
2.0886121 -0.23130277 -0.31385633 4.1481251e-39
2.055547 -0.18548074 -0.2898488 4.4206749e-39
2.0659716 -0.19680734 -0.30151337 4.1433817e-39
2.055861 -0.17160124 -0.28862673 3.037753e-39
2.072521 -0.16224474 -0.30198932 1.9328558e-39
2.0286486 -0.12701651 -0.28603932 3.8646452e-39
2.0467019 -0.13906316 -0.29671708 3.034523e-39
2.0675519 -0.14474861 -0.29536453 1.8403e-39
2.0107095 -0.10739633 -0.2835263 3.864997e-39
2.0077202 -0.077642202 -0.28310481 3.2199905e-39
2.0077202 -0.048064217 -0.28310481 3.2196374e-39
1.9977763 -0.013230826 -0.27358785 3.0352489e-39
2.0067999 -0.020839034 -0.28668565 2.8530086e-39
1.9926833 0.016503211 -0.28235757 2.9444896e-39
2.0091009 0.0073944959 -0.2777335 3.21928e-39
1.9808472 0.048041444 -0.27825221 2.8522982e-39
1.9869452 0.076201618 -0.27910298 3.0359622e-39
1.9957638 0.10658167 -0.28141883 2.7600998e-39
1.9966786 0.13047065 -0.2778593 2.9441351e-39
2.0112791 0.14266881 -0.28733665 3.3111225e-39
2.0286133 0.16007654 -0.28445435 3.2203464e-39
2.0476952 0.16985506 -0.29629549 2.9448399e-39
2.0647075 0.17522202 -0.3064324 2.5782126e-39
2.0791216 0.18696222 -0.29855612 6.9020507e-39
2.091229 0.20046236 -0.30367348 1.7506436e-39
2.0779674 0.22758482 -0.29960337 2.4835241e-39
2.0895715 0.21588257 -0.31012261 2.2065672e-39
2.0787692 0.25403756 -0.29992619 3.1285137e-39
2.0905311 0.2698532 -0.30638888 3.7731727e-39
2.0966232 0.28162414 -0.30506784 5.2411113e-39
2.0621421 -0.21387063 -0.26418546 4.5129041e-39
2.0752113 -0.22395413 -0.27158692 4.6991311e-39
2.0552018 -0.19250369 -0.26708591 4.6961898e-39
2.0618281 -0.16529235 -0.26540753 2.3927578e-39
2.0722923 -0.15617615 -0.27691805 1.749545e-39
2.0256972 -0.12881714 -0.25332966 3.1285249e-39
2.0556557 -0.14025164 -0.26876426 2.1154548e-39
2.0052164 -0.1041315 -0.24463673 3.312912e-39
2.0149925 -0.10876955 -0.25962889 3.7724398e-39
2.0047286 -0.073504589 -0.24653517 3.1285123e-39
2.0143294 -0.079322778 -0.25738746 2.8537289e-39
2.0043626 -0.049248073 -0.24795899 3.0363251e-39
2.0129354 -0.04559939 -0.26281312 2.8519352e-39
2.0032649 -0.017641101 -0.25223047 2.8526499e-39
2.0123217 -0.029577984 -0.26520038 2.7615389e-39
1.9986818 0.014644404 -0.25238672 2.760813e-39
1.9914639 0.046761103 -0.25074279 2.8519324e-39
1.9899498 0.076445118 -0.24850471 3.035965e-39
2.0023942 0.10654633 -0.25285679 2.851931e-39
2.0032649 0.13524844 -0.25223047 2.6689817e-39
2.0123217 0.14788991 -0.26520038 3.1270774e-39
2.0049114 0.15435964 -0.24582325 3.4958501e-39
2.0262427 0.16696481 -0.2548587 3.037753e-39
2.0473373 0.17311195 -0.27358338 3.1288669e-39
2.054142 0.18349969 -0.26317519 2.5778637e-39
2.0817029 0.19820917 -0.27244055 1.8399455e-39
2.0801814 0.22537155 -0.2703265 2.3916844e-39
2.0809336 0.25606513 -0.27041185 3.4958599e-39
2.086369 0.27891085 -0.27035543 5.425504e-39
2.0988472 0.28270337 -0.27402997 7.36591e-39
2.0689259 -0.21652035 -0.23778887 5.3415942e-39
2.0816681 -0.22601101 -0.24043505 5.5270771e-39
2.0589604 -0.19215138 -0.23739621 4.0508246e-39
2.0619657 -0.16222385 -0.2377537 2.3920375e-39
2.0284667 -0.12980001 -0.226483 2.6668251e-39
2.0567043 -0.14300551 -0.23713474 1.8399441e-39
2.0093691 -0.10629898 -0.22327851 3.496583e-39
2.0100183 -0.076939881 -0.22335215 3.1292326e-39
2.0100183 -0.048407555 -0.22335215 3.0363209e-39
2.0100183 -0.018155206 -0.22335215 3.0363209e-39
2.005795 0.015639033 -0.22229643 2.8522926e-39
1.9978586 0.047445141 -0.21943279 2.8515709e-39
1.9807707 0.072256878 -0.20315991 2.9437946e-39
1.9898472 0.077421702 -0.21770743 2.9441267e-39
2.0001652 0.10600164 -0.21969631 2.9434134e-39
2.0047235 0.13498463 -0.22096768 2.8519366e-39
2.0104001 0.1617101 -0.22446588 2.9452029e-39
2.0224445 0.1774679 -0.2258106 3.1285249e-39
2.0431354 0.18919145 -0.2256504 2.9441253e-39
2.0604012 0.19733517 -0.23881924 1.6566291e-39
2.0798774 0.20569541 -0.2474037 1.8403015e-39
2.0688798 0.22601333 -0.23194081 2.5757085e-39
2.0816166 0.22203854 -0.2466629 2.208735e-39
2.0693028 0.2490741 -0.23632242 3.036681e-39
2.0848348 0.26334679 -0.24418409 3.6802568e-39
2.0947607 0.27840003 -0.23770201 5.0563753e-39
2.1062675 0.28218937 -0.24515587 6.4335434e-39
2.0714974 -0.21468781 -0.20712119 6.0777271e-39
2.086514 -0.22093211 -0.22157866 6.0870906e-39
2.0549142 -0.18706422 -0.19588833 3.4054776e-39
2.0656195 -0.19233789 -0.20887272 3.9589961e-39
2.0567765 -0.15713395 -0.18864124 2.6707838e-39
2.0657063 -0.1619321 -0.20813324 2.4853149e-39
2.0195479 -0.1249578 -0.18887019 3.4022209e-39
2.0436432 -0.13495001 -0.19755985 2.2076476e-39
2.0641978 -0.14300551 -0.20797578 2.023978e-39
2.0093918 -0.10568888 -0.19156218 3.2210681e-39
2.0123475 -0.077133551 -0.19109063 3.589852e-39
2.0056612 -0.046886336 -0.19046532 3.6813246e-39
2.0117636 -0.018498695 -0.19103704 3.1288753e-39
2.007113 0.013631751 -0.1900937 2.9441239e-39
2.0016472 0.047342196 -0.18721105 2.668623e-39
1.9879647 0.065031193 -0.17516676 2.0271996e-39
1.9985955 0.077125877 -0.18763568 2.8519324e-39
2.0069447 0.10592477 -0.18769152 2.8519338e-39
2.0093875 0.13533761 -0.18973753 2.9441309e-39
2.0137682 0.16520058 -0.19275276 2.6696922e-39
2.0190904 0.18559909 -0.19065 3.1288739e-39
2.0427394 0.19962001 -0.19943257 2.3005649e-39
2.0613878 0.20321836 -0.2189104 1.9307076e-39
2.0553796 0.2263477 -0.19407657 2.1168996e-39
2.0645785 0.2233994 -0.21051241 2.3916844e-39
2.0709143 0.250332 -0.20780134 3.1277991e-39
2.0884104 0.26664218 -0.21420005 3.6798882e-39
2.0999241 0.27947891 -0.21158354 4.6886522e-39
2.0732074 -0.2146679 -0.17894498 6.9088961e-39
2.0628295 -0.18893486 -0.16508824 4.0497414e-39
2.0710955 -0.19569173 -0.18113637 4.8802223e-39
2.0553617 -0.16785963 -0.1700404 3.2217884e-39
2.0688813 -0.16934864 -0.18975143 3.3136154e-39
2.0255854 -0.12642789 -0.16537708 3.035958e-39
2.0468383 -0.14187624 -0.17033541 2.300202e-39
2.0187762 -0.10596526 -0.1624116 3.8660802e-39
2.0089076 -0.076508261 -0.15896027 4.9706215e-39
1.9897633 -0.057805505 -0.16816847 5.5169485e-39
2.0070143 -0.046587892 -0.15809016 3.8657088e-39
2.0073898 -0.018195413 -0.15884021 4.6954681e-39
2.0139146 0.014611376 -0.15936556 3.0363195e-39
2.0043497 0.047245868 -0.15861593 2.8519338e-39
1.9915617 0.065031193 -0.1611702 2.8512108e-39
2.006891 0.07715524 -0.15857069 2.7597382e-39
2.0066254 0.10552017 -0.15880011 2.8519296e-39
2.0160611 0.13593262 -0.16060916 2.9437693e-39
2.0194511 0.16390894 -0.16162543 2.7615347e-39
2.0252476 0.19224276 -0.16669136 2.8522926e-39
2.0402868 0.20745689 -0.17245314 2.4842275e-39
2.0603063 0.22796294 -0.16526254 2.3002034e-39
2.0710671 0.22579817 -0.1812468 2.1161751e-39
2.0757523 0.25430149 -0.1802334 3.2192758e-39
2.0967536 0.27578419 -0.18173428 4.7805101e-39
2.0834844 -0.21426642 -0.15221208 7.1862159e-39
2.0612121 -0.19383019 -0.14070089 5.4337506e-39
2.0782483 -0.20321836 -0.15330277 7.184404e-39
2.0364711 -0.15987247 -0.12301829 3.5880499e-39
2.045157 -0.16718607 -0.14064522 3.4043804e-39
2.0304708 -0.13456553 -0.13409226 2.9437735e-39
2.0426903 -0.14788991 -0.14703102 2.6675384e-39
2.0230682 -0.10683893 -0.13321035 4.2341354e-39
2.0207272 -0.076665141 -0.13104852 4.141944e-39
2.0014534 -0.045160547 -0.12267965 4.7837149e-39
2.014281 -0.047941286 -0.1330294 4.0504686e-39
2.0192044 -0.018222935 -0.13094705 4.2344941e-39
2.0175266 0.014560734 -0.13084672 2.8526485e-39
2.0010037 0.054192659 -0.1244292 2.852287e-39
2.0103738 0.044807341 -0.13216166 2.6682643e-39
2.0023527 0.065031193 -0.1191805 3.5880443e-39
2.0122716 0.077090643 -0.13120577 2.5764232e-39
2.0199699 0.1058422 -0.13098185 2.5764274e-39
2.0230134 0.13523668 -0.1311928 2.9430561e-39
2.0273471 0.16551149 -0.13252649 2.7608186e-39
2.0332692 0.19478713 -0.13547674 2.8519282e-39
2.035099 0.21316332 -0.12835762 2.7590306e-39
2.0555687 0.2283937 -0.14168563 2.6675552e-39
2.0695031 0.24941896 -0.13911948 2.5764288e-39
2.0800011 0.25891972 -0.152509 3.4951425e-39
2.0922918 0.2725431 -0.14686735 4.600439e-39
2.1016839 0.27426055 -0.16254996 4.1358918e-39
2.0960605 -0.21197797 -0.13220257 5.9873223e-39
2.1233685 -0.21454678 -0.12638344 5.8901255e-39
2.0536368 -0.19454262 -0.11132292 5.711076e-39
2.0417638 -0.16381022 -0.1024236 3.3132721e-39
2.0509725 -0.1774679 -0.11480304 3.6816833e-39
2.0300968 -0.13524517 -0.10287547 2.9437679e-39
2.0257013 -0.10575137 -0.10265358 3.5887744e-39
2.0226474 -0.076480739 -0.10248261 4.9698956e-39
2.0041511 -0.054192662 -0.11218221 3.6806057e-39
2.0288639 -0.046419658 -0.10125142 4.7873064e-39
2.0287018 -0.018274313 -0.10277897 4.1419496e-39
2.0059497 0.027096331 -0.10518393 3.4036643e-39
2.022872 0.011375229 -0.10160828 3.2203576e-39
2.0063095 0.042631555 -0.10378429 3.0363181e-39
2.0189645 0.054495413 -0.098734155 2.9437904e-39
2.0280001 0.076678902 -0.10274706 2.7597424e-39
2.0302913 0.10599633 -0.10287269 2.9441267e-39
2.0330935 0.13543601 -0.10301708 3.5884269e-39
2.0401018 0.16527683 -0.1033672 3.1292368e-39
2.0415025 0.19478714 -0.10344061 2.8515751e-39
2.0414009 0.21806365 -0.10383619 2.6679167e-39
2.0529583 0.23217845 -0.11310345 2.8519352e-39
2.0721424 0.25319868 -0.11131775 3.3118526e-39
2.084805 0.26343119 -0.12778875 3.2203688e-39
2.0897293 0.27135411 -0.12068055 6.3421129e-39
2.0488207 -0.18376146 -0.074964151 6.6305029e-39
2.0585647 -0.19410551 -0.085260645 7.0018302e-39
2.0467088 -0.16522384 -0.074895397 3.8657298e-39
2.0185392 -0.13367522 -0.056195937 3.6813204e-39
2.0335393 -0.13499999 -0.074414082 3.4962215e-39
2.0350761 -0.10583876 -0.074460208 3.6809742e-39
2.0446041 -0.077028438 -0.074799955 3.5905737e-39
2.0424919 -0.04761399 -0.07473129 4.8784412e-39
2.036608 -0.018291743 -0.07452634 3.773523e-39
2.0326593 0.014558533 -0.074372806 3.3129078e-39
2.029896 0.047350459 -0.074277066 3.2200017e-39
2.0360348 0.076700918 -0.074496336 2.9444868e-39
2.0375693 0.10599632 -0.074552566 3.5887674e-39
2.0403841 0.135436 -0.07464806 4.1415909e-39
2.0488207 0.16538534 -0.074964061 4.2352214e-39
2.0467126 0.19459543 -0.074880794 3.5887814e-39
2.0491257 0.21806365 -0.073777564 4.048682e-39
2.06692 0.23380184 -0.082879685 2.8526555e-39
2.0835276 0.25372714 -0.084546775 4.1398098e-39
2.0533123 -0.18350917 -0.046438467 8.5688e-39
2.0638561 -0.19225688 -0.06467054 8.2939899e-39
2.0417027 -0.16424586 -0.04616379 4.9727949e-39
2.0212369 -0.13728806 -0.045698505 3.7728083e-39
2.0344429 -0.13291849 -0.041947771 5.7082019e-39
2.0440784 -0.10595229 -0.046210945 5.2486615e-39
2.0469673 -0.076831646 -0.046269201 4.972069e-39
2.0448472 -0.047515597 -0.04623235 5.8000276e-39
2.0462606 -0.018282799 -0.046256974 4.3270499e-39
2.0458772 0.014617065 -0.046241507 3.5884199e-39
2.0417702 0.047449544 -0.0461521 3.3121889e-39
2.0462599 0.076816507 -0.046259426 3.2199975e-39
2.0504975 0.10628648 -0.046342827 4.0490239e-39
2.0540247 0.13584724 -0.046428755 5.984409e-39
2.056139 0.16538532 -0.046487603 5.9851475e-39
2.0543094 0.19478714 -0.053606745 5.4305444e-39
2.0693777 0.19595413 -0.043185215 7.7343352e-39
2.0546143 0.21928871 -0.052420247 6.6308701e-39
2.0745697 0.23214732 -0.050530478 6.5361591e-39
2.0890718 0.24992397 -0.056086328 7.3633876e-39
2.0493958 -0.1827523 -0.028532265 7.9162209e-39
2.0551469 -0.16294222 -0.020885456 1.1610531e-38
2.0566187 -0.13581115 -0.017116001 1.1051232e-38
2.0570858 -0.10624611 -0.017944459 9.763023e-39
2.0620413 -0.077124313 -0.017996302 6.9985848e-39
2.0610821 -0.047464218 -0.020454276 6.9056563e-39
2.062042 -0.018355964 -0.017993847 5.8018269e-39
2.058924 0.014644402 -0.017971564 3.6813372e-39
2.0516639 0.046857636 -0.016870975 3.404393e-39
2.0535417 0.076816507 -0.017924577 3.6802512e-39
2.0617626 0.10577395 -0.018712519 6.6294253e-39
2.0625424 0.13020812 -0.021570699 8.381508e-39
2.0748992 0.14493212 -0.021699857 9.5786065e-39
2.0810812 0.16688991 -0.02175035 9.8544801e-39
2.084022 0.19689816 -0.025372447 1.1695877e-38
2.0788407 0.22311161 -0.028277138 1.427557e-38
2.071218 0.24401836 -0.036023438 1.6302436e-38
2.0798073 -0.16021408 -0.0026017856 1.8422829e-38
2.0696318 -0.13138944 0.0060158996 1.8701292e-38
2.0795004 -0.14788991 -0.0037954438 1.8062772e-38
2.0683968 -0.10584661 0.001210497 1.52879e-38
2.0838971 -0.10598778 0.013313293 1.6947808e-38
2.0680311 -0.088205509 -0.00021332597 1.4831947e-38
2.0831811 -0.077114038 0.010528226 1.3909657e-38
2.0680311 -0.036752291 -0.00021332597 7.6442905e-39
2.0830994 -0.048302427 0.0073734755 9.8534053e-39
2.0704703 -0.012250765 0.0092789046 5.8003961e-39
2.083576 -0.026408914 0.012062829 8.1042009e-39
2.0353167 0.028822018 0.031185415 1.1323098e-38
2.0643432 0.014968283 0.011265603 6.1673794e-39
2.0374799 0.045477431 0.026344925 1.0863233e-38
2.0530183 0.048388325 0.0074771456 5.8911484e-39
2.0344174 0.064849541 0.0276863 1.0862473e-38
2.059082 0.076734349 0.012729772 6.4446809e-39
2.0693519 0.099165596 0.010450833 5.4319695e-39
2.08705 0.11544483 0.004918667 8.3764802e-39
2.0970197 0.13625479 0.0023903984 1.2340151e-38
2.1006587 0.16679756 -0.0018176467 1.4182629e-38
2.119463 0.16182204 0.0070713121 1.5288627e-38
2.1033373 0.19080549 -0.0074642031 1.6672649e-38
2.0948725 -0.077158168 0.027093271 1.7870129e-38
2.1269565 -0.067739449 0.03623024 1.8057428e-38
2.1016102 -0.048361465 0.034026541 1.151511e-38
2.0754526 -0.012237309 0.038485728 1.2069349e-38
2.0923128 -0.025910093 0.038023904 9.7615866e-39
1.9964147 0.028110091 0.074666023 9.298791e-39
2.01858 0.02847217 0.061813626 1.0127435e-38
2.0424469 0.018742384 0.050092287 1.1138723e-38
2.0614014 0.0072917431 0.038606625 1.1138728e-38
1.9853748 0.047755048 0.070879653 8.6526929e-39
2.0147524 0.044092841 0.052812442 9.757244e-39
2.035805 0.05039816 0.040451538 1.0770664e-38
1.984804 0.065693937 0.072876491 8.1009611e-39
2.0125666 0.070985317 0.060510937 8.0994841e-39
2.0376961 0.075190209 0.047810372 1.0125624e-38
2.0586805 0.084946789 0.039738301 1.0494425e-38
2.0376658 0.093409173 0.062424216 9.7558133e-39
2.0714414 0.098406292 0.038311202 1.1597527e-38
2.1007435 0.11371586 0.030654255 1.1786639e-38
2.112277 0.13019669 0.027321726 1.3446159e-38
2.1232097 0.14300551 0.021650776 1.5380829e-38
2.1219606 0.15554987 0.016790936 1.759388e-38
2.1182368 -0.041154131 0.050512422 9.9488197e-39
2.0545089 -0.0072256881 0.083769746 1.6123407e-38
2.0683191 -0.010423066 0.06633798 1.9168367e-38
2.0986867 -0.027171867 0.054791443 1.9547505e-38
1.970794 0.027640367 0.10353511 1.1050128e-38
1.9942769 0.025205139 0.092059679 1.0865022e-38
2.0217493 0.015630092 0.08445736 1.0956143e-38
2.0456352 0.0052403668 0.07334578 1.2520595e-38
1.9642836 0.048209742 0.10292576 9.7557951e-39
1.9836351 0.039192662 0.08921963 1.0402602e-38
1.9636346 0.066774681 0.10379998 9.2008108e-39
1.9891526 0.077536881 0.093814991 9.4799172e-39
2.0186572 0.082429357 0.076845288 8.3764732e-39
2.0025368 0.091357797 0.098488271 9.4802984e-39
2.0292861 0.09783224 0.086637609 9.1125949e-39
2.0436599 0.10073578 0.074700207 1.0768844e-38
2.0712299 0.098686233 0.056428123 1.1046863e-38
2.0268366 -0.0070911315 0.12340451 1.8799614e-38
2.0522292 -0.0071987766 0.10436141 2.0097573e-38
2.0850213 -0.016477982 0.099044867 1.612526e-38
2.1080284 -0.022183487 0.10721212 1.9911756e-38
1.972609 0.027581653 0.12666826 1.1230934e-38
2.000828 0.015060266 0.12181674 1.2338705e-38
2.0215726 0.0040424638 0.11344265 1.4093272e-38
2.0475023 0 0.10069974 1.6024076e-38
1.9451972 0.050902139 0.13785416 1.067561e-38
1.9621786 0.041621234 0.12740481 9.9423583e-39
1.9460405 0.063356571 0.14113535 1.0217124e-38
1.962556 0.075445868 0.13040365 9.3888188e-39
1.9857669 0.08340551 0.11760335 8.7452319e-39
1.9802537 0.096741281 0.14034449 1.0859283e-38
1.9965496 0.097795621 0.12154776 9.9419856e-39
2.0224988 0.10465138 0.10284288 1.0218537e-38
2.01653 -0.0070275227 0.15293911 1.113048e-38
2.0340333 -0.01279633 0.14551476 1.1878813e-38
2.065866 -0.017325504 0.13680054 1.4827303e-38
2.0987675 -0.019111194 0.11938804 2.2672222e-38
1.9811561 0.020184273 0.15820602 1.0954693e-38
2.0028646 0.0057007507 0.14614899 1.2707487e-38
1.9493539 0.054253213 0.16072464 1.0586652e-38
1.9672811 0.040536623 0.16094692 9.7565013e-39
1.949777 0.062734857 0.16237119 1.0032371e-38
1.9740283 0.080428936 0.16102408 9.295547e-39
1.9839892 0.099402569 0.16291477 9.6636008e-39
2.0038567 0.10688441 0.15063043 1.049264e-38
2.0123808 -0.0097922934 0.1705409 1.0771033e-38
2.0432601 -0.018504221 0.16374114 1.2706739e-38
2.0635984 -0.028741283 0.16333242 1.4366298e-38
1.9888535 0.010365138 0.17380762 1.0865389e-38
