# .PCD v0.7 - Point Cloud Data file format
VERSION 0.7
FIELDS x y z rgb
SIZE 4 4 4 4
TYPE F F F F
COUNT 1 1 1 1
WIDTH 1025
HEIGHT 1
VIEWPOINT 0 0 0 1 0 0 0
POINTS 1025
DATA ascii
6.1531596 -4.4708328 -1.1194997 3.6878252e-40
6.1283875 -4.4484305 -1.1304523 3.6878252e-40
6.1118999 -4.4573565 -1.1304523 2.7658689e-40
6.0863824 -4.4342718 -1.141737 2.7658689e-40
6.0591145 -4.4083004 -1.1408324 3.6878252e-40
6.0383105 -4.3815508 -1.1523228 5.5317378e-40
6.0366859 -4.4204431 -1.1408324 3.6878252e-40
6.0260468 -4.427577 -1.1470929 8.2976067e-40
5.9862213 -4.4477634 -1.1408324 4.6097815e-40
5.9590197 -4.4244776 -1.1523228 4.6097815e-40
5.9581857 -4.4629421 -1.1408324 3.6878252e-40
5.9469709 -4.4690132 -1.1408324 4.6097815e-40
5.919374 -4.445941 -1.1523228 3.6878252e-40
5.8910561 -4.4612722 -1.1523228 5.5317378e-40
5.8684015 -4.473537 -1.1523228 3.6878252e-40
5.8447647 -4.4458323 -1.1577531 2.7658689e-40
5.8466177 -4.5247173 -1.1470929 2.7658689e-40
5.8417773 -4.4874883 -1.1502149 1.8439126e-40
5.8354034 -4.5307884 -1.1470929 2.7658689e-40
6.1830225 -4.4479952 -1.0891159 1.1063476e-39
6.1761575 -4.4185266 -1.1120436 1.6595213e-39
6.167253 -4.4578667 -1.0951926 3.6878252e-40
6.145483 -4.4696522 -1.0951926 3.6878252e-40
6.120635 -4.4472384 -1.1059074 2.7658689e-40
6.1041479 -4.4561644 -1.1059074 2.7658689e-40
6.0779834 -4.4320154 -1.1107496 2.7658689e-40
6.0568123 -4.4040489 -1.1157904 3.6878252e-40
6.0359855 -4.3772564 -1.1270285 3.6878252e-40
6.0252395 -4.3844624 -1.133352 4.6097815e-40
5.9708428 -4.4115314 -1.1225117 7.3756504e-40
5.9594297 -4.4563122 -1.1137035 7.3756504e-40
5.9390621 -4.4677968 -1.1157904 5.5317378e-40
5.9108043 -4.4436388 -1.1207049 2.7658689e-40
5.8881497 -4.455904 -1.120705 2.7658689e-40
5.8654952 -4.4681687 -1.1207049 2.7658689e-40
5.8418283 -4.4404097 -1.125811 1.8439126e-40
5.8377581 -4.4845734 -1.1270285 2.7658689e-40
5.8240762 -4.4486175 -1.1194226 1.8439126e-40
6.1744776 -4.3716106 -1.0735649 3.6878252e-40
6.1819053 -4.4459314 -1.0769624 4.6097815e-40
6.1705751 -4.413466 -1.0752264 3.6878252e-40
6.1644602 -4.4527073 -1.0648088 3.6878252e-40
6.1463737 -4.4247713 -1.0670449 3.6878252e-40
6.1418247 -4.4654956 -1.0672395 2.7658689e-40
6.117815 -4.442029 -1.0752264 2.7658689e-40
6.1013274 -4.4509554 -1.0752264 2.7658689e-40
6.0751348 -4.426754 -1.0797623 4.6097815e-40
6.0545106 -4.3997965 -1.0907482 4.6097815e-40
6.0427208 -4.4048052 -1.0844877 4.6097815e-40
5.9798908 -4.4360709 -1.0719666 6.4536941e-40
5.9707789 -4.4056158 -1.0954106 4.6097815e-40
5.9586134 -4.4503393 -1.0844878 6.4536941e-40
5.9318352 -4.4644928 -1.0829227 3.6878252e-40
5.9019661 -4.4796329 -1.0782272 2.7658689e-40
5.8851447 -4.48874 -1.0782272 2.7658689e-40
5.856925 -4.4658661 -1.089087 2.7658689e-40
5.8223143 -4.4453635 -1.1002572 1.8439126e-40
5.8024645 -4.4115276 -1.0923723 2.7658689e-40
6.1733379 -4.3695068 -1.06117 5.5317378e-40
6.1774364 -4.4376774 -1.0283482 4.6097815e-40
6.170517 -4.4081082 -1.0506816 4.6097815e-40
6.1632953 -4.4462223 -1.0323994 5.5317378e-40
6.1430378 -4.4229851 -1.0506816 4.6097815e-40
6.1378965 -4.4599733 -1.0323994 2.7658689e-40
6.1149945 -4.4368196 -1.0445453 1.8439126e-40
6.1023579 -4.4809923 -1.0405017 3.6878252e-40
6.0957594 -4.4472332 -1.0445453 2.7658689e-40
6.0717168 -4.4204407 -1.0425775 3.6878252e-40
6.0510578 -4.3934193 -1.0531851 5.5317378e-40
6.0301728 -4.3665195 -1.0637927 4.6097815e-40
6.0184641 -4.3293533 -1.0555382 7.3756504e-40
6.0623245 -4.4296074 -1.06117 4.6097815e-40
5.9781647 -4.4328823 -1.0531851 6.4536941e-40
5.9557362 -4.4450245 -1.0531851 3.6878252e-40
5.9277 -4.4602022 -1.0531851 2.7658689e-40
5.8996644 -4.4753809 -1.0531851 2.7658689e-40
5.882843 -4.4844875 -1.0531851 2.7658689e-40
5.8546 -4.4615717 -1.0637927 2.7658689e-40
5.8370275 -4.4696965 -1.0574691 1.8439126e-40
5.8199654 -4.4410248 -1.0747035 1.8439126e-40
6.1795754 -4.4329615 -1.0121436 6.4536941e-40
6.1775603 -4.3948641 -1.0077281 8.2976067e-40
6.1594329 -4.4434214 -1.010118 3.6878252e-40
6.1342854 -4.456769 -1.0089025 2.7658689e-40
6.1133027 -4.4336939 -1.0261368 1.8439126e-40
6.0956869 -4.4405365 -1.0138643 2.7658689e-40
6.069438 -4.4162312 -1.0177877 4.6097815e-40
6.0487556 -4.3891668 -1.028143 4.6097815e-40
5.9696803 -4.430603 -1.0218825 3.6878252e-40
5.9615779 -4.3976393 -1.0363905 4.6097815e-40
5.9478269 -4.4438086 -1.028143 3.6878252e-40
5.9253979 -4.4559507 -1.028143 3.6878252e-40
5.8973627 -4.4711289 -1.028143 2.7658689e-40
5.8805408 -4.4802361 -1.028143 2.7658689e-40
5.8516936 -4.456203 -1.0321748 2.7658689e-40
5.8290391 -4.4684677 -1.0321748 1.8439126e-40
6.1862955 -4.3847461 -0.98318321 6.4536941e-40
6.1729679 -4.4294233 -0.97973418 3.6878252e-40
6.1644254 -4.3968563 -0.98441046 5.5317378e-40
6.1541982 -4.4402518 -0.98277253 4.6097815e-40
6.1307735 -4.4134579 -0.97704697 2.7658689e-40
6.1297464 -4.4535851 -0.98320651 2.7658689e-40
6.1087899 -4.4253592 -0.97704697 2.7658689e-40
6.0948868 -4.4346828 -0.9852286 1.8439126e-40
6.0706701 -4.4096684 -0.99093193 3.6878252e-40
6.0458784 -4.383852 -0.99684036 4.6097815e-40
6.0554881 -4.4169798 -0.98680031 5.5317378e-40
5.9714999 -4.425036 -1.0010141 3.6878252e-40
5.9505568 -4.4354577 -0.99684042 6.4536941e-40
5.9225206 -4.4506359 -0.99684042 4.6097815e-40
5.894485 -4.4658136 -0.99684042 1.8439126e-40
5.8776636 -4.4749212 -0.99684036 1.8439126e-40
5.8487873 -4.4508348 -1.0005569 1.8439126e-40
5.826714 -4.4641733 -1.0068805 1.8439126e-40
5.8081756 -4.4329138 -1.0086896 2.7658689e-40
5.7837815 -4.4046354 -1.0149112 1.8439126e-40
6.1913867 -4.4114466 -0.9432736 4.6097815e-40
6.1846037 -4.3816204 -0.96477461 4.6097815e-40
6.1701751 -4.424264 -0.94935036 3.6878252e-40
6.1659083 -4.3908439 -0.96068376 3.6878252e-40
6.158731 -4.4291258 -0.9432736 3.6878252e-40
6.1345773 -4.4073563 -0.95863837 1.8439126e-40
6.1125937 -4.4192581 -0.95863837 2.7658689e-40
6.0909252 -4.3896313 -0.94961554 2.7658689e-40
6.0961065 -4.428184 -0.95863837 2.7658689e-40
6.0729218 -4.4027796 -0.96510917 2.7658689e-40
6.0542154 -4.3724661 -0.96553779 3.6878252e-40
6.0333624 -4.345356 -0.97526264 4.6097815e-40
5.97856 -4.4538655 -0.96510917 5.5317378e-40
5.963829 -4.4597998 -0.95581299 5.5317378e-40
5.9420724 -4.4331789 -0.96553779 4.6097815e-40
5.9196434 -4.4453211 -0.96553785 3.6878252e-40
5.8916078 -4.4604993 -0.96553779 2.7658689e-40
5.8747864 -4.4696064 -0.96553779 1.8439126e-40
5.8464622 -4.4465399 -0.97526264 2.7658689e-40
5.8174658 -4.4227414 -0.98526537 2.7658689e-40
5.7903767 -4.3961043 -0.99231833 1.8439126e-40
5.7684841 -4.3655415 -0.99958074 2.7658689e-40
6.1891522 -4.4073195 -0.91896653 4.6097815e-40
6.1673818 -4.4191055 -0.91896653 4.6097815e-40
6.1702275 -4.38132 -0.9279573 4.6097815e-40
6.1510544 -4.4279451 -0.91896653 3.6878252e-40
6.127389 -4.4072065 -0.94022971 3.6878252e-40
6.1341677 -4.4357529 -0.91288978 2.7658689e-40
6.1122394 -4.4120407 -0.92488921 2.7658689e-40
6.0953364 -4.3845215 -0.93722057 1.8439126e-40
6.0927219 -4.4219332 -0.92182112 2.7658689e-40
6.0670133 -4.3984947 -0.93102312 2.7658689e-40
6.0401235 -4.3732224 -0.93423516 4.6097815e-40
5.9732213 -4.450633 -0.93722057 2.0283039e-39
5.9822416 -4.4803982 -0.91568488 5.5317378e-40
5.9576597 -4.457243 -0.92895722 8.2976067e-40
5.9403458 -4.4299898 -0.94675618 4.6097815e-40
5.9173412 -4.4410686 -0.94049573 5.5317378e-40
5.8893056 -4.4562473 -0.94049567 2.7658689e-40
5.8637857 -4.4693756 -0.93736541 2.7658689e-40
5.8435559 -4.4411716 -0.94364476 2.7658689e-40
5.8259835 -4.4492965 -0.93732113 2.7658689e-40
5.8069005 -4.4214478 -0.95332319 1.8439126e-40
6.1783991 -4.3701601 -0.89727622 4.6097815e-40
6.1645889 -4.4139462 -0.88858277 2.7658689e-40
6.1674075 -4.376111 -0.89727622 4.6097815e-40
6.1482611 -4.4227858 -0.88858277 1.8439126e-40
6.1234903 -4.4355297 -0.88554436 1.8439126e-40
6.1075172 -4.4098811 -0.90341246 2.7658689e-40
6.0904655 -4.4177656 -0.89727622 1.8439126e-40
6.0647345 -4.3942852 -0.90623325 2.7658689e-40
6.0411763 -4.3662386 -0.90501934 3.6878252e-40
6.0281305 -4.3356924 -0.9183504 3.6878252e-40
5.9703727 -4.4453716 -0.90623325 2.0283039e-39
5.9553814 -4.4530344 -0.90416735 4.6097815e-40
5.9402475 -4.4208794 -0.90501934 1.0141519e-39
5.9364991 -4.4623494 -0.90003574 4.6097815e-40
5.9165249 -4.4350967 -0.91127998 1.0141519e-39
5.9142962 -4.4743695 -0.90003574 2.7658689e-40
5.8855371 -4.4519644 -0.91169727 1.8439126e-40
5.8668032 -4.4615574 -0.90919304 1.8439126e-40
5.8385677 -4.4364672 -0.90991896 1.8439126e-40
5.8242397 -4.4460754 -0.9183504 2.7658689e-40
5.8037686 -4.4156628 -0.9192515 1.8439126e-40
6.1609163 -4.3359551 -0.87772489 4.6097815e-40
6.1577263 -4.2958088 -0.87162989 3.6878252e-40
6.1623545 -4.4098196 -0.86427569 4.6097815e-40
6.1524677 -4.3747683 -0.85432273 3.6878252e-40
6.1454682 -4.4176273 -0.85819894 1.8439126e-40
6.1236982 -4.4294133 -0.85819894 2.7658689e-40
6.0986371 -4.4066057 -0.86659515 1.8439126e-40
6.0876455 -4.4125562 -0.86659515 2.7658689e-40
6.0627685 -4.3880024 -0.87276691 2.7658689e-40
6.0349445 -4.3636556 -0.87789041 3.6878252e-40
6.0329933 -4.4019451 -0.86285096 4.6097815e-40
5.9564443 -4.4061546 -0.87789041 5.5317378e-40
5.952343 -4.447422 -0.87111419 4.6097815e-40
5.9334402 -4.4172339 -0.87162989 6.4536941e-40
5.9281001 -4.460093 -0.86904842 4.6097815e-40
5.9021611 -4.4751558 -0.87369657 2.7658689e-40
5.877574 -4.4860859 -0.86285096 2.7658689e-40
5.8555155 -4.4607954 -0.87789041 1.8439126e-40
5.8332419 -4.4356484 -0.89305609 2.7658689e-40
5.8207521 -4.4396334 -0.88040894 2.7658689e-40
5.8041101 -4.4117379 -0.90221566 2.7658689e-40
6.1582451 -4.2513666 -0.85511464 6.4536941e-40
6.1533995 -4.3326769 -0.84425855 3.6878252e-40
6.1560001 -4.2926202 -0.85284835 4.6097815e-40
6.1507754 -4.3716431 -0.83591408 2.7658689e-40
6.1426754 -4.412468 -0.82781512 2.7658689e-40
6.117528 -4.4258156 -0.82659978 2.7658689e-40
6.0963812 -4.4024382 -0.84205031 3.6878252e-40
6.0809736 -4.4089832 -0.83386868 2.7658689e-40
6.0573773 -4.3851156 -0.84632432 2.7658689e-40
6.0332179 -4.360467 -0.85910887 5.5317378e-40
6.0418158 -4.3917255 -0.83806109 4.6097815e-40
5.9541421 -4.4019027 -0.85284835 7.3756504e-40
5.9419036 -4.4458165 -0.83806109 5.5317378e-40
5.9393816 -4.4103522 -0.85493517 4.6097815e-40
5.9237814 -4.4565353 -0.84219271 4.6097815e-40
5.9210749 -4.4211793 -0.85910887 4.6097815e-40
5.9036188 -4.4679041 -0.84425855 2.7658689e-40
5.8756418 -4.4444013 -0.85284835 2.7658689e-40
5.8644276 -4.4504728 -0.85284835 1.8439126e-40
5.8354177 -4.4261398 -0.85511464 1.8439126e-40
5.7926664 -4.3658113 -0.85998887 3.6878252e-40
5.8190084 -4.4364128 -0.86143821 2.7658689e-40
6.1475153 -4.2903404 -0.82154578 4.6097815e-40
6.1375275 -4.373426 -0.81136924 1.8439126e-40
6.1363893 -4.3344021 -0.8101725 1.8439126e-40
6.1349983 -4.4112878 -0.8035081 2.7658689e-40
6.1132283 -4.4230738 -0.8035081 1.8439126e-40
6.0770731 -4.4061546 -0.81136924 2.7658689e-40
6.0506387 -4.3815069 -0.81327116 3.6878252e-40
6.0297651 -4.3540888 -0.82154572 4.6097815e-40
6.0354571 -4.3888187 -0.80913949 5.5317378e-40
6.0185509 -4.3601599 -0.82154572 3.6878252e-40
5.9673786 -4.4265823 -0.81327122 3.6878252e-40
5.9720888 -4.4616442 -0.805233 5.5317378e-40
5.944293 -4.4396243 -0.81575018 6.4536941e-40
5.926033 -4.449646 -0.81636995 5.5317378e-40
5.9002247 -4.4228454 -0.81528521 4.6097815e-40
5.8937488 -4.467351 -0.8174029 2.7658689e-40
5.8716135 -4.4369602 -0.80902469 1.8439126e-40
5.8615503 -4.445158 -0.82154572 1.8439126e-40
5.8325119 -4.4207716 -0.8234967 1.8439126e-40
5.8149395 -4.4288969 -0.81717312 2.7658689e-40
5.8039594 -4.3977933 -0.83833134 2.7658689e-40
6.1693358 -4.309082 -0.77608639 4.6097815e-40
6.1588039 -4.316144 -0.78228384 9.219563e-40
6.1390309 -4.2880616 -0.79024309 4.6097815e-40
6.1396389 -4.3641996 -0.77455193 1.8439126e-40
6.1371708 -4.329217 -0.78848135 2.7658689e-40
6.1365309 -4.4011192 -0.76097077 1.8439126e-40
6.1242795 -4.3752089 -0.78682441 1.8439126e-40
6.1104355 -4.4179153 -0.77312422 1.8439126e-40
6.088665 -4.4297009 -0.77312428 2.7658689e-40
6.0657272 -4.4048872 -0.77762008 1.8439126e-40
6.0483599 -4.3772974 -0.78848135 3.6878252e-40
6.0331783 -4.3846092 -0.78434962 4.6097815e-40
6.0150976 -4.3537827 -0.78398257 4.6097815e-40
5.9895816 -4.4806747 -0.76097077 4.6097815e-40
5.980824 -4.4515262 -0.78068817 7.3756504e-40
5.9643364 -4.4604521 -0.78068817 4.6097815e-40
5.937346 -4.4373984 -0.78848135 4.6097815e-40
5.9467211 -4.4672947 -0.76841575 3.6878252e-40
5.9201245 -4.4453611 -0.78228384 4.6097815e-40
5.8923707 -4.4603863 -0.78228396 2.7658689e-40
5.8586731 -4.4398427 -0.79024309 1.8439126e-40
5.8301864 -4.4164772 -0.7982024 1.8439126e-40
5.8126144 -4.4246016 -0.79187882 1.8439126e-40
5.8016109 -4.3934546 -0.81277758 1.8439126e-40
6.1530147 -4.3142891 -0.75955975 5.5317378e-40
6.1511831 -4.389184 -0.74274045 1.8439126e-40
6.153306 -4.3500643 -0.74387085 1.6595213e-39
6.1348553 -4.3980236 -0.74274045 1.8439126e-40
6.1076422 -4.412756 -0.74274045 1.8439126e-40
6.0864305 -4.4255738 -0.74881721 2.7658689e-40
6.0636258 -4.3996935 -0.74877983 2.7658689e-40
6.0433898 -4.4095707 -0.74387085 3.6878252e-40
6.0349798 -4.3790984 -0.76369148 6.4536941e-40
6.0077643 -4.3536291 -0.76520103 4.6097815e-40
5.9927897 -4.4736013 -0.7366637 4.6097815e-40
5.9840636 -4.4443836 -0.75614327 6.4536941e-40
5.9615164 -4.4552431 -0.75000709 3.6878252e-40
5.9546919 -4.4942269 -0.7366637 5.5317378e-40
5.9338493 -4.4697723 -0.7479617 2.7658689e-40
5.9184155 -4.4422045 -0.76369148 2.7658689e-40
5.9059944 -4.4839544 -0.74387085 1.8439126e-40
5.8906622 -4.4572301 -0.76369143 2.7658689e-40
5.8895068 -4.4928808 -0.74387085 2.7658689e-40
5.8673201 -4.4671454 -0.75129652 1.8439126e-40
5.844965 -4.441308 -0.76311415 1.8439126e-40
5.8284426 -4.4132557 -0.77923167 2.7658689e-40
6.1614776 -4.3389039 -0.71318978 4.6097815e-40
6.1548162 -4.3087783 -0.73890162 3.6878252e-40
6.1483898 -4.3840251 -0.71235669 2.7658689e-40
6.1510501 -4.3458967 -0.71932602 3.6878252e-40
6.1391897 -4.4219398 -0.69356024 2.7658689e-40
6.1326208 -4.3938961 -0.71843344 1.8439126e-40
6.1230173 -4.4306955 -0.69356024 2.7658689e-40
6.1048498 -4.4075975 -0.71235663 1.8439126e-40
6.0862279 -4.3836842 -0.73159844 2.7658689e-40
6.0721941 -4.4252763 -0.71235669 2.7658689e-40
6.0646868 -4.3926516 -0.71932602 1.8439126e-40
6.0613089 -4.4311695 -0.71235669 1.8439126e-40
6.0367174 -4.4059978 -0.71114439 3.6878252e-40
6.0208402 -4.3794966 -0.73063827 6.4536941e-40
6.0060377 -4.35044 -0.74641943 5.5317378e-40
6.0166512 -4.4526782 -0.70020312 4.6097815e-40
6.0081587 -4.4232554 -0.71932602 4.6097815e-40
5.9892163 -4.3595467 -0.74641943 4.6097815e-40
5.9944978 -4.4670067 -0.71083742 4.6097815e-40
5.9687853 -4.4812603 -0.71235669 3.6878252e-40
5.9494567 -4.4910574 -0.70931828 3.6878252e-40
5.9262853 -4.4689274 -0.72546226 5.5317378e-40
5.9295697 -4.4998226 -0.70020312 4.6097815e-40
5.9092336 -4.4768114 -0.71932602 1.8439126e-40
5.8852034 -4.4515667 -0.72444087 1.8439126e-40
5.8883786 -4.490797 -0.73159844 1.8439126e-40
5.8594904 -4.4659414 -0.72650671 1.8439126e-40
5.8322158 -4.4445438 -0.74641943 2.7658689e-40
5.8383784 -4.4755573 -0.7182433 1.8439126e-40
5.8198509 -4.4484897 -0.7338984 2.7658689e-40
6.1626973 -4.3324056 -0.68659955 3.6878252e-40
6.1450386 -4.3778343 -0.67589611 8.2976067e-40
6.1482296 -4.3406873 -0.68864495 4.6097815e-40
6.1408753 -4.4173269 -0.67670673 1.8439126e-40
6.117579 -4.4292345 -0.6734966 1.8439126e-40
6.094986 -4.4067106 -0.68399847 1.8439126e-40
6.0764713 -4.4158449 -0.67994726 1.8439126e-40
6.0553646 -4.3923101 -0.69478118 1.8439126e-40
6.0446301 -4.4328609 -0.67893445 3.6878252e-40
6.0388775 -4.4012361 -0.69478118 3.6878252e-40
6.0204182 -4.4466362 -0.68197286 5.5317378e-40
5.9932051 -4.4613686 -0.68197286 4.6097815e-40
5.9704113 -4.5093493 -0.6755029 4.6097815e-40
5.9714346 -4.473155 -0.68197286 3.6878252e-40
5.944222 -4.4878874 -0.68197286 3.6878252e-40
5.9244518 -4.4990349 -0.68399847 1.8439126e-40
5.8988976 -4.4752221 -0.68659955 1.8439126e-40
5.8738637 -4.4527173 -0.70171678 3.6878252e-40
5.8838663 -4.4824619 -0.68250877 2.7658689e-40
5.8566418 -4.46068 -0.69551933 1.8439126e-40
5.8276119 -4.4360404 -0.69633526 1.8439126e-40
5.8405595 -4.4707475 -0.70171678 2.7658689e-40
6.1624608 -4.3275938 -0.66410011 5.5317378e-40
6.1428041 -4.3737073 -0.65158904 2.7658689e-40
6.1459737 -4.3365197 -0.66410011 3.6878252e-40
6.1386623 -4.413239 -0.65263033 1.8439126e-40
6.1137533 -4.4264603 -0.65142649 1.8439126e-40
6.0883784 -4.4031725 -0.65158904 1.8439126e-40
6.098134 -4.4362378 -0.65744561 1.8439126e-40
6.0726094 -4.413044 -0.65766579 1.8439126e-40
6.0538998 -4.4575424 -0.64540738 4.6097815e-40
6.0528393 -4.4241915 -0.65969139 6.4536941e-40
6.0328894 -4.4702387 -0.65142643 5.5317378e-40
6.0075469 -4.4835176 -0.64942014 5.5317378e-40
5.9860868 -4.4612198 -0.6637426 3.6878252e-40
5.9892082 -4.4925652 -0.64540738 2.7658689e-40
5.9637575 -4.4719744 -0.65766579 4.6097815e-40
5.9419875 -4.4837599 -0.65766579 2.7658689e-40
5.9256597 -4.4925995 -0.65766579 1.8439126e-40
5.8986616 -4.4704103 -0.66410011 1.8439126e-40
5.8783221 -4.4809723 -0.66205472 1.8439126e-40
5.8543634 -4.4564705 -0.67072946 1.8439126e-40
5.8376756 -4.4278436 -0.68381423 1.8439126e-40
5.8140602 -4.4002171 -0.68437797 1.8439126e-40
6.1938782 -4.3380518 -0.61512846 5.5317378e-40
6.1755638 -4.3124161 -0.6272828 3.6878252e-40
6.1623402 -4.3577943 -0.62728202 3.6878252e-40
6.1607399 -4.3217897 -0.63341904 4.6097815e-40
6.1460123 -4.3666339 -0.62728202 3.6878252e-40
6.1437173 -4.3323522 -0.63955522 4.6097815e-40
6.1376257 -4.4061737 -0.61789137 2.7658689e-40
6.1199169 -4.38343 -0.63943553 2.7658689e-40
6.1096873 -4.421525 -0.61892331 2.7658689e-40
6.0981464 -4.395216 -0.63943553 2.7658689e-40
6.0837159 -4.435359 -0.61789137 2.7658689e-40
6.0654907 -4.4128952 -0.63943553 2.7658689e-40
6.0570774 -4.4505358 -0.62133086 4.6097815e-40
6.0316086 -4.4646549 -0.62283564 4.6097815e-40
6.0276375 -4.4996099 -0.60345691 5.5317378e-40
6.0031681 -4.4797215 -0.62133086 5.5317378e-40
5.9762135 -4.4943142 -0.62133086 3.6878252e-40
5.9535427 -4.5039444 -0.60929269 4.6097815e-40
5.9383297 -4.4796033 -0.6297127 2.7658689e-40
5.9182892 -4.4893856 -0.62485129 1.8439126e-40
5.8933754 -4.4672093 -0.63648713 1.8439126e-40
5.8902116 -4.5051203 -0.62728202 1.8439126e-40
5.8727589 -4.4776978 -0.63341904 1.8439126e-40
5.845964 -4.4542146 -0.63974208 1.8439126e-40
5.8342228 -4.4214659 -0.64625108 2.7658689e-40
5.8111534 -4.3948488 -0.65276009 1.8439126e-40
5.8001347 -4.3633962 -0.67223197 2.7658689e-40
5.7760525 -4.3351231 -0.67924619 2.7658689e-40
5.8337235 -4.4581203 -0.62734717 2.7658689e-40
5.7875171 -4.3674221 -0.65945512 2.7658689e-40
5.7513857 -4.3060484 -0.68645006 1.8439126e-40
6.1922026 -4.3349562 -0.5968982 4.6097815e-40
6.1703205 -4.3465357 -0.59568286 8.2976067e-40
6.1628804 -4.3152418 -0.60887414 4.6097815e-40
6.1486621 -4.3585281 -0.5968982 4.6097815e-40
6.1434584 -4.4329805 -0.58557254 3.6878252e-40
6.145957 -4.3958101 -0.5912354 5.5317378e-40
6.1244969 -4.4425912 -0.58259183 2.7658689e-40
6.1087737 -4.4172621 -0.59725446 1.8439126e-40
6.0954046 -4.4589958 -0.58557254 2.7658689e-40
6.0687079 -4.4734488 -0.58557254 4.6097815e-40
6.0436087 -4.4866009 -0.58358538 5.5317378e-40
6.0225186 -4.4639592 -0.59725446 4.6097815e-40
6.0147667 -4.5013428 -0.57961106 5.5317378e-40
6.0009546 -4.4756336 -0.59725446 4.6097815e-40
5.9880705 -4.5157957 -0.57961106 4.6097815e-40
5.9710279 -4.4911742 -0.5942449 3.6878252e-40
5.9481044 -4.5024834 -0.58922905 2.7658689e-40
5.9315176 -4.4774208 -0.60297495 3.6878252e-40
5.9297662 -4.5115309 -0.58521628 1.8439126e-40
5.9071236 -4.4895601 -0.59811354 1.8439126e-40
5.8868599 -4.4989295 -0.59082144 2.7658689e-40
5.8634562 -4.4762669 -0.60396522 9.219563e-41
5.8325839 -4.4560156 -0.61495221 1.8439126e-40
6.1970997 -4.3615141 -0.56113988 5.5317378e-40
6.1783924 -4.3698807 -0.55311441 4.6097815e-40
6.1711988 -4.3416576 -0.57562953 5.5317378e-40
6.1684642 -4.4111533 -0.54781663 7.3756504e-40
6.1545258 -4.3858852 -0.56715894 8.2976067e-40
6.1664782 -4.4820452 -0.53348809 4.6097815e-40
6.1521916 -4.4567246 -0.54645473 3.6878252e-40
6.1471539 -4.427053 -0.56768817 3.6878252e-40
6.1326227 -4.4668865 -0.54448682 2.7658689e-40
6.1257963 -4.4386158 -0.56768817 2.7658689e-40
6.1151772 -4.5123873 -0.54518402 3.6878252e-40
6.1104326 -4.480628 -0.55235863 3.6878252e-40
6.093689 -4.5227365 -0.53933609 4.6097815e-40
6.0813737 -4.4985209 -0.56219822 4.6097815e-40
6.0563855 -4.4761934 -0.56768817 3.6878252e-40
6.0675006 -4.5369139 -0.53933609 6.4536941e-40
6.0468001 -4.5146461 -0.5503906 4.6097815e-40
6.0350285 -4.4877558 -0.56768817 1.1063476e-39
6.0321569 -4.5212774 -0.54448682 7.3756504e-40
6.0130134 -4.4981041 -0.56053442 5.5317378e-40
6.0057182 -4.5355906 -0.54448682 5.5317378e-40
5.9834828 -4.5136986 -0.55874598 6.4536941e-40
5.9604521 -4.4909534 -0.56715894 2.7658689e-40
5.9687648 -4.5183945 -0.54384232 2.7658689e-40
5.9437256 -4.4986877 -0.56113976 3.6878252e-40
5.9275527 -4.5074425 -0.56113988 1.8439126e-40
5.9009533 -4.4859629 -0.56651437 1.8439126e-40
5.8835087 -4.4927387 -0.55436087 1.8439126e-40
5.8614883 -4.4706631 -0.57359093 1.8439126e-40
6.1997242 -4.3534861 -0.53104424 7.3756504e-40
6.2015023 -4.3871584 -0.51999646 6.4536941e-40
6.1781607 -4.36516 -0.53104424 9.219563e-40
6.1630778 -4.4097061 -0.5279451 3.6878252e-40
6.1614347 -4.3728943 -0.52502513 2.2126951e-39
6.1643281 -4.4780736 -0.51009625 4.6097815e-40
6.1563473 -4.4475613 -0.51496774 3.6878252e-40
6.1446872 -4.4887071 -0.51009625 3.6878252e-40
6.1246214 -4.4647374 -0.51496774 5.5317378e-40
6.1143017 -4.5045147 -0.50717229 7.3756504e-40
6.1145887 -4.4714651 -0.52087158 4.6097815e-40
6.091001 -4.5177717 -0.51009625 4.6097815e-40
6.0648127 -4.5319495 -0.51009625 6.4536941e-40
6.0411038 -4.5125446 -0.52677536 4.6097815e-40
6.0448914 -4.5410223 -0.50229901 3.6878252e-40
6.0299859 -4.5172677 -0.52087158 4.6097815e-40
6.0098352 -4.4922333 -0.52595794 4.6097815e-40
6.0002666 -4.5330982 -0.51969081 6.4536941e-40
5.9783473 -4.5105886 -0.53191942 6.4536941e-40
5.9576855 -4.4858437 -0.53706336 3.6878252e-40
5.9665728 -4.5143456 -0.51999646 4.6097815e-40
5.940959 -4.493577 -0.53104424 3.6878252e-40
5.9247866 -4.5023327 -0.53104424 1.8439126e-40
5.8981605 -4.480804 -0.53613061 1.8439126e-40
5.882391 -4.4906754 -0.54220736 1.8439126e-40
5.8633771 -4.4621191 -0.53933042 1.8439126e-40
6.2094407 -4.3763165 -0.49018919 4.6097815e-40
6.2034554 -4.3475018 -0.51298696 9.219563e-40
6.1953926 -4.4186459 -0.47954491 4.6097815e-40
6.1952581 -4.3858275 -0.49853525 5.5317378e-40
6.1781292 -4.4288564 -0.48348078 4.6097815e-40
6.1707659 -4.4005265 -0.50509286 4.6097815e-40
6.1616406 -4.4731092 -0.48085648 3.6878252e-40
6.1642094 -4.4368238 -0.48544872 6.4536941e-40
6.1406898 -4.4844513 -0.48085648 4.6097815e-40
6.1284075 -4.5261412 -0.48220623 3.6878252e-40
6.1139641 -4.4976358 -0.47500852 4.6097815e-40
6.1071177 -4.5363951 -0.47641233 5.5317378e-40
6.088851 -4.5137997 -0.48670444 6.4536941e-40
6.0759821 -4.5532517 -0.47641227 4.6097815e-40
6.0495033 -4.5663147 -0.47061843 4.6097815e-40
6.0335865 -4.543077 -0.48378044 4.6097815e-40
6.0177827 -4.5199857 -0.50316018 1.1063476e-39
6.014986 -4.5525055 -0.48085648 4.6097815e-40
5.9926801 -4.531354 -0.4930394 5.5317378e-40
5.955472 -4.4817557 -0.51298696 8.2976067e-40
5.9638329 -4.509285 -0.49018919 3.6878252e-40
5.9381928 -4.4884672 -0.50094867 2.7658689e-40
5.92202 -4.4972229 -0.50094879 1.8439126e-40
5.8966794 -4.4754686 -0.50817746 1.8439126e-40
5.8779364 -4.4452553 -0.49842232 2.7658689e-40
5.862577 -4.456265 -0.51069474 1.8439126e-40
6.2077971 -4.37328 -0.47230482 6.4536941e-40
6.2259669 -4.4292955 -0.43992075 5.5317378e-40
6.1971087 -4.4133959 -0.45986557 4.6097815e-40
6.1971183 -4.3790612 -0.47230482 6.4536941e-40
6.1779017 -4.4242268 -0.46183348 7.3756504e-40
6.1589527 -4.4681444 -0.4516167 4.6097815e-40
6.1620388 -4.4328146 -0.46183348 5.5317378e-40
6.1380024 -4.4794865 -0.4516167 6.4536941e-40
6.1170516 -4.4908285 -0.4516167 4.6097815e-40
6.104455 -4.531476 -0.44744271 4.6097815e-40
6.0733194 -4.5483327 -0.44744271 5.5317378e-40
6.0497012 -4.560483 -0.44454581 4.6097815e-40
6.0285487 -4.5400267 -0.45746464 5.5317378e-40
6.0307403 -4.56884 -0.43585494 6.4536941e-40
6.0070605 -4.5503759 -0.45161667 4.6097815e-40
5.9822578 -4.5301447 -0.46183348 4.6097815e-40
5.9902725 -4.5568972 -0.43992075 7.3756504e-40
5.9716825 -4.5358701 -0.46183348 5.5317378e-40
5.9475851 -4.5132818 -0.4683305 3.6878252e-40
5.9294825 -4.4852543 -0.46483403 2.7658689e-40
5.919807 -4.4931355 -0.47687227 2.7658689e-40
5.9014592 -4.4652314 -0.47333741 1.8439126e-40
5.8762441 -4.4421291 -0.48001367 1.8439126e-40
5.8652525 -4.4480801 -0.48001367 2.7658689e-40
5.8428235 -4.4218979 -0.48480541 2.7658689e-40
6.2196541 -4.4301457 -0.42822483 5.5317378e-40
6.1984496 -4.40625 -0.4306277 4.6097815e-40
6.1751881 -4.4192142 -0.43231452 4.6097815e-40
6.1568027 -4.4641724 -0.42822483 3.6878252e-40
6.1593251 -4.4278021 -0.43231446 4.6097815e-40
6.1583409 -4.4946709 -0.41267928 4.6097815e-40
6.133327 -4.4758549 -0.4235464 4.6097815e-40
6.1110511 -4.4880857 -0.42432618 3.6878252e-40
6.0996099 -4.5274849 -0.41731441 5.5317378e-40
6.0728388 -4.5424867 -0.41963199 4.6097815e-40
6.0509744 -4.518898 -0.41652891 3.6878252e-40
6.0305614 -4.5312338 -0.4223769 5.5317378e-40
6.0043731 -4.5454111 -0.42237687 4.6097815e-40
5.9790015 -4.5241299 -0.42641065 4.6097815e-40
5.9689689 -4.530858 -0.43231446 3.6878252e-40
5.9437313 -4.5078635 -0.43415147 2.7658689e-40
5.9283757 -4.4832096 -0.4527958 1.8439126e-40
5.9125242 -4.4882674 -0.4367449 1.8439126e-40
5.8959689 -4.4637566 -0.45308152 1.8439126e-40
5.8745518 -4.4390039 -0.46160504 2.7658689e-40
5.8635602 -4.4449544 -0.46160504 2.7658689e-40
6.1989131 -4.399889 -0.40279546 6.4536941e-40
6.1724749 -4.4142022 -0.4027954 5.5317378e-40
6.1588144 -4.4553795 -0.3931371 5.5317378e-40
6.1560688 -4.4217877 -0.39689159 5.5317378e-40
6.1619325 -4.4889097 -0.39529756 4.6097815e-40
6.1326265 -4.4695573 -0.39313707 5.5317378e-40
6.1193533 -4.5094175 -0.38370976 5.5317378e-40
6.112751 -4.4828854 -0.40483302 4.6097815e-40
6.0991287 -4.5216389 -0.3895036 4.6097815e-40
6.0679936 -4.5384951 -0.3895036 5.5317378e-40
6.0415144 -4.5515585 -0.38370976 3.6878252e-40
6.0289488 -4.5282545 -0.40483302 3.6878252e-40
6.0259466 -4.5599861 -0.38370976 3.6878252e-40
6.0016851 -4.5404468 -0.3931371 4.6097815e-40
5.9773731 -4.5211229 -0.40869921 3.6878252e-40
5.9854345 -4.5479603 -0.38728914 3.6878252e-40
5.9657125 -4.5248432 -0.39689159 3.6878252e-40
5.9434562 -4.502254 -0.40792105 2.7658689e-40
5.90833 -4.4848118 -0.41066206 1.8439126e-40
5.8864779 -4.4635582 -0.42877448 1.8439126e-40
5.8916035 -4.4925451 -0.40464294 2.7658689e-40
6.2173505 -4.3834267 -0.37327638 3.6878252e-40
6.1961994 -4.3948765 -0.37327641 3.6878252e-40
6.1776152 -4.4400654 -0.36974522 8.2976067e-40
6.1697612 -4.4091902 -0.37327635 5.5317378e-40
6.1545601 -4.4516907 -0.3658466 4.6097815e-40
6.1538982 -4.417778 -0.37327635 4.6097815e-40
6.1299386 -4.4645929 -0.36389726 3.6878252e-40
6.1172228 -4.5054827 -0.36053407 5.5317378e-40
6.1105628 -4.5443544 -0.36291075 8.2976067e-40
6.095933 -4.5157361 -0.3547402 5.5317378e-40
6.0940852 -4.550755 -0.35143104 5.5317378e-40
6.0653305 -4.5335765 -0.36053401 6.4536941e-40
6.0393844 -4.5476232 -0.36053407 6.4536941e-40
6.0238166 -4.5560513 -0.36053407 4.6097815e-40
5.9989977 -4.5354824 -0.36389726 4.6097815e-40
5.9735746 -4.5141058 -0.36737251 3.6878252e-40
5.963542 -4.520834 -0.37327635 3.6878252e-40
5.9386902 -4.4985514 -0.37930602 2.7658689e-40
5.9206295 -4.4689021 -0.36852828 2.7658689e-40
5.9055634 -4.479702 -0.38056645 1.8439126e-40
5.8899441 -4.4894795 -0.38658562 1.8439126e-40
6.2151794 -4.3794165 -0.34966111 7.3756504e-40
6.1934862 -4.3898649 -0.34375739 4.6097815e-40
6.1785526 -4.4292865 -0.32296157 5.5317378e-40
6.167048 -4.4041781 -0.3437573 5.5317378e-40
6.1482015 -4.4482856 -0.33465746 5.5317378e-40
6.151185 -4.412766 -0.3437573 6.4536941e-40
6.1287475 -4.4588175 -0.33465746 5.5317378e-40
6.1136284 -4.4318023 -0.33785349 7.3756504e-40
6.1145601 -4.5005636 -0.33156452 4.6097815e-40
6.1063004 -4.4709702 -0.33465746 5.5317378e-40
6.1012011 -4.539341 -0.31699187 4.6097815e-40
6.1002431 -4.5088234 -0.33388209 4.6097815e-40
6.0914474 -4.5458822 -0.32273173 6.4536941e-40
6.0626678 -4.5286579 -0.33156449 5.5317378e-40
6.0375462 -4.541749 -0.32924697 3.6878252e-40
6.0183353 -4.5211611 -0.34635338 8.2976067e-40
6.0206213 -4.550149 -0.32577062 5.5317378e-40
5.9963098 -4.5305176 -0.33465746 3.6878252e-40
5.9777088 -4.5399456 -0.33173349 2.7658689e-40
5.9571228 -4.5173965 -0.34178936 2.7658689e-40
5.9330659 -4.4949646 -0.34910128 1.8439126e-40
5.9081879 -4.4716735 -0.35047093 2.7658689e-40
6.207828 -4.4083014 -0.29956973 5.5317378e-40
6.1966033 -4.3829927 -0.32014206 5.5317378e-40
6.1769395 -4.4263077 -0.30541769 4.6097815e-40
6.1507511 -4.4404855 -0.30541769 3.6878252e-40
6.149014 -4.4087563 -0.32014206 4.6097815e-40
6.1528788 -4.4721861 -0.29680106 4.6097815e-40
6.1245632 -4.4546633 -0.30541769 4.6097815e-40
6.1185989 -4.5223608 -0.28255269 3.6878252e-40
6.111897 -4.495645 -0.30259499 3.6878252e-40
6.1062455 -4.5620704 -0.27998078 6.4536941e-40
6.1042314 -4.5326595 -0.29403242 4.6097815e-40
6.1020513 -4.5022478 -0.30838886 4.6097815e-40
6.0796947 -4.5452232 -0.29075253 4.6097815e-40
6.0657263 -4.5219131 -0.30838886 8.2976067e-40
6.0536404 -4.5595446 -0.29173648 5.5317378e-40
6.032506 -4.5390501 -0.30452633 4.6097815e-40
6.0100813 -4.5505123 -0.30143622 3.6878252e-40
5.9889216 -4.5293813 -0.31126565 3.6878252e-40
5.9779091 -4.5340595 -0.30541769 3.6878252e-40
5.9528275 -4.5136728 -0.31423828 1.8439126e-40
5.9301434 -4.4895663 -0.31730688 1.8439126e-40
5.9105659 -4.500165 -0.31730688 2.7658689e-40
5.906528 -4.4686074 -0.33241361 1.8439126e-40
6.2271662 -4.39398 -0.28202581 4.6097815e-40
6.205678 -4.4043293 -0.27617791 7.3756504e-40
6.198092 -4.3731132 -0.27881539 5.5317378e-40
6.174252 -4.4213428 -0.27617788 5.5317378e-40
6.146318 -4.4364662 -0.27617788 3.6878252e-40
6.1457577 -4.4027424 -0.28471923 4.6097815e-40
6.1367326 -4.4754152 -0.27169403 4.6097815e-40
6.1323509 -4.4440279 -0.27617785 4.6097815e-40
6.1170158 -4.5194373 -0.26533306 4.6097815e-40
6.1196127 -4.4851074 -0.27362546 5.5317378e-40
6.1092482 -4.5554495 -0.25723025 4.6097815e-40
6.1072621 -4.5259781 -0.27107292 5.5317378e-40
6.111063 -4.583919 -0.24367453 3.6878252e-40
6.0896816 -4.5655432 -0.25495523 4.6097815e-40
6.069211 -4.5457382 -0.26724634 3.6878252e-40
6.0478783 -4.557497 -0.26820299 3.6878252e-40
6.0293107 -4.5331473 -0.26976281 4.6097815e-40
6.0054493 -4.5469141 -0.27362528 3.6878252e-40
5.9708161 -4.5309663 -0.27383867 1.8439126e-40
5.9559445 -4.5068002 -0.29062304 1.8439126e-40
5.929183 -4.4835415 -0.28749955 1.8439126e-40
5.9150968 -4.4586821 -0.30833715 2.7658689e-40
5.9126172 -4.4912014 -0.2815381 2.7658689e-40
5.8980942 -4.4659052 -0.29930851 1.8439126e-40
5.8763752 -4.4405651 -0.29913691 1.8439126e-40
5.8610148 -4.4139991 -0.31433591 1.8439126e-40
5.8267264 -4.3540483 -0.32070383 2.7658689e-40
5.880538 -4.472106 -0.28426072 1.8439126e-40
5.8589306 -4.447341 -0.28698337 2.7658689e-40
5.8488951 -4.4178658 -0.30206347 1.8439126e-40
5.8263025 -4.3913822 -0.30507883 2.7658689e-40
5.7919326 -4.3701363 -0.30818281 2.7658689e-40
5.7922544 -4.3328848 -0.32393396 3.6878252e-40
5.7695036 -4.3822784 -0.30818281 1.8439126e-40
6.2287326 -4.3539324 -0.2670078 4.6097815e-40
6.2195573 -4.3184853 -0.25173077 7.3756504e-40
6.2141566 -4.358583 -0.25224826 4.6097815e-40
6.2010026 -4.4006977 -0.24810763 4.6097815e-40
6.1715641 -4.416378 -0.24693808 6.4536941e-40
6.1506138 -4.4277205 -0.24693808 4.6097815e-40
6.1371741 -4.467968 -0.23886187 4.6097815e-40
6.114378 -4.5145645 -0.23663372 4.6097815e-40
6.1164169 -4.4792051 -0.23886199 4.6097815e-40
6.1117282 -4.5478635 -0.22879218 5.5317378e-40
6.1016765 -4.5846691 -0.22394443 5.5317378e-40
6.0788784 -4.5662723 -0.23163599 4.6097815e-40
6.0640249 -4.5443449 -0.24811348 3.6878252e-40
6.0602651 -4.5744762 -0.22310457 4.6097815e-40
6.0412526 -4.5544682 -0.23806877 3.6878252e-40
6.0177121 -4.565217 -0.22898062 2.7658689e-40
6.0008173 -4.5433159 -0.24581462 3.6878252e-40
6.0080132 -4.634758 -0.22112584 1.8439126e-40
6.0093246 -4.6020546 -0.22310457 1.8439126e-40
5.9844952 -4.585721 -0.24046032 1.8439126e-40
5.9825621 -4.5542164 -0.25044975 1.8439126e-40
5.9431982 -4.5085158 -0.2670078 1.8439126e-40
5.9979153 -4.6402245 -0.22112584 2.7658689e-40
5.9787602 -4.6186013 -0.22310457 1.8439126e-40
5.9632282 -4.5955544 -0.23280717 1.8439126e-40
5.9514265 -4.5710726 -0.25044981 1.8439126e-40
5.9273353 -4.5171037 -0.2670078 2.7658689e-40
5.9008427 -4.4949584 -0.26961517 2.7658689e-40
5.9493437 -4.6026511 -0.23089388 2.7658689e-40
5.9290719 -4.5793591 -0.23306802 1.8439126e-40
5.9149194 -4.5553217 -0.24693808 1.8439126e-40
5.893981 -4.5312729 -0.24929638 1.8439126e-40
5.8842769 -4.5026178 -0.26365373 1.8439126e-40
5.8627052 -4.4777956 -0.26620337 1.8439126e-40
5.8469281 -4.45117 -0.27482983 2.7658689e-40
5.8367753 -4.4217329 -0.28979105 2.7658689e-40
5.8134923 -4.3942351 -0.28648642 2.7658689e-40
5.7896304 -4.3658838 -0.28314069 2.7658689e-40
5.7910919 -4.3307371 -0.31128681 2.7658689e-40
5.8349257 -4.4549999 -0.26267633 1.8439126e-40
5.8029604 -4.4012976 -0.29268387 2.7658689e-40
5.7789917 -4.3730183 -0.2894012 2.7658689e-40
5.7553663 -4.3459134 -0.29231605 2.7658689e-40
6.2136717 -4.2446165 -0.23836929 6.4536941e-40
6.2097969 -4.2819567 -0.23008873 4.6097815e-40
6.2090707 -4.3555036 -0.22568116 4.6097815e-40
6.1950645 -4.3972359 -0.21769831 4.6097815e-40
6.1727266 -4.4101858 -0.22159693 5.5317378e-40
6.1503639 -4.3859901 -0.21977733 4.6097815e-40
6.1479259 -4.4227562 -0.21769825 4.6097815e-40
6.1346178 -4.4632454 -0.21105117 6.4536941e-40
6.1259003 -4.4321127 -0.20600235 1.2907388e-39
6.1122675 -4.5106659 -0.21367428 4.6097815e-40
6.110117 -4.475831 -0.20796111 8.2976067e-40
6.1012115 -4.546689 -0.19751027 7.3756504e-40
6.1014581 -4.5152578 -0.20793444 4.6097815e-40
6.0867224 -4.5871954 -0.19857715 5.5317378e-40
6.0833826 -4.5563412 -0.1975103 4.6097815e-40
6.0736041 -4.5951223 -0.20233525 4.6097815e-40
6.0520611 -4.5739226 -0.20035408 5.5317378e-40
6.0294867 -4.5542221 -0.20793444 3.6878252e-40
6.0351973 -4.6126151 -0.1873028 6.4536941e-40
6.0269122 -4.5858727 -0.19277066 2.7658689e-40
6.012526 -4.5638247 -0.2098477 2.7658689e-40
6.0082059 -4.6290841 -0.19575855 1.8439126e-40
6.0077562 -4.5991573 -0.20604169 1.8439126e-40
5.9958429 -4.6363964 -0.19857715 1.8439126e-40
5.9766688 -4.6147385 -0.20035414 1.8439126e-40
5.9575148 -4.5931864 -0.20793444 2.7658689e-40
5.9373198 -4.5698051 -0.20989236 1.8439126e-40
5.9269414 -4.5754237 -0.20989236 1.8439126e-40
5.9069939 -4.5531926 -0.21769825 1.8439126e-40
5.8865228 -4.5301256 -0.22568116 1.8439126e-40
5.8551011 -4.4766264 -0.24212694 1.8439126e-40
5.83325 -4.4519043 -0.24444605 1.8439126e-40
5.8114076 -4.4273834 -0.25297379 2.7658689e-40
5.8006821 -4.3970885 -0.26789403 2.7658689e-40
5.77669 -4.3687668 -0.26435912 2.7658689e-40
5.7536225 -4.3426924 -0.27334532 2.7658689e-40
6.2326493 -4.2276716 -0.20798549 4.6097815e-40
6.2168803 -4.2375431 -0.21406229 6.4536941e-40
6.2135296 -4.3073506 -0.18615475 5.5317378e-40
6.2075834 -4.2778687 -0.20601229 3.6878252e-40
6.206357 -4.3504915 -0.19616216 3.6878252e-40
6.1939435 -4.390995 -0.18650916 3.6878252e-40
6.1799192 -4.3648047 -0.1961621 4.6097815e-40
6.1681762 -4.4051161 -0.18728885 4.6097815e-40
6.152442 -4.3814092 -0.20403388 4.6097815e-40
6.1452379 -4.4177914 -0.1884585 4.6097815e-40
6.1318483 -4.4581304 -0.18092276 5.5317378e-40
6.1242876 -4.4291334 -0.1884585 3.6878252e-40
6.1091018 -4.5048189 -0.1792351 4.6097815e-40
6.1110911 -4.4693675 -0.18092288 5.5317378e-40
6.1014061 -4.5409641 -0.17191604 4.6097815e-40
6.0899997 -4.5771704 -0.16099598 4.6097815e-40
6.0764585 -4.5557189 -0.17760363 3.6878252e-40
6.0647554 -4.590837 -0.16099598 4.6097815e-40
6.0453715 -4.5713005 -0.17191601 3.6878252e-40
6.0341611 -4.6107006 -0.17602846 5.5317378e-40
6.0272808 -4.5804701 -0.16907221 2.7658689e-40
6.0101919 -4.6215553 -0.16636474 1.8439126e-40
5.992734 -4.6306534 -0.16475411 1.8439126e-40
5.9740548 -4.60991 -0.17191601 2.7658689e-40
5.9548764 -4.5883136 -0.1792351 1.8439126e-40
5.9346571 -4.5648861 -0.18092288 1.8439126e-40
5.9253435 -4.5724726 -0.19251065 2.7658689e-40
6.2309732 -4.224576 -0.18975522 5.5317378e-40
6.2337909 -4.2937641 -0.17423184 5.5317378e-40
6.2167058 -4.2689657 -0.18795495 4.6097815e-40
6.2200885 -4.2304688 -0.18975522 4.6097815e-40
6.2567034 -4.3484583 -0.14752278 3.6878252e-40
6.2271671 -4.3320961 -0.16369118 6.4536941e-40
6.2231121 -4.2995453 -0.17423184 5.5317378e-40
6.2148023 -4.3711429 -0.14752278 4.6097815e-40
6.2089314 -4.342617 -0.16664305 3.6878252e-40
6.2013021 -4.4128962 -0.14615937 4.6097815e-40
6.1950612 -4.3847189 -0.16068071 6.4536941e-40
6.1635008 -4.4014845 -0.1592187 1.2907388e-39
6.1425505 -4.4128265 -0.1592187 4.6097815e-40
6.1290789 -4.4530144 -0.15079445 4.6097815e-40
6.1221371 -4.4251623 -0.16506666 4.6097815e-40
6.1185246 -4.4915261 -0.14192598 8.2976067e-40
6.111834 -4.561224 -0.14220542 8.2976067e-40
6.1051922 -4.5323143 -0.14185289 5.5317378e-40
6.0815406 -4.5776243 -0.14220542 1.0141519e-39
6.0750847 -4.5470977 -0.13494653 3.6878252e-40
6.0589108 -4.5888853 -0.1376957 4.6097815e-40
6.0254416 -4.5762033 -0.14510301 2.7658689e-40
6.0103383 -4.614934 -0.13656823 1.8439126e-40
5.975307 -4.602489 -0.1412029 2.7658689e-40
5.9517107 -4.5824661 -0.14479592 1.8439126e-40
5.931994 -4.559967 -0.15195328 1.8439126e-40
5.9110184 -4.5356064 -0.14752278 2.7658689e-40
6.2284522 -4.2520342 -0.13980208 4.6097815e-40
6.2245026 -4.3280764 -0.13881093 3.6878252e-40
6.2131896 -4.3681641 -0.1299789 3.6878252e-40
6.1997042 -4.409945 -0.12877762 4.6097815e-40
6.1955519 -4.377285 -0.12802958 3.6878252e-40
6.1853337 -4.4164524 -0.12298375 4.6097815e-40
6.1610818 -4.397016 -0.13290286 7.3756504e-40
6.1503839 -4.4345264 -0.11912111 9.219563e-40
6.1403999 -4.408855 -0.13582686 4.6097815e-40
6.131712 -4.4454832 -0.1229836 4.6097815e-40
6.1211252 -4.516552 -0.10935219 8.2976067e-40
6.1206098 -4.485146 -0.11800985 5.5317378e-40
6.11099 -4.5536356 -0.10556376 3.6878252e-40
6.1048422 -4.5270329 -0.11693574 5.5317378e-40
6.0899272 -4.5641727 -0.10161771 3.6878252e-40
6.0742779 -4.5435796 -0.11693574 6.4536941e-40
6.0594983 -4.5821314 -0.10838233 3.6878252e-40
6.0566559 -4.6158848 -0.10741246 8.2976067e-40
6.0329919 -4.5964813 -0.10838233 1.8439126e-40
6.0155997 -4.6356592 -0.096238978 3.6878252e-40
6.0078769 -4.6103878 -0.10979164 1.8439126e-40
5.9833055 -4.6228857 -0.10612749 2.7658689e-40
5.9615116 -4.6029644 -0.10935222 2.7658689e-40
5.9496002 -4.578568 -0.12183643 2.7658689e-40
5.9303961 -4.5570164 -0.13457154 1.8439126e-40
5.9468822 -4.608387 -0.097976923 2.7658689e-40
5.9387913 -4.5831594 -0.11609656 1.8439126e-40
5.9137635 -4.5634766 -0.12298363 1.8439126e-40
6.2253876 -4.2142582 -0.12898757 3.6878252e-40
6.2277627 -4.28263 -0.10865574 4.6097815e-40
6.2267923 -4.2489681 -0.12174468 4.6097815e-40
6.219368 -4.3240051 -0.10760496 4.6097815e-40
6.2105017 -4.3631992 -0.10073906 4.6097815e-40
6.1947889 -4.371706 -0.10073901 4.6097815e-40
6.179389 -4.4137349 -0.095945485 4.6097815e-40
6.1596217 -4.3907452 -0.10073906 4.6097815e-40
6.1503382 -4.4303107 -0.099808 4.6097815e-40
6.1360998 -4.4009113 -0.08904314 5.5317378e-40
6.1309772 -4.4715519 -0.081657417 4.6097815e-40
6.1239662 -4.4435706 -0.095172912 4.6097815e-40
6.1179886 -4.5107579 -0.075226501 9.219563e-40
6.1143689 -4.4818039 -0.087397255 3.6878252e-40
6.1106644 -4.5470047 -0.074559294 4.6097815e-40
6.0854201 -4.5606718 -0.074559294 8.2976067e-40
6.0551271 -4.5770721 -0.074559346 5.5317378e-40
6.0298824 -4.5907388 -0.074559294 2.7658689e-40
6.0195761 -4.631053 -0.085065559 2.7658689e-40
6.0044656 -4.6040869 -0.072680205 2.7658689e-40
6.002511 -4.6353855 -0.06271866 3.6878252e-40
5.979394 -4.6180725 -0.074559294 2.7658689e-40
5.9642477 -4.6262727 -0.074559294 1.8439126e-40
5.9453135 -4.6054902 -0.08091408 2.7658689e-40
5.9253435 -4.5828786 -0.081657417 2.7658689e-40
5.9095483 -4.5598221 -0.095945485 1.8439126e-40
6.2420073 -4.3026743 -0.066278264 1.4751301e-39
6.2219419 -4.3161297 -0.078085907 5.5317378e-40
6.2072763 -4.3572416 -0.065651305 5.5317378e-40
6.2007914 -4.3275805 -0.078085907 6.4536941e-40
6.1868634 -4.3695774 -0.071499236 4.6097815e-40
6.1554375 -4.3865905 -0.071499288 4.6097815e-40
6.1408882 -4.4252501 -0.053456746 4.6097815e-40
6.1344872 -4.397933 -0.071499236 5.5317378e-40
6.1357503 -4.4948988 -0.046788387 4.6097815e-40
6.1340075 -4.4648705 -0.05869795 6.4536941e-40
6.1321077 -4.4338198 -0.070838489 3.6878252e-40
6.1197634 -4.504303 -0.050200969 4.6097815e-40
6.119113 -4.4741945 -0.064437784 5.5317378e-40
6.1080737 -4.5422192 -0.046373472 3.6878252e-40
6.0828295 -4.5558863 -0.046373412 4.6097815e-40
6.052536 -4.5722861 -0.046373472 4.6097815e-40
6.0349689 -4.61168 -0.034785017 3.6878252e-40
6.0278101 -4.5869102 -0.0520106 3.6878252e-40
6.0194445 -4.6188583 -0.029198276 3.6878252e-40
6.0041704 -4.5987177 -0.047500931 2.7658689e-40
5.9954529 -4.6343002 -0.040371697 2.7658689e-40
5.9752932 -4.6145172 -0.048252493 2.7658689e-40
5.9616566 -4.6214867 -0.046373472 3.6878252e-40
5.9432225 -4.6016273 -0.058163658 4.6097815e-40
5.9237609 -4.5799551 -0.064437784 3.6878252e-40
5.9055767 -4.5545521 -0.062147588 2.7658689e-40
6.2276225 -4.2696171 -0.049041174 9.219563e-40
6.2139406 -4.3139806 -0.048566855 8.2976067e-40
6.2074766 -4.351356 -0.039335493 4.6097815e-40
6.1841755 -4.3646126 -0.042259458 6.4536941e-40
6.1595149 -4.4100776 -0.030281089 5.5317378e-40
6.1545534 -4.3813829 -0.045601107 8.2976067e-40
6.1425724 -4.4200978 -0.034143779 4.6097815e-40
6.1321869 -4.4590511 -0.027702695 5.5317378e-40
6.1195931 -4.527319 -0.0069132191 5.5317378e-40
6.1183772 -4.4993091 -0.024037967 4.6097815e-40
6.1042657 -4.5375977 -0.015932731 5.5317378e-40
6.1036177 -4.5085483 -0.029725542 4.6097815e-40
6.0802383 -4.5511007 -0.018187594 4.6097815e-40
6.0513368 -4.5670567 -0.019596905 4.6097815e-40
6.0358143 -4.6060715 -0.011320779 3.6878252e-40
6.0184174 -4.6169615 -0.018024797 4.6097815e-40
5.9964237 -4.5961227 -0.016577018 1.8439126e-40
5.9769955 -4.6076131 -0.021006158 2.7658689e-40
5.9553676 -4.5875597 -0.024037967 1.8439126e-40
5.9401035 -4.5610256 -0.018518908 2.7658689e-40
5.9406085 -4.5967989 -0.029725542 2.7658689e-40
5.9308767 -4.568541 -0.029998643 1.8439126e-40
5.910964 -4.5459108 -0.036075003 1.8439126e-40
5.8903298 -4.5224118 -0.036411528 1.8439126e-40
6.2376657 -4.2946558 -0.019047866 4.6097815e-40
6.2200909 -4.2684593 -0.025195362 6.4536941e-40
6.2160811 -4.3053041 -0.01432482 5.5317378e-40
6.2061095 -4.346746 -0.014969054 4.6097815e-40
6.181488 -4.3596478 -0.013019743 8.2976067e-40
6.157917 -4.4071264 -0.012899349 4.6097815e-40
6.1605372 -4.3709903 -0.013019685 5.5317378e-40
6.1409922 -4.4155264 -0.0094229765 7.3756504e-40
6.1310449 -4.486207 0.0044000889 4.6097815e-40
6.1338725 -4.452342 -0.0012993356 6.4536941e-40
6.1165729 -4.4935427 0.0066752024 5.5317378e-40
6.1028919 -4.5326481 0.0099982843 3.6878252e-40
6.0776477 -4.5463147 0.0099982256 4.6097815e-40
6.052403 -4.5599813 0.0099982843 6.4536941e-40
6.0342283 -4.6013489 0.014098854 3.6878252e-40
6.0103326 -4.6139789 0.015495525 1.8439126e-40
5.9867678 -4.5955153 0.0099982843 2.7658689e-40
5.9766703 -4.6009822 0.0099982843 1.8439126e-40
5.9578476 -4.5799732 0.0044000889 1.8439126e-40
5.9385204 -4.5581017 -0.0012993356 1.8439126e-40
5.917614 -4.5334063 0.0044823936 2.7658689e-40
5.9287663 -4.5646429 -0.0070391735 2.7658689e-40
5.9036441 -4.5447855 -0.012899349 2.7658689e-40
6.2354951 -4.2906456 0.004567421 4.6097815e-40
6.2162552 -4.2613735 0.01653491 4.6097815e-40
6.2117953 -4.3024397 0.009290467 5.5317378e-40
6.1926508 -4.3125443 0.010471242 4.6097815e-40
6.1788001 -4.3546834 0.016220089 4.6097815e-40
6.1473742 -4.3716965 0.016220089 4.6097815e-40
6.1339645 -4.4124613 0.021864077 4.6097815e-40
6.1320014 -4.4798617 0.030942326 4.6097815e-40
6.1312342 -4.4474688 0.02740003 4.6097815e-40
6.1131487 -4.4896517 0.032838263 4.6097815e-40
6.1013107 -4.5273151 0.038184162 3.6878252e-40
6.0820618 -4.5052333 0.038525838 4.6097815e-40
6.0737944 -4.5422125 0.038184103 4.6097815e-40
6.0447636 -4.557929 0.038184162 4.6097815e-40
6.0277796 -4.5984001 0.043429166 3.6878252e-40
6.009604 -4.6086493 0.041566938 1.8439126e-40
5.9864426 -4.5888844 0.041002724 1.8439126e-40
5.9702473 -4.5987659 0.0359293 1.8439126e-40
5.9450455 -4.5806603 0.032838263 1.8439126e-40
5.9369378 -4.5551782 0.015920294 1.8439126e-40
5.9160166 -4.5304546 0.021864077 2.7658689e-40
5.9061708 -4.5370574 0.016070163 2.7658689e-40
5.8872375 -4.5125303 0.016220089 1.8439126e-40
6.2010555 -4.3028097 0.034086414 4.6097815e-40
6.2039323 -4.2641182 0.034419253 5.5317378e-40
6.1870222 -4.3084626 0.042942174 4.6097815e-40
6.1741247 -4.3510513 0.044290382 4.6097815e-40
6.1509938 -4.3943377 0.062421534 4.6097815e-40
6.1466742 -4.3653994 0.046629578 5.5317378e-40
6.1354532 -4.4052954 0.050833646 4.6097815e-40
6.1229277 -4.4444046 0.061839174 4.6097815e-40
6.1105351 -4.4848237 0.06127638 3.6878252e-40
6.0858865 -4.4619374 0.073318966 4.6097815e-40
6.0982285 -4.5240335 0.060732853 3.6878252e-40
6.0789251 -4.4994392 0.072651587 4.6097815e-40
6.0689273 -4.5382466 0.068249121 4.6097815e-40
6.0512571 -4.5820103 0.060189441 4.6097815e-40
6.0415249 -4.5519466 0.073416539 3.6878252e-40
6.0164099 -4.5658531 0.072007224 3.6878252e-40
5.9938068 -4.5795751 0.065242581 4.6097815e-40
5.9719501 -4.5573535 0.072651587 1.8439126e-40
5.9577136 -4.5675583 0.06127638 1.8439126e-40
5.9350233 -4.5455027 0.064709119 1.8439126e-40
5.9144187 -4.527504 0.039245818 2.7658689e-40
5.92349 -4.5548968 0.050359439 2.7658689e-40
5.9040403 -4.5331225 0.039245818 2.7658689e-40
5.8833418 -4.5095038 0.039611932 1.8439126e-40
6.1916099 -4.2668629 0.052303657 4.6097815e-40
6.1766486 -4.3082457 0.069509342 3.6878252e-40
6.1658368 -4.349504 0.071775727 5.5317378e-40
6.1655307 -4.3129687 0.07541316 3.6878252e-40
6.1419988 -4.3617678 0.074699812 4.6097815e-40
6.1205106 -4.3721166 0.080547683 4.6097815e-40
6.1087856 -4.4105735 0.092549875 7.3756504e-40
6.0951133 -4.454422 0.084798701 6.4536941e-40
6.080338 -4.4249573 0.097184956 3.6878252e-40
6.0727854 -4.5002651 0.084026858 5.5317378e-40
6.0704188 -4.4661102 0.092451856 5.5317378e-40
6.054172 -4.5084696 0.09255828 5.5317378e-40
6.0258932 -4.5231543 0.095402069 3.6878252e-40
6.0007715 -4.5375872 0.091610312 3.6878252e-40
5.971364 -4.4839535 0.097184956 2.7658689e-40
5.9759984 -4.5526643 0.084026858 1.8439126e-40
5.9511695 -4.5323505 0.084798701 2.7658689e-40
5.9408879 -4.5379171 0.084798701 2.7658689e-40
6.1432948 -4.3224144 0.087220751 5.5317378e-40
6.1268892 -4.3299999 0.093124568 7.3756504e-40
6.1188979 -4.3691378 0.098091535 4.6097815e-40
6.1238475 -4.4338245 0.10775811 1.8439126e-39
6.0994973 -4.4107685 0.11456664 4.6097815e-40
6.0787401 -4.4220057 0.1145667 5.5317378e-40
6.0674825 -4.4623237 0.1169419 6.4536941e-40
6.0462074 -4.4745979 0.11349801 5.5317378e-40
6.016469 -4.455718 0.1145667 4.6097815e-40
5.9976196 -4.4663472 0.1126353 4.6097815e-40
5.9806771 -4.4763675 0.10877278 4.6097815e-40
5.9559932 -4.456048 0.10393953 2.7658689e-40
5.9401922 -4.427186 0.11083598 2.7658689e-40
5.9303427 -4.4712191 0.098091535 1.8439126e-40
5.9201269 -4.4406414 0.099028394 1.8439126e-40
6.079555 -4.4502425 0.14219731 4.6097815e-40
6.0771422 -4.4190545 0.13194844 3.6878252e-40
6.0692735 -4.4558086 0.14219731 5.5317378e-40
6.0461926 -4.4337749 0.14121872 7.3756504e-40
6.0217104 -4.4480467 0.13658358 4.6097815e-40
5.9993691 -4.4235773 0.14487523 4.6097815e-40
5.9780498 -4.437366 0.13464129 6.4536941e-40
5.9491396 -4.4184532 0.12854744 4.6097815e-40
5.9251876 -4.3953929 0.12384121 2.7658689e-40
5.902215 -4.3705063 0.1250388 2.7658689e-40
5.9031467 -4.4099436 0.11191827 1.8439126e-40
5.8753724 -4.3477149 0.12623639 2.7658689e-40
6.0422788 -4.4290247 0.17250578 4.6097815e-40
6.0244823 -4.4074135 0.15657115 4.6097815e-40
6.0163326 -4.4430714 0.1725059 4.6097815e-40
6.0035315 -4.4187555 0.15657115 4.6097815e-40
5.9919386 -4.4558535 0.17443706 3.6878252e-40
5.9748182 -4.4332738 0.16124953 6.4536941e-40
5.9558554 -4.4432831 0.16241908 1.8439126e-40
