# .PCD v0.7 - Point Cloud Data file format
VERSION 0.7
FIELDS x y z rgb
SIZE 4 4 4 4
TYPE F F F F
COUNT 1 1 1 1
WIDTH 1025
HEIGHT 1
VIEWPOINT 0 0 0 1 0 0 0
POINTS 1025
DATA ascii
5.6408091 -3.4906681 -0.96428746 3.6878252e-40
5.6393018 -3.4661331 -0.95913786 5.5317378e-40
5.6026096 -3.5167797 -0.94670218 8.2976067e-40
5.6152353 -3.4935262 -0.95564294 3.6878252e-40
5.6175528 -3.4705753 -0.96204311 1.0141519e-39
5.5925765 -3.5185659 -0.94670218 2.7658689e-40
5.5825768 -3.5005419 -0.96176612 2.7658689e-40
5.5692787 -3.5233684 -0.95003748 2.7658689e-40
5.5470123 -3.5058854 -0.95672345 3.6878252e-40
5.5206943 -3.4878209 -0.96204305 2.7658689e-40
5.5272593 -3.7151985 -0.91945988 3.6878252e-40
5.5137653 -3.6601987 -0.92215556 2.7658689e-40
5.4963932 -3.4678822 -0.95963287 2.7658689e-40
5.5085201 -3.7540364 -0.91234624 4.6097815e-40
5.4798121 -3.7654393 -0.91101974 4.6097815e-40
5.4507656 -3.7675557 -0.9121449 3.6878252e-40
5.4228034 -3.7563577 -0.91317487 3.6878252e-40
5.4070063 -3.7390096 -0.91059732 4.6097815e-40
5.3792496 -3.7034736 -0.91519326 4.6097815e-40
5.6542711 -3.4783819 -0.91386098 3.6878252e-40
5.6356797 -3.4616146 -0.93280953 3.6878252e-40
5.6045251 -3.5130048 -0.92919153 2.7658689e-40
5.6091061 -3.4884014 -0.92394632 2.7658689e-40
5.6165204 -3.4647772 -0.93153852 2.7658689e-40
5.5898094 -3.5361245 -0.91239953 2.7658689e-40
5.5869675 -3.5161309 -0.92919159 2.7658689e-40
5.5658808 -3.5197868 -0.92869127 2.7658689e-40
5.543375 -3.5001049 -0.92394626 2.7658689e-40
5.5196619 -3.4820225 -0.93153852 2.7658689e-40
5.5213699 -3.6984086 -0.89179742 3.6878252e-40
5.5214038 -3.6763051 -0.90572053 2.7658689e-40
5.4956994 -3.463985 -0.93913078 2.7658689e-40
5.5066295 -3.7362113 -0.88655192 2.7658689e-40
5.5098867 -3.7029164 -0.8902905 2.7658689e-40
5.4752531 -3.7415709 -0.88539433 2.7658689e-40
5.4427547 -3.7473574 -0.88539439 3.6878252e-40
5.407536 -3.7270808 -0.88981456 2.7658689e-40
5.3786087 -3.6998723 -0.89624774 2.7658689e-40
5.6784077 -3.5148361 -0.8842839 3.6878252e-40
5.6609449 -3.4956002 -0.89166898 3.6878252e-40
5.6507425 -3.4964359 -0.886666 1.8439126e-40
5.6369619 -3.4788265 -0.90041393 3.6878252e-40
5.608758 -3.5272372 -0.8842839 3.6878252e-40
5.6108365 -3.5048494 -0.89333665 2.7658689e-40
5.6159225 -3.4827375 -0.9012543 3.6878252e-40
5.589026 -3.5317233 -0.88924551 2.7658689e-40
5.5691261 -3.5352664 -0.88924551 2.7658689e-40
5.5555983 -3.5143573 -0.89166898 2.7658689e-40
5.5426922 -3.4962709 -0.90377563 3.6878252e-40
5.5171971 -3.4727535 -0.90225792 2.7658689e-40
5.5237427 -3.6977367 -0.86641467 2.7658689e-40
5.5222559 -3.6673293 -0.86072487 2.7658689e-40
5.4946585 -3.4581392 -0.90837765 2.7658689e-40
5.5056109 -3.7304904 -0.85645628 2.7658689e-40
5.5090389 -3.6981556 -0.86524594 2.7658689e-40
5.4743128 -3.7362902 -0.8576138 2.7658689e-40
5.4445124 -3.7418556 -0.85893673 2.7658689e-40
5.4375343 -3.720768 -0.84529686 3.6878252e-40
5.4179258 -3.7131538 -0.85900283 1.8439126e-40
5.3966432 -3.691088 -0.86782944 4.6097815e-40
5.3841925 -3.6945434 -0.87414461 3.6878252e-40
5.3684382 -3.6683686 -0.8670392 3.6878252e-40
5.671598 -3.5111833 -0.85947603 2.7658689e-40
5.6701317 -3.4890587 -0.86665392 3.6878252e-40
5.6475501 -3.514492 -0.85451442 3.6878252e-40
5.6400805 -3.4946895 -0.86808336 3.6878252e-40
5.6174979 -3.5231292 -0.85742593 3.6878252e-40
5.6203051 -3.4998925 -0.87665993 4.6097815e-40
5.5880184 -3.5260646 -0.85947603 3.6878252e-40
5.565547 -3.5295792 -0.85699528 2.7658689e-40
5.5499043 -3.5114465 -0.87165695 3.6878252e-40
5.5761538 -3.7478242 -0.80844021 2.7658689e-40
5.5609546 -3.7117834 -0.81131297 2.7658689e-40
5.5444717 -3.6980689 -0.82663965 3.6878252e-40
5.5293303 -3.5121663 -0.85664791 2.7658689e-40
5.5315557 -3.4923201 -0.87351978 2.7658689e-40
5.5128431 -3.4732661 -0.88069773 2.7658689e-40
5.524169 -3.6844985 -0.82943755 2.7658689e-40
5.51932 -3.6646008 -0.84414756 2.7658689e-40
5.5026474 -3.4750814 -0.88069773 2.7658689e-40
5.5057139 -3.7243433 -0.82520318 3.6878252e-40
5.5084457 -3.6859674 -0.83772582 2.7658689e-40
5.4732161 -3.7301295 -0.82520324 4.6097815e-40
5.4325161 -3.7082837 -0.82983249 3.6878252e-40
5.40518 -3.6839948 -0.8394112 3.6878252e-40
5.3866014 -3.6669292 -0.84102458 3.6878252e-40
5.3692122 -3.6596737 -0.8409878 5.5317378e-40
5.3490429 -3.634706 -0.85888785 3.6878252e-40
5.667819 -3.4833381 -0.83538514 2.7658689e-40
5.6724482 -3.4632785 -0.85334915 2.7658689e-40
5.6448345 -3.5127604 -0.82739598 2.7658689e-40
5.6492186 -3.4878769 -0.84163886 5.5317378e-40
5.6217132 -3.5278862 -0.82550561 3.6878252e-40
5.5895052 -3.5267944 -0.82762289 3.6878252e-40
5.5788984 -3.7049565 -0.79279262 2.7658689e-40
5.560596 -3.5342176 -0.82691991 2.7658689e-40
5.553194 -3.6928568 -0.80798239 2.7658689e-40
5.5371943 -3.6549165 -0.81099296 1.8439126e-40
5.5306654 -3.6142905 -0.80890673 2.7658689e-40
5.529058 -3.5352776 -0.82830906 2.7658689e-40
5.5195742 -3.684639 -0.80588835 2.7658689e-40
5.518198 -3.6582987 -0.81099296 2.7658689e-40
5.5232229 -3.6356783 -0.80570877 2.7658689e-40
5.5154986 -3.5536218 -0.82337987 2.7658689e-40
5.5073147 -3.7179613 -0.79411554 3.6878252e-40
5.4938335 -3.6938789 -0.79446715 4.6097815e-40
5.4751549 -3.7248809 -0.80020076 6.4536941e-40
5.4666338 -3.7053418 -0.79305655 4.6097815e-40
5.4317851 -3.695369 -0.80287707 4.6097815e-40
5.4042177 -3.6785929 -0.81099296 2.7658689e-40
5.3854709 -3.6605792 -0.80761772 2.7658689e-40
5.3735886 -3.6631627 -0.81000388 3.6878252e-40
5.6721239 -3.4987645 -0.79662937 2.7658689e-40
5.675014 -3.4777241 -0.81328845 1.8439126e-40
5.6519632 -3.5212517 -0.79452354 3.6878252e-40
5.6111307 -3.5523069 -0.78744715 4.6097815e-40
5.6243896 -3.5286815 -0.79506832 2.7658689e-40
5.5915413 -3.555795 -0.78744709 2.7658689e-40
5.5938244 -3.5358136 -0.80368489 2.7658689e-40
5.5699492 -3.5801668 -0.78134745 3.6878252e-40
5.5621576 -3.5610263 -0.78744715 3.6878252e-40
5.5642023 -3.5410879 -0.80368489 2.7658689e-40
5.5298519 -3.6097202 -0.78486454 2.7658689e-40
5.5359335 -3.5862234 -0.78134745 2.7658689e-40
5.532939 -3.5671864 -0.79233128 4.6097815e-40
5.5345802 -3.5463619 -0.80368489 2.7658689e-40
5.5159626 -3.6735675 -0.78132159 2.7658689e-40
5.5156503 -3.6518524 -0.77580839 2.7658689e-40
5.5241675 -3.6298943 -0.77707434 2.7658689e-40
5.5037551 -3.713342 -0.76732719 2.7658689e-40
5.499732 -3.6875081 -0.7717343 3.6878252e-40
5.4663477 -3.7184582 -0.75945604 3.6878252e-40
5.4694109 -3.7010665 -0.77377743 2.7658689e-40
5.4478092 -3.7219408 -0.76038206 3.6878252e-40
5.4343128 -3.7035358 -0.77560443 3.6878252e-40
5.4119577 -3.6902421 -0.77192092 3.6878252e-40
5.3967104 -3.6731179 -0.77625948 4.6097815e-40
5.3848248 -3.6569502 -0.78852808 3.6878252e-40
5.3701873 -3.6523294 -0.77804935 3.6878252e-40
5.6976089 -3.498358 -0.76230752 2.7658689e-40
5.6753111 -3.4952953 -0.7695235 2.7658689e-40
5.6395226 -3.5415044 -0.75814253 4.6097815e-40
5.6530118 -3.5177917 -0.76552588 2.7658689e-40
5.6224179 -3.5651224 -0.7522698 2.7658689e-40
5.6203189 -3.5471582 -0.76953882 2.7658689e-40
5.6323209 -3.5231657 -0.77414244 5.5317378e-40
5.5913911 -3.5921621 -0.75120544 2.7658689e-40
5.600069 -3.5710022 -0.76196241 2.7658689e-40
5.6010056 -3.5521936 -0.77767897 3.6878252e-40
5.5673537 -3.5968459 -0.75326627 3.6878252e-40
5.5744805 -3.5774593 -0.7716549 2.7658689e-40
5.537272 -3.602505 -0.75481182 1.8439126e-40
5.5453243 -3.5826507 -0.7716549 2.7658689e-40
5.5122185 -3.6467307 -0.74657822 3.6878252e-40
5.5209961 -3.6219523 -0.7512809 1.8439126e-40
5.4968166 -3.6835682 -0.74460036 2.7658689e-40
5.4684277 -3.7147675 -0.74252313 2.7658689e-40
5.4689012 -3.6936867 -0.73568547 3.6878252e-40
5.4471822 -3.7184203 -0.7418617 8.2976067e-40
5.4348702 -3.7003863 -0.73895049 2.7658689e-40
5.4131613 -3.6947436 -0.74321842 2.7658689e-40
5.392796 -3.6694801 -0.75415635 3.6878252e-40
5.3795972 -3.6687341 -0.73836845 3.6878252e-40
5.364769 -3.6477602 -0.75862432 2.7658689e-40
5.7001066 -3.5033717 -0.73475248 1.8439126e-40
5.6680799 -3.5316305 -0.73372197 3.6878252e-40
5.6803579 -3.5068879 -0.73475248 2.7658689e-40
5.6432877 -3.5763211 -0.71754634 3.6878252e-40
5.6505899 -3.5544038 -0.72319216 3.6878252e-40
5.6487107 -3.5363562 -0.7402342 3.6878252e-40
5.6226115 -3.5812597 -0.7239576 3.6878252e-40
5.6316442 -3.5606284 -0.73773098 2.7658689e-40
5.5970349 -3.5908041 -0.72596043 2.7658689e-40
5.6075115 -3.5658755 -0.74257725 3.6878252e-40
5.5723081 -3.6061089 -0.72294128 2.7658689e-40
5.5384169 -3.6342638 -0.70679259 2.7658689e-40
5.5465002 -3.6152949 -0.72290742 3.6878252e-40
5.5135126 -3.665204 -0.71535265 5.5317378e-40
5.5172863 -3.6394193 -0.71389717 4.6097815e-40
5.5214987 -3.6204486 -0.72648674 2.7658689e-40
5.5038824 -3.7006068 -0.70250595 5.5317378e-40
5.4967413 -3.6774859 -0.71791452 4.6097815e-40
5.4721842 -3.7064021 -0.70327765 3.6878252e-40
5.4637508 -3.6918597 -0.72169256 2.7658689e-40
5.4320006 -3.7138596 -0.70482099 2.7658689e-40
5.439455 -3.6954231 -0.71780562 3.6878252e-40
5.4081707 -3.7003834 -0.71469605 3.6878252e-40
5.3791723 -3.6890013 -0.70945418 2.7658689e-40
5.3633394 -3.6691518 -0.72573811 4.6097815e-40
5.7064314 -3.5200129 -0.70930141 1.8439126e-40
5.6989398 -3.4968202 -0.70028627 2.7658689e-40
5.6739025 -3.5445507 -0.69411451 2.7658689e-40
5.6705179 -3.5264075 -0.70930135 2.7658689e-40
5.6815329 -3.5020437 -0.71111846 2.7658689e-40
5.6540494 -3.5724001 -0.69560212 2.7658689e-40
5.6614909 -3.5499287 -0.71026868 2.7658689e-40
5.6304297 -3.594502 -0.69307989 4.6097815e-40
5.6039433 -3.6170237 -0.67837429 7.3756504e-40
5.6031775 -3.599889 -0.69580698 2.7658689e-40
5.5735731 -3.6421084 -0.6732136 4.6097815e-40
5.5765905 -3.6230083 -0.68405795 3.6878252e-40
5.5756412 -3.6056609 -0.70023847 2.7658689e-40
5.5480261 -3.653831 -0.67462695 1.8439126e-40
5.5451403 -3.6307447 -0.69495165 1.8439126e-40
5.5541878 -3.6099484 -0.70262468 2.7658689e-40
5.521657 -3.658818 -0.68113983 2.7658689e-40
5.523849 -3.635 -0.69731987 3.6878252e-40
5.4962134 -3.6978862 -0.68167061 3.6878252e-40
5.5026054 -3.6683471 -0.68228954 2.7658689e-40
5.468358 -3.7028458 -0.68167061 2.7658689e-40
5.4358597 -3.7086322 -0.68167061 2.7658689e-40
5.417603 -3.7136989 -0.69093078 2.7658689e-40
5.3993421 -3.6867332 -0.68228954 3.6878252e-40
5.3903904 -3.6998904 -0.69603878 3.6878252e-40
5.366806 -3.6611037 -0.68784708 2.7658689e-40
5.3431506 -3.644716 -0.68830746 2.7658689e-40
5.706934 -3.5329669 -0.66503686 2.7658689e-40
5.6958103 -3.5171151 -0.68488085 1.8439126e-40
5.6917582 -3.4745107 -0.69078237 1.8439126e-40
5.6802316 -3.5603132 -0.66946191 4.6097815e-40
5.6876602 -3.537349 -0.66988313 3.6878252e-40
5.681284 -3.520659 -0.68976498 2.7658689e-40
5.6584263 -3.5707662 -0.66780186 2.7658689e-40
5.6277103 -3.6275532 -0.64814514 2.7658689e-40
5.6272082 -3.6100945 -0.6641652 4.6097815e-40
5.6342459 -3.5882068 -0.6644454 3.6878252e-40
5.6108456 -3.6449275 -0.65109181 3.6878252e-40
5.6178703 -3.6126862 -0.66890156 2.7658689e-40
5.5801649 -3.6438196 -0.65275609 2.7658689e-40
5.5460281 -3.6817524 -0.6446299 2.7658689e-40
5.5523725 -3.6583202 -0.65031439 1.8439126e-40
5.5319438 -3.6833522 -0.63999981 3.6878252e-40
5.51615 -3.6690834 -0.65312707 2.7658689e-40
5.4979019 -3.6912293 -0.64925998 2.7658689e-40
5.4672613 -3.6966851 -0.64925998 2.7658689e-40
5.4356604 -3.7021301 -0.64833397 3.6878252e-40
5.4265428 -3.6861355 -0.65872431 3.6878252e-40
5.3997493 -3.6780813 -0.65361559 2.7658689e-40
5.3793845 -3.6711533 -0.64501154 4.6097815e-40
5.3659244 -3.656152 -0.66179699 2.7658689e-40
5.3519135 -3.6384761 -0.6644454 6.4536941e-40
5.3426657 -3.6419942 -0.67399019 2.7658689e-40
5.7039299 -3.530175 -0.64807487 3.6878252e-40
5.7042828 -3.5079439 -0.64580798 2.7658689e-40
5.7017107 -3.4837737 -0.63627756 1.8439126e-40
5.6830473 -3.5537767 -0.63868791 2.7658689e-40
5.689352 -3.5327706 -0.64807487 2.7658689e-40
5.6542606 -3.5969181 -0.6215378 2.7658689e-40
5.6602497 -3.5691559 -0.6388672 2.7658689e-40
5.6325717 -3.6277692 -0.6235162 2.7658689e-40
5.6403337 -3.6012554 -0.63101053 3.6878252e-40
5.6383848 -3.5837262 -0.64535576 3.6878252e-40
5.6006422 -3.6656723 -0.61221933 2.7658689e-40
5.6123562 -3.6457338 -0.62140977 2.7658689e-40
5.5820718 -3.6689787 -0.61221933 2.7658689e-40
5.5846105 -3.6525035 -0.63073838 2.7658689e-40
5.5573635 -3.6736808 -0.61376268 2.7658689e-40
5.5483055 -3.6576605 -0.62407506 1.8439126e-40
5.5234666 -3.7169483 -0.60316706 2.7658689e-40
5.5246511 -3.6840134 -0.61852705 3.6878252e-40
5.4973512 -3.703732 -0.61228913 2.7658689e-40
5.4651575 -3.6990457 -0.6148454 2.7658689e-40
5.4368672 -3.7002051 -0.61456031 5.5317378e-40
5.4013605 -3.6779182 -0.62410367 3.6878252e-40
5.3648825 -3.6502998 -0.63101053 2.7658689e-40
5.3365817 -3.6247804 -0.63343871 3.6878252e-40
5.7049656 -3.5219123 -0.6068815 2.7658689e-40
5.6938267 -3.5059743 -0.62627155 2.7658689e-40
5.6964402 -3.4827812 -0.62643009 1.8439126e-40
5.6835299 -3.5581181 -0.60851407 2.7658689e-40
5.6908798 -3.5272715 -0.62142032 2.7658689e-40
5.6596589 -3.6180193 -0.5933705 3.6878252e-40
5.663198 -3.5920758 -0.60496044 3.6878252e-40
5.665966 -3.5722637 -0.61194891 2.7658689e-40
5.6274009 -3.654552 -0.57980871 1.1063476e-39
5.6378927 -3.6313024 -0.59445059 3.6878252e-40
5.6097255 -3.6639917 -0.58683974 3.6878252e-40
5.6178551 -3.640486 -0.59964293 6.4536941e-40
5.586421 -3.6994772 -0.57123572 6.4536941e-40
5.5879149 -3.6773462 -0.58860397 3.6878252e-40
5.5540757 -3.6825876 -0.58604097 2.7658689e-40
5.5252781 -3.7281883 -0.56717473 3.6878252e-40
5.5272689 -3.7117984 -0.58035898 2.7658689e-40
5.5303402 -3.6856563 -0.59016001 2.7658689e-40
5.5051355 -3.7377162 -0.56582111 2.7658689e-40
5.5045023 -3.7164485 -0.58340001 2.7658689e-40
5.4919653 -3.7001846 -0.58930975 2.7658689e-40
5.4753222 -3.7370827 -0.56717473 3.6878252e-40
5.4697609 -3.7227533 -0.58400828 3.6878252e-40
5.4782958 -3.7035196 -0.59390563 3.6878252e-40
5.4480739 -3.7419345 -0.56717473 8.2976067e-40
5.449512 -3.7256432 -0.58035898 5.5317378e-40
5.4390478 -3.710057 -0.59160769 3.6878252e-40
5.4171858 -3.7296097 -0.57123572 3.6878252e-40
5.4023342 -3.7006905 -0.58568221 3.6878252e-40
5.4012637 -3.6796598 -0.60275251 4.6097815e-40
5.3851681 -3.7353103 -0.57123572 2.7658689e-40
5.3858757 -3.7113044 -0.58310169 2.7658689e-40
5.3733988 -3.6648448 -0.60740876 3.6878252e-40
5.3499937 -3.6492355 -0.61206502 2.7658689e-40
5.69945 -3.519093 -0.58749634 2.7658689e-40
5.7021337 -3.4958744 -0.58231455 2.7658689e-40
5.6814032 -3.6014011 -0.56353885 2.7658689e-40
5.681313 -3.5837417 -0.57891035 3.6878252e-40
5.6899037 -3.5504332 -0.58097667 3.6878252e-40
5.6636009 -3.642658 -0.55202824 6.4536941e-40
5.6660705 -3.620465 -0.56770509 2.7658689e-40
5.6719751 -3.5863333 -0.58364677 5.5317378e-40
5.6401672 -3.6520543 -0.55862015 3.6878252e-40
5.6435156 -3.6310387 -0.57476664 2.7658689e-40
5.6085186 -3.6910696 -0.54842758 4.6097815e-40
5.6169734 -3.6691854 -0.55905449 5.5317378e-40
5.5916123 -3.7126024 -0.54792565 3.6878252e-40
5.5952601 -3.6961143 -0.56211245 2.7658689e-40
5.5971775 -3.676945 -0.56633049 4.6097815e-40
5.5617566 -3.7194848 -0.54404545 3.6878252e-40
5.5586686 -3.7026296 -0.56211245 4.6097815e-40
5.5303502 -3.7576807 -0.53226686 5.5317378e-40
5.5350447 -3.7342732 -0.54772514 2.7658689e-40
5.5403728 -3.7058871 -0.56211245 4.6097815e-40
5.5038795 -3.7464552 -0.54594439 3.6878252e-40
5.4735193 -3.7517006 -0.5451268 2.7658689e-40
5.4455605 -3.7546971 -0.54557079 3.6878252e-40
5.4142809 -3.7486403 -0.546951 3.6878252e-40
5.3845501 -3.7318418 -0.55298918 2.7658689e-40
5.3666086 -3.7170966 -0.56173468 1.8439126e-40
5.7035394 -3.5425296 -0.54719299 3.6878252e-40
5.7049451 -3.5124118 -0.55841869 2.7658689e-40
5.7018032 -3.4940176 -0.57254636 2.7658689e-40
5.6908193 -3.6100986 -0.53731495 3.6878252e-40
5.6960211 -3.5746207 -0.54575568 2.7658689e-40
5.6944189 -3.5469723 -0.56156427 2.7658689e-40
5.6690602 -3.637449 -0.53042114 2.7658689e-40
5.6720839 -3.6198537 -0.54367119 3.6878252e-40
5.6440296 -3.6784852 -0.51649618 4.6097815e-40
5.6451297 -3.6521189 -0.53338784 3.6878252e-40
5.6144199 -3.7025456 -0.51735359 2.7658689e-40
5.6202059 -3.6847718 -0.5269227 3.6878252e-40
5.6238937 -3.6667802 -0.53875536 3.6878252e-40
5.5904813 -3.7071888 -0.51929468 3.6878252e-40
5.5897598 -3.691726 -0.53474271 3.6878252e-40
5.5606856 -3.7144909 -0.52156603 2.7658689e-40
5.5345244 -3.7551866 -0.5233382 3.6878252e-40
5.5340528 -3.7287035 -0.5184232 3.6878252e-40
5.5019317 -3.7588885 -0.51262379 9.219563e-40
5.5112972 -3.7399352 -0.51943099 5.5317378e-40
5.4791141 -3.763885 -0.51738572 4.6097815e-40
5.475409 -3.7448971 -0.51215047 4.6097815e-40
5.4504614 -3.7672358 -0.50845706 4.6097815e-40
5.4471569 -3.7516911 -0.52114403 4.6097815e-40
5.4166431 -3.752563 -0.51898372 2.7658689e-40
5.3875027 -3.7438366 -0.52188277 2.7658689e-40
5.7062402 -3.5336201 -0.52682161 2.7658689e-40
5.7068725 -3.5044653 -0.51964855 3.6878252e-40
5.6891041 -3.6028748 -0.51210815 2.7658689e-40
5.6957707 -3.5686281 -0.51496923 5.5317378e-40
5.6943092 -3.5276306 -0.5155918 9.219563e-40
5.6701584 -3.6324105 -0.50572735 2.7658689e-40
5.6740437 -3.6127968 -0.50946617 2.7658689e-40
5.636054 -3.6924765 -0.48564923 7.3756504e-40
5.6434121 -3.6750166 -0.49824965 4.6097815e-40
5.6515241 -3.6451893 -0.50385797 3.6878252e-40
5.6155562 -3.6976485 -0.49341357 2.7658689e-40
5.6252708 -3.679141 -0.50281131 3.6878252e-40
5.5895538 -3.7072611 -0.492924 2.7658689e-40
5.5608168 -3.7185862 -0.49350771 2.7658689e-40
5.5313435 -3.7476981 -0.48226628 3.6878252e-40
5.5366945 -3.7274723 -0.49476457 2.7658689e-40
5.5053005 -3.7531669 -0.48650742 6.4536941e-40
5.5125771 -3.7359276 -0.50015908 2.7658689e-40
5.4780064 -3.7576618 -0.48464727 4.6097815e-40
5.4749017 -3.742048 -0.49716127 2.7658689e-40
5.4501395 -3.7629571 -0.48634797 2.7658689e-40
5.4538097 -3.7455096 -0.49566233 3.6878252e-40
5.4175858 -3.7510769 -0.49116558 3.6878252e-40
5.3926082 -3.7487092 -0.49439409 3.6878252e-40
5.3732409 -3.7213314 -0.48912644 2.7658689e-40
5.3458996 -3.6977963 -0.49463204 2.7658689e-40
5.7282758 -3.5340276 -0.47354898 2.7658689e-40
5.7077484 -3.5290048 -0.4868449 3.6878252e-40
5.6998196 -3.4828768 -0.51393706 5.5317378e-40
5.6886358 -3.6218565 -0.46868667 2.7658689e-40
5.6881275 -3.5866423 -0.48120055 2.7658689e-40
5.6937771 -3.5620165 -0.47944641 3.6878252e-40
5.6918621 -3.5388539 -0.5002656 3.6878252e-40
5.6684928 -3.6288035 -0.47150373 2.7658689e-40
5.6424928 -3.6865332 -0.46119156 3.6878252e-40
5.6516337 -3.668185 -0.47087997 3.6878252e-40
5.6505876 -3.6399314 -0.47619727 3.6878252e-40
5.6176844 -3.6928051 -0.46273512 2.7658689e-40
5.5885792 -3.7023036 -0.46100751 3.6878252e-40
5.5605726 -3.7155051 -0.46150842 2.7658689e-40
5.5347824 -3.7480001 -0.45527896 4.6097815e-40
5.5427699 -3.722615 -0.45968822 2.7658689e-40
5.5079622 -3.7527776 -0.45528975 3.6878252e-40
5.4785414 -3.7520216 -0.45637316 3.6878252e-40
5.451683 -3.7568035 -0.45637316 2.7658689e-40
5.4165206 -3.7450936 -0.45968819 3.6878252e-40
5.3881426 -3.731643 -0.46028572 3.6878252e-40
5.3726234 -3.7178628 -0.47087997 2.7658689e-40
5.345119 -3.6934121 -0.47156718 1.8439126e-40
5.3176517 -3.670764 -0.4814803 2.7658689e-40
5.7276297 -3.5303988 -0.45445934 1.8439126e-40
5.7183061 -3.5811863 -0.44121706 3.6878252e-40
5.7182512 -3.552705 -0.45418572 2.7658689e-40
5.7183824 -3.5339172 -0.46400416 3.6878252e-40
5.6880093 -3.6183362 -0.45016634 2.7658689e-40
5.6918802 -3.5868075 -0.44588858 4.6097815e-40
5.666738 -3.626647 -0.43982533 6.4536941e-40
5.6406589 -3.6807439 -0.43000484 7.3756504e-40
5.6488738 -3.6615198 -0.43438697 9.219563e-40
5.6482768 -3.6435115 -0.44224241 3.6878252e-40
5.6168137 -3.6872463 -0.43096298 1.0141519e-39
5.5934753 -3.7014129 -0.4292618 7.3756504e-40
5.557611 -3.6972845 -0.43103614 5.5317378e-40
5.5320444 -3.7383685 -0.42477968 1.1063476e-39
5.5417047 -3.7166314 -0.42821082 1.5673257e-39
5.5043421 -3.7412994 -0.42512277 4.6097815e-40
5.4771171 -3.7525411 -0.42319995 6.4536941e-40
5.4443111 -3.7539639 -0.42570686 7.3756504e-40
5.4192905 -3.7564428 -0.42512277 6.4536941e-40
5.3886576 -3.734874 -0.42975488 9.219563e-40
5.3592939 -3.713676 -0.43742806 4.6097815e-40
5.3469448 -3.6956615 -0.43458265 3.6878252e-40
5.7514381 -3.5979621 -0.40386549 2.7658689e-40
5.745717 -3.5817409 -0.4161799 1.8439126e-40
5.7333336 -3.5456848 -0.43208262 1.8439126e-40
5.736393 -3.524159 -0.43059728 1.8439126e-40
5.7237396 -3.603802 -0.40849558 3.6878252e-40
5.7179713 -3.5885103 -0.42550853 3.6878252e-40
5.6981268 -3.6079082 -0.40618053 6.4536941e-40
5.6879129 -3.5931304 -0.42177707 3.6878252e-40
5.6603904 -3.671267 -0.39959452 1.1063476e-39
5.6630397 -3.6527352 -0.4024556 5.5317378e-40
5.6690545 -3.6222494 -0.41282317 8.2976067e-40
5.6431074 -3.6772397 -0.40380943 9.219563e-40
5.654355 -3.6569655 -0.41614047 2.9502602e-39
5.6189346 -3.6895688 -0.40253064 4.6097815e-40
5.5903893 -3.702672 -0.40123022 6.4536941e-40
5.5531816 -3.6952569 -0.40348792 6.4536941e-40
5.5302935 -3.7314253 -0.39833674 1.4751301e-39
5.5407915 -3.711503 -0.40123022 5.5317378e-40
5.5183225 -3.7677972 -0.38830921 4.6097815e-40
5.5035391 -3.7489991 -0.3971912 9.219563e-40
5.4737439 -3.7731452 -0.37510538 8.2976067e-40
5.4747086 -3.7546453 -0.39505863 4.6097815e-40
5.4605045 -3.7755024 -0.37510538 5.5317378e-40
5.4442115 -3.7505393 -0.39865741 8.2976067e-40
5.4183841 -3.7513509 -0.39833674 9.219563e-40
5.384305 -3.7301183 -0.4015528 5.5317378e-40
5.3605032 -3.7237737 -0.39506531 5.5317378e-40
5.3434014 -3.6837666 -0.42082453 1.1985432e-39
5.7499924 -3.6482072 -0.36336094 5.5317378e-40
5.7534375 -3.630378 -0.37052423 3.6878252e-40
5.7542772 -3.6012161 -0.3854515 2.7658689e-40
5.7340207 -3.6506071 -0.36109635 5.5317378e-40
5.7307224 -3.6353171 -0.37508583 4.6097815e-40
5.7271323 -3.6191063 -0.38939008 5.5317378e-40
5.7135077 -3.6538153 -0.35883173 6.4536941e-40
5.6985502 -3.6401505 -0.37052423 4.6097815e-40
5.6962891 -3.6158402 -0.38768587 6.4536941e-40
5.662396 -3.6649883 -0.36939988 6.4536941e-40
5.6695242 -3.6467497 -0.37782282 8.2976067e-40
5.670826 -3.6195898 -0.39084879 4.6097815e-40
5.6451969 -3.6792011 -0.37087202 7.3756504e-40
5.6208863 -3.6910689 -0.36975282 4.6097815e-40
5.5824995 -3.7133751 -0.35369334 4.6097815e-40
5.5902562 -3.6966991 -0.37065217 6.4536941e-40
5.5577617 -3.7023082 -0.36975285 8.2976067e-40
5.5305786 -3.725044 -0.36605614 9.219563e-40
5.5398784 -3.7063744 -0.37424961 7.3756504e-40
5.5040402 -3.764298 -0.35750026 5.5317378e-40
5.5067682 -3.7433486 -0.36656103 7.3756504e-40
5.4800305 -3.7675374 -0.35221869 8.2976067e-40
5.4777298 -3.7539124 -0.37032908 6.4536941e-40
5.4419885 -3.7477386 -0.36336708 1.1063476e-39
5.4199214 -3.7444234 -0.36440775 1.4751301e-39
5.4046111 -3.7304587 -0.37424961 1.1063476e-39
5.3835616 -3.7272923 -0.37064171 5.5317378e-40
5.3515487 -3.7055125 -0.38877073 5.5317378e-40
5.3390374 -3.6868546 -0.3824963 4.6097815e-40
5.3235373 -3.66961 -0.38071507 3.6878252e-40
5.3001041 -3.6446209 -0.38499305 3.6878252e-40
5.7836809 -3.645957 -0.33499846 1.8439126e-40
5.774508 -3.6048126 -0.35951704 1.8439126e-40
5.7615442 -3.6517909 -0.33937413 3.6878252e-40
5.7621737 -3.6264367 -0.35835987 2.7658689e-40
5.7654471 -3.6073272 -0.36411288 2.7658689e-40
5.7343826 -3.6566286 -0.33938134 4.6097815e-40
5.7092614 -3.6510184 -0.34071496 5.5317378e-40
5.6917315 -3.6371903 -0.34923658 5.5317378e-40
5.6671209 -3.6605687 -0.33928582 7.3756504e-40
5.6765366 -3.6401939 -0.35075712 5.5317378e-40
5.6353097 -3.698719 -0.32690731 5.5317378e-40
5.6454129 -3.6764989 -0.33882478 5.5317378e-40
5.6177063 -3.7036045 -0.33583596 5.5317378e-40
5.6289911 -3.6843348 -0.34277225 6.4536941e-40
5.5998006 -3.7067926 -0.33583596 5.5317378e-40
5.5792408 -3.6923108 -0.33827549 5.5317378e-40
5.5550365 -3.7147629 -0.33583596 5.5317378e-40
5.5592728 -3.6958661 -0.33827546 6.4536941e-40
5.5281782 -3.7195449 -0.33583596 1.0141519e-39
5.538661 -3.6995361 -0.33827549 1.1985432e-39
5.4987335 -3.7600644 -0.33109254 1.2907388e-39
5.5065002 -3.7355015 -0.33421677 5.5317378e-40
5.4886441 -3.778995 -0.32878858 9.219563e-40
5.4823842 -3.7632217 -0.33235005 5.5317378e-40
5.4643297 -3.7473171 -0.32453269 1.0141519e-39
5.463428 -3.7663505 -0.33109254 5.5317378e-40
5.4416165 -3.7440267 -0.33460814 9.219563e-40
5.4185824 -3.7394962 -0.33806816 5.5317378e-40
5.4032412 -3.7227654 -0.33377871 1.0141519e-39
5.3824935 -3.7212944 -0.33908865 5.5317378e-40
5.3364525 -3.6714404 -0.35166419 5.5317378e-40
5.3063464 -3.6389253 -0.36161745 4.6097815e-40
5.284668 -3.6125655 -0.36577332 3.6878252e-40
5.2650113 -3.5940495 -0.35901111 2.7658689e-40
5.7838678 -3.6445255 -0.31204319 1.8439126e-40
5.7650747 -3.704586 -0.29001391 5.5317378e-40
5.7637777 -3.6833007 -0.30162251 3.6878252e-40
5.7645679 -3.6545258 -0.31386447 4.6097815e-40
5.7532072 -3.7061236 -0.28707972 6.4536941e-40
5.7401023 -3.688102 -0.30460954 5.5317378e-40
5.7364435 -3.6607935 -0.32028842 8.2976067e-40
5.7149777 -3.679281 -0.30012128 7.3756504e-40
5.7043271 -3.6548665 -0.31516582 5.5317378e-40
5.6716137 -3.6571889 -0.31210405 7.3756504e-40
5.6787109 -3.634737 -0.32490796 6.4536941e-40
5.6459613 -3.6751399 -0.31129485 9.219563e-40
5.6156425 -3.6984999 -0.30793387 5.5317378e-40
5.6257472 -3.6791799 -0.31354326 8.2976067e-40
5.5915236 -3.7062483 -0.30180839 5.5317378e-40
5.5799322 -3.6874843 -0.31429273 6.4536941e-40
5.5636725 -3.7157676 -0.30810636 7.3756504e-40
5.5651054 -3.6913002 -0.32028842 5.5317378e-40
5.5339365 -3.7213748 -0.30723557 6.4536941e-40
5.5380521 -3.6961172 -0.32028842 6.4536941e-40
5.4976907 -3.7542078 -0.30028355 6.4536941e-40
5.5064445 -3.7322996 -0.30728948 5.5317378e-40
5.4819522 -3.7578733 -0.30468485 4.6097815e-40
5.4689422 -3.7423239 -0.30325952 1.0141519e-39
5.4531121 -3.7595553 -0.28707972 6.4536941e-40
5.4441228 -3.7434015 -0.3073183 8.2976067e-40
5.4119673 -3.7347643 -0.30793387 6.4536941e-40
5.3819118 -3.7224059 -0.31257966 4.6097815e-40
5.3575907 -3.7074158 -0.3090106 5.5317378e-40
5.3402429 -3.6758242 -0.32734603 4.6097815e-40
5.3211865 -3.6564083 -0.3112638 4.6097815e-40
5.3061361 -3.63009 -0.3339572 4.6097815e-40
5.2837062 -3.6071637 -0.33735505 3.6878252e-40
5.2643652 -3.5904207 -0.33992147 2.7658689e-40
5.2447176 -3.5727897 -0.33767942 1.8439126e-40
5.7859955 -3.6631343 -0.2822639 2.7658689e-40
5.7614379 -3.7012055 -0.26947457 5.5317378e-40
5.7713652 -3.6729097 -0.27566773 4.6097815e-40
5.7448511 -3.703943 -0.26837423 6.4536941e-40
5.7326245 -3.6920145 -0.28612277 5.5317378e-40
5.7133088 -3.6784487 -0.27062285 5.5317378e-40
5.7014856 -3.6604037 -0.28656265 5.5317378e-40
5.6718135 -3.6515818 -0.28585202 8.2976067e-40
5.6383891 -3.690768 -0.27559334 7.3756504e-40
5.6476684 -3.6697969 -0.28559905 8.2976067e-40
5.6189556 -3.7265744 -0.26947457 9.219563e-40
5.6240997 -3.7074683 -0.27826196 8.2976067e-40
5.5913076 -3.7302027 -0.26287264 1.1063476e-39
5.5902872 -3.7165849 -0.28218329 8.2976067e-40
5.5672588 -3.735779 -0.26947457 6.4536941e-40
5.560895 -3.7231705 -0.2890774 7.3756504e-40
5.5496058 -3.7389221 -0.26947457 7.3756504e-40
5.5274844 -3.7187042 -0.27817026 6.4536941e-40
5.497323 -3.717128 -0.27650964 6.4536941e-40
5.4788465 -3.7506578 -0.2650733 6.4536941e-40
5.4763112 -3.7373612 -0.28464547 6.4536941e-40
5.4550381 -3.75576 -0.26947457 5.5317378e-40
5.4434366 -3.7387021 -0.28062361 5.5317378e-40
5.4119153 -3.7334218 -0.27730322 9.219563e-40
5.3894577 -3.7315493 -0.27110305 7.3756504e-40
5.3730106 -3.7184477 -0.28431424 5.5317378e-40
5.357131 -3.704833 -0.295423 4.6097815e-40
5.3386955 -3.686331 -0.27929172 5.5317378e-40
5.329782 -3.6704764 -0.2905792 5.5317378e-40
5.315917 -3.6537147 -0.29274344 1.0141519e-39
5.2957821 -3.6264169 -0.3058272 5.5317378e-40
5.2732458 -3.6034532 -0.30893677 3.6878252e-40
5.2538257 -3.5866818 -0.31128702 2.7658689e-40
5.7907763 -3.6752868 -0.25362211 3.6878252e-40
5.7605438 -3.6961858 -0.24306688 5.5317378e-40
5.7720613 -3.6748521 -0.2449645 5.5317378e-40
5.7483373 -3.7138996 -0.23263413 4.6097815e-40
5.7430401 -3.7001655 -0.24746816 4.6097815e-40
5.7252388 -3.702472 -0.24306688 4.6097815e-40
5.7050362 -3.6792455 -0.24343777 8.2976067e-40
5.6890717 -3.6559997 -0.25283688 1.1985432e-39
5.6709867 -3.6552124 -0.25431284 1.1985432e-39
5.6471462 -3.6838992 -0.24626155 9.219563e-40
5.6489482 -3.6657894 -0.26632717 2.1204995e-39
5.6202374 -3.7207839 -0.24111074 6.4536941e-40
5.6277342 -3.703737 -0.25066748 5.5317378e-40
5.5928063 -3.7258358 -0.24196655 8.2976067e-40
5.5863581 -3.7116835 -0.25362211 5.5317378e-40
5.5663648 -3.7307594 -0.24306686 6.4536941e-40
5.5442991 -3.7346883 -0.24306685 7.3756504e-40
5.5238438 -3.721076 -0.24475828 5.5317378e-40
5.4983821 -3.7180007 -0.24552062 1.0141519e-39
5.475358 -3.7481141 -0.24893525 8.2976067e-40
5.4705706 -3.7269344 -0.24209136 5.5317378e-40
5.4593911 -3.7670608 -0.24137545 7.3756504e-40
5.4503193 -3.7511747 -0.24180937 6.4536941e-40
5.4349666 -3.7369008 -0.24475828 5.5317378e-40
5.4098549 -3.7311821 -0.24705718 9.219563e-40
5.3863883 -3.7272806 -0.24654919 5.5317378e-40
5.3644309 -3.7138021 -0.25283688 6.4536941e-40
5.3465152 -3.6978409 -0.25013104 5.5317378e-40
5.3383865 -3.6845968 -0.27016845 9.219563e-40
5.3196325 -3.6668758 -0.26300406 3.6878252e-40
5.2916827 -3.6333101 -0.26692179 3.6878252e-40
5.2722378 -3.6155651 -0.26428342 2.7658689e-40
5.2726049 -3.5998518 -0.28999126 3.6878252e-40
5.2429628 -3.5811286 -0.27310774 1.8439126e-40
5.7858315 -3.6847785 -0.20785661 5.5317378e-40
5.7822132 -3.7010109 -0.19766887 6.4536941e-40
5.7675657 -3.6891289 -0.21345827 4.6097815e-40
5.7809882 -3.6718147 -0.22703065 3.6878252e-40
5.7461109 -3.7115531 -0.21864805 4.6097815e-40
5.742918 -3.6921725 -0.20659909 5.5317378e-40
5.7182622 -3.6973844 -0.21079078 5.5317378e-40
5.6964688 -3.6729245 -0.21925265 1.4751301e-39
5.6806211 -3.6678879 -0.21083447 1.2907388e-39
5.6687694 -3.6539454 -0.22392909 6.4536941e-40
5.6464348 -3.7099433 -0.20961712 5.5317378e-40
5.6498747 -3.6827097 -0.21780348 7.3756504e-40
5.6520872 -3.6572938 -0.22585629 1.2907388e-39
5.6226931 -3.7146881 -0.21225795 1.2907388e-39
5.5850029 -3.7361243 -0.19766887 7.3756504e-40
5.5926437 -3.7202737 -0.21345827 7.3756504e-40
5.5596299 -3.7423558 -0.20641024 7.3756504e-40
5.5666113 -3.7257526 -0.21775948 6.4536941e-40
5.5399151 -3.7452948 -0.20349644 6.4536941e-40
5.52846 -3.7326748 -0.21841969 9.219563e-40
5.5044689 -3.7354503 -0.21079078 1.1063476e-39
5.5025058 -3.7213986 -0.22703065 7.3756504e-40
5.4746008 -3.741426 -0.21414414 6.4536941e-40
5.47258 -3.7249885 -0.21816681 4.6097815e-40
5.4467545 -3.7457671 -0.2110004 1.0141519e-39
5.4342165 -3.7326884 -0.22259875 5.5317378e-40
5.4098997 -3.7359002 -0.21690065 6.4536941e-40
5.3810053 -3.722986 -0.21976317 5.5317378e-40
5.3636699 -3.7095282 -0.23035307 6.4536941e-40
5.3543477 -3.7094243 -0.22135949 5.5317378e-40
5.3094039 -3.6536336 -0.23630564 4.6097815e-40
5.2715998 -3.6188378 -0.2381921 2.7658689e-40
5.2524862 -3.5969317 -0.25683662 2.7658689e-40
5.2524314 -3.6135609 -0.23608136 2.7658689e-40
5.794621 -3.6945157 -0.17581561 7.3756504e-40
5.773469 -3.7010643 -0.1800392 5.5317378e-40
5.7421794 -3.70471 -0.18018635 5.5317378e-40
5.7168207 -3.7095683 -0.18193452 1.4751301e-39
5.6988063 -3.6946628 -0.17924824 8.2976067e-40
5.6770773 -3.6979272 -0.17616735 6.4536941e-40
5.6794777 -3.6759477 -0.19392177 1.0141519e-39
5.6603441 -3.6514142 -0.20337245 7.3756504e-40
5.6529713 -3.7200224 -0.17727248 1.3829344e-39
5.6543078 -3.703017 -0.18144889 7.3756504e-40
5.6549792 -3.6744137 -0.19709098 5.5317378e-40
5.6202288 -3.7257378 -0.17668973 8.2976067e-40
5.6274095 -3.7082996 -0.18396392 1.0141519e-39
5.5939932 -3.7307515 -0.17843807 6.4536941e-40
5.5910563 -3.7160056 -0.19025145 6.4536941e-40
5.5632887 -3.7384882 -0.18004601 8.2976067e-40
5.5734034 -3.7191486 -0.19025145 5.5317378e-40
5.5370007 -3.7431688 -0.18004601 7.3756504e-40
5.5110769 -3.745368 -0.17768882 8.2976067e-40
5.4983797 -3.7325065 -0.19025145 8.2976067e-40
5.4867926 -3.7189813 -0.20043916 5.5317378e-40
5.466085 -3.7538688 -0.18018626 7.3756504e-40
5.4746704 -3.7345085 -0.17893389 8.2976067e-40
5.4733114 -3.7205124 -0.19600724 6.4536941e-40
5.4513783 -3.7559161 -0.17727251 8.2976067e-40
5.4440579 -3.7406678 -0.18254919 7.3756504e-40
5.42276 -3.7425179 -0.17264633 5.5317378e-40
5.4055333 -3.7291813 -0.18817005 6.4536941e-40
5.3775411 -3.7183495 -0.19297713 6.4536941e-40
5.3620424 -3.7202337 -0.18851279 5.5317378e-40
5.3537388 -3.7060053 -0.20337245 4.6097815e-40
5.3264599 -3.6706176 -0.1880592 4.6097815e-40
5.308383 -3.652549 -0.20479397 4.6097815e-40
5.2748852 -3.6256902 -0.21281572 3.6878252e-40
5.2491999 -3.6090665 -0.21022941 2.7658689e-40
5.2271376 -3.5921566 -0.20947281 2.7658689e-40
5.8209181 -3.7020719 -0.14854343 2.7658689e-40
5.7999048 -3.6942296 -0.14926271 4.6097815e-40
5.771821 -3.6934323 -0.14959173 6.4536941e-40
5.7420502 -3.6989045 -0.15046586 7.3756504e-40
5.7353501 -3.6825457 -0.15063992 6.4536941e-40
5.7109728 -3.7057164 -0.14951202 6.4536941e-40
5.7222595 -3.6857395 -0.1550412 7.3756504e-40
5.6839399 -3.7077327 -0.14272358 8.2976067e-40
5.6783066 -3.6946011 -0.16032274 7.3756504e-40
5.6515746 -3.7145972 -0.14834297 9.219563e-40
5.660624 -3.6975768 -0.15944248 7.3756504e-40
5.6234789 -3.7249994 -0.14828411 1.1985432e-39
5.5926723 -3.7289805 -0.15027049 8.2976067e-40
5.5644178 -3.7376044 -0.14916259 6.4536941e-40
5.5387878 -3.7467604 -0.14786446 6.4536941e-40
5.5044918 -3.7410305 -0.14959173 1.0141519e-39
5.4821358 -3.7424395 -0.13647971 6.4536941e-40
5.4726429 -3.7304301 -0.1562987 7.3756504e-40
5.4442301 -3.7352424 -0.15504126 7.3756504e-40
5.4198833 -3.7391462 -0.15284055 5.5317378e-40
5.4000306 -3.7260854 -0.15789287 5.5317378e-40
5.3756447 -3.7148597 -0.16159207 5.5317378e-40
5.3611355 -3.715142 -0.16172677 5.5317378e-40
5.3345199 -3.6831002 -0.16407631 5.5317378e-40
5.3261514 -3.6688833 -0.17893596 5.5317378e-40
5.3163857 -3.6670439 -0.16068947 4.6097815e-40
5.2963505 -3.642802 -0.17924599 4.6097815e-40
5.2701335 -3.6206818 -0.18296413 3.6878252e-40
5.2509995 -3.6055195 -0.19377823 3.6878252e-40
5.2298574 -3.5867958 -0.18460681 2.7658689e-40
5.2087083 -3.589555 -0.17947577 2.7658689e-40
5.202096 -3.5734303 -0.19674917 2.7658689e-40
5.7970805 -3.682935 -0.11899718 3.6878252e-40
5.7707858 -3.6876168 -0.11899718 6.4536941e-40
5.7401085 -3.693079 -0.11899718 6.4536941e-40
5.739316 -3.67925 -0.13743608 6.4536941e-40
5.7114377 -3.7039952 -0.11873963 7.3756504e-40
5.6831369 -3.7032228 -0.11899715 1.4751301e-39
5.6546187 -3.714108 -0.1187192 7.3756504e-40
5.6235037 -3.7298121 -0.1182379 7.3756504e-40
5.601737 -3.7498574 -0.10353928 1.4751301e-39
5.5924397 -3.7372808 -0.1206433 1.4751301e-39
5.565135 -3.7358479 -0.11844125 7.3756504e-40
5.5368848 -3.7435188 -0.11832047 7.3756504e-40
5.5008268 -3.7356832 -0.11899715 1.0141519e-39
5.4727788 -3.7406771 -0.11899715 7.3756504e-40
5.4657001 -3.7279675 -0.13743608 6.4536941e-40
5.4451475 -3.7451069 -0.11649962 7.3756504e-40
5.4435349 -3.7313385 -0.13450189 6.4536941e-40
5.4244981 -3.7488449 -0.11681178 6.4536941e-40
5.4110985 -3.7354698 -0.12611848 5.5317378e-40
5.3958154 -3.7230117 -0.13839245 5.5317378e-40
5.3941956 -3.7355199 -0.11102838 5.5317378e-40
5.379281 -3.7180748 -0.12985533 5.5317378e-40
5.360229 -3.7100503 -0.13494076 5.5317378e-40
5.3423834 -3.6905882 -0.13343838 5.5317378e-40
5.3243637 -3.6786907 -0.13237195 4.6097815e-40
5.3160772 -3.6653094 -0.15156622 4.6097815e-40
5.2925797 -3.6394472 -0.14869347 3.6878252e-40
5.2782478 -3.6304567 -0.13995066 4.6097815e-40
5.2693443 -3.6162486 -0.15964255 4.6097815e-40
5.2497272 -3.598372 -0.15617546 5.5317378e-40
5.230123 -3.5814073 -0.15737265 3.6878252e-40
5.2055893 -3.5653205 -0.15856989 2.7658689e-40
5.7918105 -3.6787302 -0.092773169 2.7658689e-40
5.7999086 -3.6615562 -0.10222582 3.6878252e-40
5.7715116 -3.6872442 -0.090854399 7.3756504e-40
5.7392211 -3.6880939 -0.092773169 8.2976067e-40
5.7113638 -3.7245913 -0.074235335 5.5317378e-40
5.715251 -3.7092018 -0.08896669 6.4536941e-40
5.6844707 -3.7057228 -0.088118345 7.3756504e-40
5.6422272 -3.736901 -0.074235335 1.0141519e-39
5.6536016 -3.7108061 -0.089001864 1.0141519e-39
5.6246042 -3.7440057 -0.077583604 9.219563e-40
5.6249795 -3.726234 -0.093859069 1.1063476e-39
5.6021757 -3.7530334 -0.082620554 1.6595213e-39
5.5679636 -3.7504616 -0.075959094 8.2976067e-40
5.5659657 -3.7322509 -0.093378276 7.3756504e-40
5.5351572 -3.7412057 -0.088651039 1.3829344e-39
5.4981861 -3.7310102 -0.092773169 9.219563e-40
5.4718914 -3.735692 -0.092773169 7.3756504e-40
5.4455967 -3.7403736 -0.092773199 9.219563e-40
5.4236846 -3.7442751 -0.092773169 7.3756504e-40
5.4024262 -3.730602 -0.093423255 6.4536941e-40
5.3936 -3.7321734 -0.093423255 4.6097815e-40
5.3766899 -3.7185946 -0.098505259 7.3756504e-40
5.3546953 -3.7049069 -0.10369034 1.1063476e-39
5.332355 -3.6904113 -0.10444359 4.6097815e-40
5.3146677 -3.6768644 -0.11425518 1.1063476e-39
5.3053856 -3.6582673 -0.10595 3.6878252e-40
5.2965331 -3.6439497 -0.12512843 5.5317378e-40
5.2750649 -3.6260297 -0.11448517 5.5317378e-40
5.2585697 -3.6099348 -0.11766373 4.6097815e-40
5.246448 -3.5976346 -0.12306384 4.6097815e-40
5.224412 -3.5768511 -0.1289544 2.7658689e-40
5.2097287 -3.5608401 -0.13948025 2.7658689e-40
5.7863927 -3.6736953 -0.062178537 3.6878252e-40
5.7857757 -3.6588938 -0.075818099 3.6878252e-40
5.7702141 -3.6835759 -0.062004346 7.3756504e-40
5.7381854 -3.6822786 -0.062178567 8.2976067e-40
5.7113876 -3.6978614 -0.057524305 6.4536941e-40
5.6805711 -3.7327096 -0.050163202 8.2976067e-40
5.6877961 -3.7063754 -0.062438302 7.3756504e-40
5.6536541 -3.7327201 -0.056257278 8.2976067e-40
5.6271586 -3.7435284 -0.05683459 1.1985432e-39
5.5988059 -3.7440948 -0.056150116 1.0141519e-39
5.5682025 -3.7495427 -0.056144938 9.219563e-40
5.5306182 -3.7358856 -0.057402845 9.219563e-40
5.5008984 -3.7332819 -0.061981149 9.219563e-40
5.4708557 -3.7298765 -0.062178567 1.0141519e-39
5.444561 -3.7345581 -0.062178567 9.219563e-40
5.4212046 -3.738812 -0.062664255 1.1063476e-39
5.4015326 -3.7255821 -0.067015536 1.1063476e-39
5.387291 -3.7274272 -0.063494481 7.3756504e-40
5.371346 -3.7143312 -0.071913749 5.5317378e-40
5.3506374 -3.7025902 -0.07236851 5.5317378e-40
5.3314419 -3.6852827 -0.077462949 5.5317378e-40
5.3077884 -3.6736221 -0.072487809 6.4536941e-40
5.3049221 -3.6556659 -0.092265062 6.4536941e-40
5.2858863 -3.6731064 -0.068963178 5.5317378e-40
5.2709174 -3.6317654 -0.089856721 5.5317378e-40
5.2485123 -3.6248553 -0.084389605 5.5317378e-40
5.2342572 -3.6012564 -0.10408922 2.7658689e-40
5.7606997 -3.6772838 -0.031529464 6.4536941e-40
5.73455 -3.6770971 -0.032458108 1.0141519e-39
5.7008257 -3.715481 -0.018213114 7.3756504e-40
5.7064729 -3.6819248 -0.031583998 1.1985432e-39
5.6854763 -3.7298763 -0.025740247 9.219563e-40
5.69525 -3.7023175 -0.035702661 1.1985432e-39
5.6506324 -3.7256856 -0.024677156 2.0283039e-39
5.6238699 -3.73225 -0.026819313 1.1985432e-39
5.5986409 -3.7383306 -0.02507231 1.4751301e-39
5.5819578 -3.721638 -0.031362627 6.4536941e-40
5.5628443 -3.7417388 -0.026831914 1.0141519e-39
5.5679736 -3.7237875 -0.029626664 8.2976067e-40
5.545414 -3.7439971 -0.022522515 9.219563e-40
5.5272923 -3.7316141 -0.032602686 7.3756504e-40
5.5019503 -3.7319822 -0.031398233 1.0141519e-39
5.4698205 -3.724061 -0.031583969 9.219563e-40
5.4435258 -3.7287426 -0.031583998 7.3756504e-40
5.4132199 -3.7339828 -0.030789332 8.2976067e-40
5.4007878 -3.7213991 -0.045009125 5.5317378e-40
5.3846917 -3.7230566 -0.038847301 7.3756504e-40
5.3658524 -3.7092254 -0.040890429 5.5317378e-40
5.3480577 -3.7031128 -0.041039966 1.0141519e-39
5.3098922 -3.6764433 -0.047350176 7.3756504e-40
5.2900186 -3.6789806 -0.055193603 5.5317378e-40
5.2713609 -3.6526957 -0.046648867 5.5317378e-40
5.2568669 -3.6347885 -0.042403027 7.3756504e-40
5.7362623 -3.671478 -0.0053600422 7.3756504e-40
5.7070918 -3.683363 -0.0036090731 9.219563e-40
5.6847982 -3.7196257 0.0033392834 1.1063476e-39
5.6939278 -3.6948924 0.0033576095 6.4536941e-40
5.6540809 -3.7244141 0.0046440945 1.0141519e-39
5.6237578 -3.7249773 0.0033338827 9.219563e-40
5.6126957 -3.7093561 0.0033576095 7.3756504e-40
5.5987706 -3.7306941 -0.0031302164 8.2976067e-40
5.5871634 -3.7130511 0.007697646 7.3756504e-40
5.5676818 -3.7355251 0.0004609497 5.5317378e-40
5.564661 -3.7181518 0.0021175481 9.219563e-40
5.531754 -3.7242539 0.00087757542 1.1063476e-39
5.4982824 -3.7187846 -0.0036188965 8.2976067e-40
5.4689331 -3.7190762 -0.0053600715 1.1063476e-39
5.4437709 -3.7237704 -0.0064527695 8.2976067e-40
5.4256282 -3.7074814 0.0034050038 6.4536941e-40
5.4140081 -3.7298348 -0.010355165 9.219563e-40
5.4079752 -3.7106245 0.0034050331 6.4536941e-40
5.3862076 -3.7162266 -0.0053975596 6.4536941e-40
5.3670244 -3.7029326 -0.0098670553 8.2976067e-40
5.3441982 -3.6923637 -0.014375265 9.219563e-40
5.3073277 -3.6695542 -0.017566977 5.5317378e-40
5.2753172 -3.6484129 -0.028402377 6.4536941e-40
5.2407026 -3.616863 -0.036545414 5.5317378e-40
5.7342067 -3.6668568 0.020069189 8.2976067e-40
5.705862 -3.6722596 0.026407626 8.2976067e-40
5.6803837 -3.7108386 0.024019029 1.1063476e-39
5.6824532 -3.6860614 0.033185761 8.2976067e-40
5.6502819 -3.7153718 0.028232684 9.219563e-40
5.6535873 -3.6952662 0.038077816 1.1985432e-39
5.6257634 -3.7195494 0.029190337 1.8439126e-39
5.6060119 -3.7054396 0.029397771 7.3756504e-40
5.5865827 -3.7248354 0.037809107 7.3756504e-40
5.5889025 -3.7070971 0.026513807 7.3756504e-40
5.5719695 -3.7303953 0.022726238 1.0141519e-39
5.5605774 -3.7125075 0.034605775 9.219563e-40
5.5346727 -3.7183111 0.028529774 8.2976067e-40
5.4961352 -3.7077711 0.027587887 9.219563e-40
5.4678974 -3.7132604 0.025234498 1.0141519e-39
5.4440899 -3.719214 0.01649327 7.3756504e-40
5.4315777 -3.702538 0.023210801 9.219563e-40
5.4256668 -3.684669 0.030020127 7.3756504e-40
5.4073796 -3.707278 0.021010131 7.3756504e-40
5.3741684 -3.6893575 0.021218797 8.2976067e-40
5.3491735 -3.6825433 0.015358699 1.1985432e-39
5.3282456 -3.6673326 0.016969137 7.3756504e-40
5.3122063 -3.6639702 0.01069665 6.4536941e-40
5.2836933 -3.6424489 -0.0055942214 5.5317378e-40
5.2704649 -3.6221528 0.0096833231 4.6097815e-40
5.6992798 -3.6669199 0.051458571 6.4536941e-40
5.711143 -3.6488774 0.043016542 1.1985432e-39
5.674839 -3.6732638 0.052509911 8.2976067e-40
5.647089 -3.6800134 0.056533832 1.2907388e-39
5.6157327 -3.6889641 0.055668037 1.1063476e-39
5.5839481 -3.6901278 0.055763155 8.2976067e-40
5.5564413 -3.69822 0.057408623 8.2976067e-40
5.5330596 -3.7074311 0.055581994 6.4536941e-40
5.4987612 -3.701921 0.055034492 9.219563e-40
5.4687924 -3.7081299 0.050584462 8.2976067e-40
5.4676743 -3.687911 0.065023005 6.4536941e-40
5.4496279 -3.7122278 0.047087897 6.4536941e-40
5.4357333 -3.6960437 0.05255264 1.0141519e-39
5.4067841 -3.7039313 0.038615257 6.4536941e-40
5.4000607 -3.685056 0.051293351 1.0141519e-39
5.3705797 -3.6747296 0.049332056 8.2976067e-40
5.3505135 -3.6762345 0.046311464 7.3756504e-40
5.3274846 -3.6630585 0.039452985 5.5317378e-40
5.315464 -3.6589777 0.039526202 4.6097815e-40
5.2916059 -3.633883 0.030898787 4.6097815e-40
5.2827668 -3.6372461 0.021775512 1.0141519e-39
5.6379194 -3.6552973 0.076759778 8.2976067e-40
5.6417661 -3.6366315 0.078771204 7.3756504e-40
5.611341 -3.6594539 0.079693928 8.2976067e-40
5.6013212 -3.6412253 0.092066936 7.3756504e-40
5.5871668 -3.6822531 0.075060107 9.219563e-40
5.5798764 -3.663445 0.087909676 7.3756504e-40
5.5506525 -3.6870975 0.083509944 7.3756504e-40
5.5569282 -3.667531 0.087909676 9.219563e-40
5.5298753 -3.6913273 0.080804333 7.3756504e-40
5.5110612 -3.6758704 0.08702942 7.3756504e-40
5.5013299 -3.6978793 0.073311828 6.4536941e-40
5.4934721 -3.6793721 0.085143134 7.3756504e-40
5.4684248 -3.6848183 0.080113135 9.219563e-40
5.4546738 -3.667336 0.092066936 5.5317378e-40
5.428751 -3.665189 0.079075523 7.3756504e-40
5.3997726 -3.6660192 0.074776731 6.4536941e-40
5.3730049 -3.6676772 0.069526039 5.5317378e-40
5.3621354 -3.6486583 0.08142285 7.3756504e-40
5.3534298 -3.6718628 0.065954506 5.5317378e-40
5.331233 -3.6579819 0.061936829 7.3756504e-40
5.3088427 -3.6441486 0.05785428 4.6097815e-40
5.2810946 -3.6106462 0.058705777 5.5317378e-40
5.5781894 -3.6395025 0.10286417 1.1063476e-39
5.564959 -3.5972772 0.11180292 5.5317378e-40
5.5547457 -3.6655028 0.10023326 1.0141519e-39
5.5481539 -3.6378264 0.11019625 6.4536941e-40
5.5217919 -3.6703837 0.10526332 8.2976067e-40
5.5204315 -3.6504128 0.11865839 6.4536941e-40
5.4899201 -3.6764698 0.10316747 1.1985432e-39
5.4888611 -3.6570272 0.11359333 1.0141519e-39
5.4621325 -3.662879 0.10802175 1.1063476e-39
5.4303246 -3.6516681 0.09911824 9.219563e-40
5.4197369 -3.6325233 0.11140125 7.3756504e-40
5.3928108 -3.6595979 0.092740551 8.2976067e-40
5.3989487 -3.6376944 0.10390664 7.3756504e-40
5.3707476 -3.6447732 0.093414202 5.5317378e-40
5.5634127 -3.6034143 0.12938836 9.219563e-40
5.5627999 -3.5668104 0.12669294 9.219563e-40
5.5644732 -3.5466709 0.12764359 8.2976067e-40
5.5590363 -3.5088706 0.12488067 1.0141519e-39
5.5485778 -3.6266108 0.1195266 6.4536941e-40
5.5407162 -3.6065736 0.13388516 7.3756504e-40
5.5230279 -3.6409543 0.13531949 8.2976067e-40
5.4877834 -3.6371198 0.1346996 9.219563e-40
5.4584894 -3.6487718 0.12629628 8.2976067e-40
5.4594035 -3.6201694 0.1383819 5.5317378e-40
5.4321918 -3.6473331 0.1195266 6.4536941e-40
5.5898619 -3.5733876 0.16353555 9.219563e-40
5.5936594 -3.5546062 0.16090512 5.5317378e-40
5.584682 -3.5272794 0.14553638 1.3829344e-39
5.5646701 -3.6132393 0.17309864 8.2976067e-40
5.5659523 -3.5853963 0.16052687 8.2976067e-40
5.5683322 -3.5625453 0.14341885 7.3756504e-40
5.5696754 -3.5340178 0.13732778 8.2976067e-40
5.5476198 -3.6216364 0.16685958 1.2907388e-39
5.542438 -3.6031804 0.14962384 7.3756504e-40
5.5221438 -3.6725736 0.18345231 5.5317378e-40
5.5213213 -3.6567807 0.17505506 5.5317378e-40
5.5218592 -3.634769 0.16260529 1.1063476e-39
5.5034256 -3.6757917 0.18403509 6.4536941e-40
5.4994044 -3.661546 0.17065378 9.219563e-40
5.4838958 -3.6357923 0.16703859 5.5317378e-40
5.4710217 -3.6157491 0.15037331 7.3756504e-40
5.463306 -3.6318705 0.17012241 5.5317378e-40
5.4557891 -3.6172853 0.156369 1.8439126e-39
5.6085339 -3.5271091 0.18738976 4.6097815e-40
5.5919333 -3.5737658 0.18685427 6.4536941e-40
5.6019583 -3.548209 0.18599409 6.4536941e-40
5.5930429 -3.5153866 0.1610049 6.4536941e-40
5.5667152 -3.618679 0.19776087 6.4536941e-40
5.5745425 -3.5833826 0.18977883 1.0141519e-39
5.5488129 -3.6688154 0.20829393 1.0141519e-39
5.5513496 -3.6464276 0.20058243 5.5317378e-40
5.5470204 -3.6229098 0.18728624 6.4536941e-40
5.5253868 -3.6811566 0.20848121 6.4536941e-40
5.5341139 -3.6519134 0.1882589 1.2907388e-39
5.5285568 -3.6179183 0.18202733 4.6097815e-40
5.4945865 -3.6829402 0.20792046 6.4536941e-40
5.4811559 -3.6613426 0.1882589 1.3829344e-39
5.4698267 -3.6828737 0.21429895 4.6097815e-40
5.4569349 -3.6306705 0.18202733 5.5317378e-40
5.6297007 -3.5894034 0.23559941 5.5317378e-40
5.6143351 -3.5573351 0.22316995 4.6097815e-40
5.6177001 -3.5394418 0.21640481 8.2976067e-40
5.608067 -3.5244882 0.20117733 5.5317378e-40
5.5899167 -3.5994053 0.22071822 7.3756504e-40
5.5987287 -3.5715322 0.21673688 6.4536941e-40
5.6059146 -3.5439258 0.20424053 1.4751301e-39
5.5707979 -3.6568675 0.23730062 5.5317378e-40
5.5740623 -3.6376078 0.22493623 1.0141519e-39
5.5800471 -3.6103408 0.22139119 7.3756504e-40
5.5826092 -3.5805953 0.22831722 4.6097815e-40
5.5533638 -3.6884937 0.25327921 5.5317378e-40
5.5524621 -3.6649728 0.23544441 7.3756504e-40
5.5537157 -3.642669 0.21760079 8.2976067e-40
5.5253501 -3.6939042 0.25112447 6.4536941e-40
5.526195 -3.6789508 0.23692998 1.0141519e-39
5.5102992 -3.6970065 0.24896979 7.3756504e-40
5.4934683 -3.6848359 0.23663415 5.5317378e-40
5.4633627 -3.678895 0.234477 8.2976067e-40
5.62462 -3.5868058 0.25345665 3.6878252e-40
5.6165061 -3.5184791 0.22415657 4.6097815e-40
5.6040869 -3.6401551 0.27436206 2.7658689e-40
5.5962582 -3.6258874 0.26454788 5.5317378e-40
5.5970793 -3.5937603 0.26199129 4.6097815e-40
5.6000361 -3.5739648 0.24630433 4.6097815e-40
5.5767112 -3.6507854 0.26131436 8.2976067e-40
5.5848374 -3.629935 0.25427818 4.6097815e-40
5.5794868 -3.6023321 0.24691224 7.3756504e-40
5.5820003 -3.5771761 0.24630427 5.5317378e-40
5.5484595 -3.6859865 0.27051684 5.5317378e-40
5.5589142 -3.6678636 0.2637594 5.5317378e-40
5.5276217 -3.6915765 0.27030936 8.2976067e-40
5.5374494 -3.673388 0.25507924 6.4536941e-40
5.499485 -3.6957657 0.27566302 7.3756504e-40
5.4902153 -3.6804361 0.26202333 1.0141519e-39
5.4748559 -3.6982465 0.27482626 4.6097815e-40
