# .PCD v0.7 - Point Cloud Data file format
VERSION 0.7
FIELDS x y z rgb
SIZE 4 4 4 4
TYPE F F F F
COUNT 1 1 1 1
WIDTH 977
HEIGHT 1
VIEWPOINT 0 0 0 1 0 0 0
POINTS 977
DATA ascii
1.4348702 0.11664954 -1.1266626 8.945937e-39
1.4459417 0.10511193 -1.1317595 1.0049022e-38
1.3979926 0.11963302 -1.0976976 9.2232386e-39
1.4411867 0.11051009 -1.1024776 1.0418157e-38
1.4471872 0.10761141 -1.1111599 9.7742249e-39
1.3809073 0.13679908 -1.0819905 8.2090839e-39
1.4040257 0.12587523 -1.0884485 9.8689765e-39
1.4311196 0.12200611 -1.0988116 8.9455699e-39
1.3586611 0.16574863 -1.0702138 7.3775113e-39
1.3586611 0.22975962 -1.0702139 5.8998309e-39
1.3685837 0.24403669 -1.0757524 5.8062087e-39
1.4114312 0.10939541 -1.0610813 1.0325953e-38
1.4311351 0.10945321 -1.0776454 8.115082e-39
1.3857789 0.14259845 -1.0613576 8.9473776e-39
1.4070945 0.13100755 -1.0672442 9.5012604e-39
1.4295986 0.12161467 -1.0835289 8.6704277e-39
1.3616604 0.16753057 -1.054599 7.5626312e-39
1.3742566 0.15325505 -1.0540295 8.2090853e-39
1.343532 0.1954082 -1.0460687 7.0076414e-39
1.352119 0.22444768 -1.0497521 5.4381409e-39
1.3682784 0.2472426 -1.0492185 5.894768e-39
1.3721601 0.2518459 -1.0620575 8.8399751e-39
1.3871562 0.1087321 -1.0275337 1.0694727e-38
1.374002 0.13974312 -1.0182569 8.5767706e-39
1.3826052 0.13164282 -1.0312973 8.2980229e-39
1.3591418 0.16598779 -1.0210426 7.0087288e-39
1.3496556 0.19412261 -1.0196105 6.2715099e-39
1.3508601 0.22397117 -1.0205379 5.5299708e-39
1.365343 0.248069 -1.0220714 5.5260107e-39
1.3843699 0.26355964 -1.0153062 1.1980328e-38
1.2410532 0.46225539 -0.97757459 8.4817051e-39
1.2517592 0.49008992 -0.98288345 8.574614e-39
1.2633377 0.50811744 -0.99197489 8.7582737e-39
1.2743202 0.51429355 -0.98949713 9.4007453e-39
1.3772647 0.10788693 -0.99378639 1.124718e-38
1.3858498 0.11128072 -1.0096395 9.3046078e-39
1.3755757 0.1335448 -0.99547547 1.1066411e-38
1.3631591 0.1636903 -0.99248165 7.6544597e-39
1.345675 0.2018085 -0.98574352 7.3764239e-39
1.354166 0.18854029 -0.99061865 5.8116261e-39
1.3466493 0.21544018 -0.98704988 5.7161697e-39
1.3531432 0.23021755 -0.99240458 4.793119e-39
1.3704653 0.2520822 -0.99375159 6.4479586e-39
1.2375697 0.32519266 -0.94817233 1.4560811e-38
1.240284 0.32831559 -0.96152461 1.8611982e-38
1.2331815 0.34782624 -0.95774853 1.281489e-38
1.2400609 0.33714128 -0.9623785 1.5023234e-38
1.232911 0.3760415 -0.95888793 1.1710716e-38
1.2400609 0.37156144 -0.9623785 1.1618526e-38
1.2321656 0.40354005 -0.95831192 9.5898631e-39
1.2382768 0.39980367 -0.96920997 1.1153957e-38
1.2334778 0.43463597 -0.95830047 8.022522e-39
1.2377919 0.45351195 -0.94732201 7.6530262e-39
1.2447122 0.46704742 -0.96039814 8.8519253e-39
1.2556151 0.489382 -0.96614039 8.9415958e-39
1.2732897 0.50292891 -0.96425664 9.0355739e-39
1.2771558 0.51240736 -0.97270358 1.050277e-38
1.3795232 0.10715852 -0.96500421 1.27234e-38
1.3681479 0.13506943 -0.96034652 9.405441e-39
1.354437 0.16764903 -0.95219356 6.5473891e-39
1.3611935 0.16191794 -0.96409827 7.5633445e-39
1.3452802 0.19580576 -0.95469153 6.3637055e-39
1.348225 0.22343022 -0.95429361 4.9789564e-39
1.359653 0.23471558 -0.96747917 4.9764495e-39
1.37124 0.25255695 -0.9638505 5.4363374e-39
1.2165171 0.32528806 -0.91005987 1.1248645e-38
1.227239 0.31877694 -0.92327946 1.4286028e-38
1.2139593 0.34397432 -0.91086066 1.097026e-38
1.2233545 0.34515795 -0.92954254 1.0602551e-38
1.214005 0.37432182 -0.91176373 9.6806028e-39
1.2208393 0.37547788 -0.92804837 9.58841e-39
1.2161909 0.39628348 -0.91130883 9.0355949e-39
1.221172 0.40617368 -0.92389607 8.5753356e-39
1.2285312 0.43318412 -0.92389411 8.1143603e-39
1.2410196 0.45522201 -0.92704856 8.5749657e-39
1.2504623 0.46962568 -0.9344244 9.2210596e-39
1.2644384 0.48469722 -0.93763256 9.5887575e-39
1.2806157 0.49629232 -0.93505108 9.6795042e-39
1.3813535 0.10672109 -0.93326193 1.3923744e-38
1.3720162 0.13406055 -0.93226123 1.0513598e-38
1.3551899 0.16556446 -0.92694896 7.5633473e-39
1.3361555 0.20242862 -0.91419256 6.1782254e-39
1.3433596 0.19272228 -0.92720574 5.9027218e-39
1.335668 0.21679854 -0.91131008 5.2533839e-39
1.3459162 0.22783683 -0.927737 4.7012863e-39
1.3569957 0.24693717 -0.92571288 5.2523049e-39
1.3733 0.25992891 -0.93600148 6.2606947e-39
1.2132031 0.31875449 -0.89010054 1.2168793e-38
1.1974229 0.34158713 -0.87236387 1.0786589e-38
1.2047372 0.34432572 -0.88828462 1.0786586e-38
1.2090297 0.37365633 -0.8875652 9.9571855e-39
1.2199527 0.40465987 -0.89144748 8.4820582e-39
1.2243254 0.41482568 -0.90390664 7.9274523e-39
1.2230407 0.42597246 -0.88508111 7.7459267e-39
1.2297056 0.43686542 -0.895877 8.3898556e-39
1.245387 0.45936072 -0.89924389 9.3118203e-39
1.2583139 0.47337088 -0.89927208 9.5880372e-39
1.2697421 0.48288721 -0.90809023 9.3118021e-39
1.2847207 0.49449053 -0.91933328 9.7706138e-39
1.3693671 0.11491083 -0.89150119 1.2172413e-38
1.3840142 0.10570674 -0.90945715 1.4753136e-38
1.3398231 0.14488439 -0.87983453 9.9572065e-39
1.3590515 0.13468625 -0.89423114 1.0052998e-38
1.3739742 0.13166973 -0.91264319 1.1068932e-38
1.3355923 0.1665321 -0.88548052 7.0090861e-39
1.3499626 0.16495673 -0.90564781 7.9332116e-39
1.3302225 0.19471052 -0.89002335 6.5470164e-39
1.3310213 0.22392374 -0.88801366 5.2544629e-39
1.3433802 0.2487945 -0.885342 5.5281659e-39
1.352942 0.24979712 -0.90215468 5.1626204e-39
1.2038167 0.29857248 -0.84788227 1.5844675e-38
1.208198 0.29987156 -0.85484993 1.5659924e-38
1.1970676 0.31799144 -0.85019934 1.161707e-38
1.2053442 0.31398979 -0.86577797 1.2169518e-38
1.1967477 0.34254265 -0.85301816 1.0418527e-38
1.2045593 0.3557798 -0.86878318 9.9579043e-39
1.2095135 0.37458599 -0.85813653 9.3118175e-39
1.2183254 0.40471101 -0.85928762 8.2983858e-39
1.2289116 0.42597246 -0.86260027 8.3909374e-39
1.2361957 0.44111562 -0.86683547 8.9433937e-39
1.2530292 0.45963913 -0.87051016 9.6805986e-39
1.2668958 0.47241467 -0.87319577 1.0509989e-38
1.2744497 0.4820191 -0.88294166 1.1243952e-38
1.3708029 0.11355899 -0.8744185 1.3924472e-38
1.3897686 0.11093149 -0.86601716 1.5026859e-38
1.3425113 0.14471608 -0.86268127 1.1622852e-38
1.3660697 0.13011238 -0.87019092 1.3004699e-38
1.3891939 0.12272588 -0.86544764 1.327913e-38
1.3327239 0.16643506 -0.85777074 8.668969e-39
1.3273374 0.20353393 -0.84981227 6.6384903e-39
1.33171 0.19279353 -0.86077344 7.1005587e-39
1.3280324 0.22278714 -0.84715104 5.2558992e-39
1.3321072 0.2241493 -0.86199224 5.5321358e-39
1.3439621 0.25206649 -0.86085308 5.7140145e-39
1.3544273 0.25861284 -0.87667996 6.4404364e-39
1.1941214 0.29608351 -0.8167392 1.3827945e-38
1.1919417 0.31315753 -0.82238173 1.1618157e-38
1.1982232 0.34417701 -0.82408917 9.8660632e-39
1.2071429 0.3749336 -0.82223141 8.8515652e-39
1.2121047 0.3767454 -0.83989215 8.9444755e-39
1.2191712 0.40431795 -0.83047724 7.9296005e-39
1.2287787 0.43278378 -0.83020145 8.2973068e-39
1.2391752 0.44420919 -0.84704673 9.4944053e-39
1.2550731 0.46316108 -0.83999407 1.0413824e-38
1.4092293 0.11293334 -0.84987491 1.46595e-38
1.346275 0.14170219 -0.83207834 1.1622133e-38
1.374444 0.12828869 -0.84158939 1.4020308e-38
1.396925 0.12162387 -0.84785002 1.3556803e-38
1.3337909 0.17367181 -0.82510108 8.7643974e-39
1.3395739 0.16157193 -0.83066177 9.4998241e-39
1.3285249 0.19528808 -0.8280229 7.2871234e-39
1.324908 0.22383945 -0.82613653 5.6264964e-39
1.3324411 0.24349725 -0.82103592 4.1495614e-39
1.34749 0.2545861 -0.83625007 4.2421298e-39
1.3650819 0.26985687 -0.83588314 5.7071972e-39
1.1861569 0.28995374 -0.78581929 1.3642837e-38
1.1925616 0.28835842 -0.79533994 1.5022141e-38
1.3717074 0.27935171 -0.83359945 1.3544093e-38
1.184206 0.3124783 -0.78627557 1.1065698e-38
1.1888562 0.31860307 -0.80227202 1.11561e-38
1.1881226 0.33810934 -0.78133655 9.1299429e-39
1.1947587 0.34687054 -0.79462147 9.3132566e-39
1.2011547 0.37554055 -0.79490829 8.6668138e-39
1.2042186 0.40401 -0.79403579 7.5608194e-39
1.207958 0.42667314 -0.79245073 8.4816785e-39
1.2193288 0.43710092 -0.81223041 8.2058328e-39
1.2518934 0.45303854 -0.82209301 1.0047198e-38
1.3825239 0.11731192 -0.8037259 1.466206e-38
1.4134053 0.11377492 -0.8276177 1.5210149e-38
1.3422801 0.14714953 -0.79259646 1.0700188e-38
1.3506037 0.13458022 -0.80293816 1.2175667e-38
1.3763143 0.12424955 -0.82057703 1.355933e-38
1.3965409 0.12022018 -0.82623494 1.4477673e-38
1.3333889 0.16670854 -0.79711241 9.4083473e-39
1.3440096 0.16027157 -0.81367636 9.8686122e-39
1.3242323 0.19519955 -0.79609895 7.9328557e-39
1.3209468 0.22582737 -0.79608244 6.1789709e-39
1.329869 0.25067216 -0.79493779 4.517988e-39
1.3527557 0.26440075 -0.81026441 4.4257966e-39
1.1671247 0.29942018 -0.73905706 1.0604356e-38
1.1818588 0.28733385 -0.75798351 1.346134e-38
1.2005956 0.27907524 -0.77710932 1.8243149e-38
1.3600898 0.27457982 -0.79431868 5.0664787e-39
1.3755201 0.28300878 -0.81253672 1.0225086e-38
1.1784061 0.31505641 -0.75799173 1.0419244e-38
1.1822244 0.34469348 -0.75911683 9.1292255e-39
1.1835803 0.37341312 -0.75836331 8.4835001e-39
1.1884648 0.39569205 -0.75915986 8.0217989e-39
1.2040884 0.41133773 -0.76373488 8.3902017e-39
1.216018 0.42555261 -0.76950324 8.8504596e-39
1.2413952 0.43991652 -0.77357864 1.0046841e-38
1.3724002 0.11449725 -0.76828742 1.5212681e-38
1.3810139 0.11551468 -0.7887311 1.5306327e-38
1.3449408 0.14307366 -0.76855773 1.1252997e-38
1.3606286 0.12831284 -0.77477574 1.282141e-38
1.3325797 0.16622217 -0.76666021 9.8696982e-39
1.3151221 0.19956382 -0.7586394 8.0261415e-39
1.3212371 0.18919267 -0.7702775 7.9321537e-39
1.3107324 0.22473121 -0.7630105 6.4555634e-39
1.1776838 0.26662385 -0.71841311 1.6955343e-38
1.3145279 0.24697492 -0.75639206 4.9796921e-39
1.3275392 0.25774863 -0.76824152 4.7942162e-39
1.1658078 0.29035926 -0.7203548 1.272741e-38
1.1778501 0.27721429 -0.72941637 1.4199639e-38
1.3523886 0.27633029 -0.78159285 5.7053559e-39
1.1626323 0.31475472 -0.71741688 1.0512537e-38
1.1727841 0.31994861 -0.73717463 9.7728026e-39
1.162466 0.34564227 -0.71732098 9.0366823e-39
1.1727841 0.34661102 -0.73717463 9.2192617e-39
1.1658436 0.37039289 -0.71852148 8.6675299e-39
1.1763529 0.37932697 -0.73340327 8.3905842e-39
1.1919999 0.39989957 -0.7301541 7.9285047e-39
1.2138658 0.41266054 -0.74608505 8.1121673e-39
1.2242641 0.4273847 -0.73463148 9.0355795e-39
1.2412 0.44049254 -0.74255645 1.0137234e-38
1.3689933 0.11652111 -0.74175823 1.5493983e-38
1.3471044 0.13987212 -0.739757 1.162323e-38
1.365461 0.12505136 -0.743411 1.3559693e-38
1.3245127 0.17276284 -0.72805351 9.318695e-39
1.3348023 0.16135688 -0.73851824 1.0055897e-38
1.2977556 0.20566238 -0.71772033 7.1942299e-39
1.3131328 0.19361019 -0.73095471 7.9339543e-39
1.2977557 0.22148259 -0.71772033 7.0105477e-39
1.3032935 0.22713868 -0.73156774 7.1942187e-39
1.1914861 0.26749173 -0.69854277 1.3922347e-38
1.227908 0.26747155 -0.70682728 1.3738657e-38
1.2592914 0.26349053 -0.71395737 1.1157182e-38
1.284618 0.25189483 -0.71525836 5.9016792e-39
1.3091134 0.2492367 -0.73656088 4.8885936e-39
1.1649727 0.28534463 -0.69047201 1.4111074e-38
1.1834791 0.27167708 -0.70018119 1.392778e-38
1.1586993 0.31441399 -0.68997133 1.1620698e-38
1.1524446 0.34565988 -0.6805014 9.5916694e-39
1.1560481 0.34311604 -0.69490176 9.7767795e-39
1.1533397 0.3660275 -0.67707419 8.4853204e-39
1.1615661 0.3756693 -0.69179189 8.3916688e-39
1.1944529 0.40611166 -0.69962078 8.4824057e-39
1.2089821 0.42016512 -0.70146537 8.5735308e-39
1.2203375 0.42759633 -0.71418118 9.494757e-39
1.2424463 0.44218346 -0.7237131 1.0598952e-38
1.3655629 0.11551927 -0.70344627 1.5675844e-38
1.3729897 0.11316592 -0.71684498 1.6683822e-38
1.3316408 0.14505687 -0.6948241 1.1529235e-38
1.3502702 0.13385645 -0.70897281 1.2360796e-38
1.3697767 0.12459083 -0.72688639 1.3469289e-38
1.3050845 0.17797707 -0.68965793 9.3161839e-39
1.320881 0.16294719 -0.70128679 1.0055541e-38
1.3350478 0.15135413 -0.71739554 1.1069688e-38
1.3005937 0.19592059 -0.69355565 8.3027396e-39
1.3082119 0.18420275 -0.70736313 8.2109055e-39
1.2665536 0.23820549 -0.67493749 8.3034557e-39
1.2997797 0.22049582 -0.69501948 6.2737057e-39
1.3094963 0.23445359 -0.70600712 6.4570054e-39
1.1793497 0.26579282 -0.66166699 1.3652264e-38
1.2010204 0.26226461 -0.67171013 1.3374242e-38
1.2320651 0.25694311 -0.67362928 1.2361885e-38
1.266481 0.24968047 -0.68624008 9.870794e-39
1.2875493 0.24418624 -0.70337486 7.008747e-39
1.1598685 0.29032162 -0.65207541 1.3558255e-38
1.164939 0.28032368 -0.66352803 1.4202917e-38
1.1568462 0.31564185 -0.6580835 1.2082042e-38
1.1599172 0.31505138 -0.66771889 1.2451186e-38
1.1550699 0.34517026 -0.66030192 9.684951e-39
1.0829885 0.38946056 -0.62589705 1.3728174e-38
1.1574911 0.36610046 -0.65965587 8.1161708e-39
1.169564 0.38138837 -0.66265982 8.0217947e-39
1.0818686 0.40495673 -0.63018525 1.5015276e-38
1.1840129 0.39576584 -0.65856254 8.0210744e-39
1.1972502 0.40894896 -0.6698761 9.8606682e-39
1.081311 0.42044035 -0.63232011 1.6675135e-38
1.2063537 0.42306423 -0.66535914 1.3173199e-38
1.3672799 0.11519559 -0.68025029 1.6229374e-38
1.3796206 0.1105321 -0.67732131 1.6953881e-38
1.3335452 0.14462437 -0.67057174 1.2361162e-38
1.3549159 0.12868051 -0.68055046 1.4021757e-38
1.3085908 0.17553025 -0.66831744 9.9651533e-39
1.3207111 0.16320552 -0.67091995 1.0977869e-38
1.2991791 0.19557041 -0.66314274 9.0421124e-39
1.2668583 0.23154624 -0.65596271 8.0261542e-39
1.2964332 0.21801376 -0.66737914 6.8272438e-39
1.1682576 0.26920733 -0.61995333 1.4572418e-38
1.1799697 0.26123837 -0.63249022 1.4389827e-38
1.2164648 0.25394827 -0.63957137 1.3190574e-38
1.2428007 0.24919239 -0.64990449 1.1069353e-38
1.2588212 0.24523394 -0.66101336 8.9477587e-39
1.1621867 0.28520206 -0.62793374 1.4756435e-38
1.1694266 0.27030551 -0.63625389 1.6139007e-38
1.1572025 0.31514099 -0.63012981 1.2358271e-38
1.1571354 0.34488246 -0.62956297 1.079166e-38
1.0670851 0.38564709 -0.59577042 1.3448704e-38
1.0864241 0.38545731 -0.61801857 1.2251971e-38
1.1622612 0.36964703 -0.6276232 8.1150876e-39
1.1724219 0.38526273 -0.63368887 7.2853073e-39
1.0667137 0.40668756 -0.60273361 1.3908949e-38
1.0805112 0.39699087 -0.61955321 1.3725288e-38
1.1856624 0.40107414 -0.63432169 8.0221577e-39
1.1998154 0.41581288 -0.64026701 8.2965851e-39
1.0627775 0.43232593 -0.5971542 1.5106023e-38
1.2145102 0.43102905 -0.6421203 1.1240692e-38
1.0693889 0.4643667 -0.59486336 1.5012747e-38
1.3639716 0.11673068 -0.64753973 1.6597785e-38
1.339896 0.14282666 -0.6425944 1.3007972e-38
1.3577559 0.12828256 -0.65305907 1.4297633e-38
1.3146111 0.17083159 -0.63537157 1.042542e-38
1.328362 0.15859818 -0.64436442 1.1439934e-38
1.2599717 0.20673026 -0.61307591 7.2914618e-39
1.2831917 0.19693376 -0.62310225 6.5495821e-39
1.2984484 0.19190091 -0.63964278 8.5804153e-39
1.2517865 0.22539735 -0.61920333 8.1187155e-39
1.2737945 0.21482813 -0.63929743 7.1027517e-39
1.1712598 0.26494458 -0.59922296 1.4295114e-38
1.1848532 0.25461808 -0.60348105 1.4481306e-38
1.2199423 0.24633838 -0.61229205 1.2822514e-38
1.2446184 0.24174924 -0.62833244 9.8708038e-39
1.1616979 0.28546157 -0.59880656 1.4019236e-38
1.1557494 0.31442082 -0.59793282 1.3002556e-38
1.157716 0.34492487 -0.59863937 1.0698381e-38
1.0584347 0.38180184 -0.57348901 1.6125962e-38
1.063453 0.38674706 -0.57688725 1.5106428e-38
1.1649188 0.37424099 -0.59826976 9.7756879e-39
1.1736844 0.38848439 -0.61500436 7.5590005e-39
1.0599962 0.40393797 -0.56374168 1.4644732e-38
1.0626416 0.40515044 -0.57914686 1.4368498e-38
1.1875356 0.4048996 -0.60300756 7.5600963e-39
1.0566614 0.43556297 -0.56655914 1.3169589e-38
1.0614191 0.43119058 -0.58184934 1.3077768e-38
1.2015483 0.42471436 -0.6039502 8.4791701e-39
1.2120862 0.43146238 -0.61636639 9.4897081e-39
1.0610129 0.45757222 -0.56135565 1.2891552e-38
1.0675265 0.46811202 -0.57508451 1.4090447e-38
1.0714899 0.4810679 -0.57098937 1.529005e-38
1.3683267 0.11805505 -0.62389159 1.6501241e-38
1.3468961 0.13997826 -0.61540699 1.3652625e-38
1.3634231 0.12657523 -0.6191346 1.5958566e-38
1.2709039 0.17521834 -0.58440775 9.8690046e-39
1.2853979 0.17333946 -0.59684616 9.7771523e-39
1.3167734 0.1671534 -0.60928398 1.0702365e-38
1.3346138 0.1583983 -0.6131196 1.1809439e-38
1.2582265 0.19456491 -0.58975887 8.0254395e-39
1.2780511 0.18539448 -0.60980737 8.3931318e-39
1.2313542 0.23397343 -0.58134902 1.097896e-38
1.2484165 0.22029777 -0.59166354 7.8428503e-39
1.1763078 0.25974819 -0.57016093 1.2729596e-38
1.1975964 0.24562325 -0.57489115 1.2914347e-38
1.2174048 0.24230643 -0.59105468 1.2638482e-38
1.1624584 0.28478813 -0.56749636 1.2819965e-38
1.1578621 0.31493092 -0.56560552 1.1343381e-38
1.1599668 0.34565556 -0.56730533 1.0790556e-38
1.1675038 0.37379521 -0.56809479 9.1281549e-39
1.0611038 0.40922621 -0.54348034 1.6025148e-38
1.0809133 0.39921328 -0.54598749 1.6029462e-38
1.1817365 0.39498308 -0.56614375 6.9165388e-39
1.1916293 0.40847135 -0.57696289 7.3760652e-39
1.0588012 0.43460947 -0.54074681 1.5563074e-38
1.206292 0.42626938 -0.58116949 8.5706497e-39
1.2155442 0.43862432 -0.57591832 1.2346691e-38
1.0636085 0.46162409 -0.54101491 1.4180842e-38
1.070758 0.4763743 -0.5421322 1.4459211e-38
1.0746715 0.48518035 -0.54153854 1.528932e-38
1.3693691 0.11784588 -0.59982991 1.6032295e-38
1.3529299 0.1388049 -0.58648407 1.4667125e-38
1.3691956 0.12432661 -0.58664346 1.6784708e-38
1.2707044 0.17367308 -0.56340635 1.1805819e-38
1.2939692 0.16508961 -0.5663361 1.0332497e-38
1.325385 0.16028991 -0.58290613 1.1071149e-38
1.3393025 0.15356697 -0.58238083 1.2178227e-38
1.2482237 0.20143212 -0.55120879 8.6740571e-39
1.2565963 0.19116029 -0.56367236 8.95063e-39
1.2124329 0.23708184 -0.54380512 9.5960246e-39
1.2340184 0.22265844 -0.55523306 9.873322e-39
1.1795048 0.25851083 -0.54044312 1.2175683e-38
1.1980994 0.24291193 -0.54922062 1.0888203e-38
1.1621233 0.2961387 -0.52471858 1.2268955e-38
1.1674938 0.28473657 -0.53869259 1.1160445e-38
1.1555375 0.3147217 -0.53128082 1.2912876e-38
1.1627513 0.30497396 -0.5460586 1.2912175e-38
1.1585124 0.34182498 -0.52971774 1.217279e-38
1.1637888 0.34882241 -0.54604399 1.0235235e-38
1.1632715 0.36268437 -0.52823633 9.3118539e-39
1.1694531 0.37432483 -0.53845346 9.2225085e-39
1.0685585 0.41558576 -0.52285206 1.8146367e-38
1.0907453 0.41113013 -0.51761281 1.7134733e-38
1.1844107 0.39649448 -0.53996372 7.7448505e-39
1.1982343 0.41072002 -0.54926997 7.1001971e-39
1.0693637 0.43722969 -0.51405334 1.6946728e-38
1.0826428 0.42596433 -0.50717896 1.7870489e-38
1.2103745 0.4233641 -0.54518521 7.4689797e-39
1.2240882 0.43762448 -0.55656028 8.7568276e-39
1.0708635 0.46340278 -0.51250476 1.4826207e-38
1.0756528 0.47780916 -0.52339017 1.3998598e-38
1.2337974 0.4510532 -0.56291491 1.2531781e-38
1.0763209 0.48046973 -0.50500262 1.4736883e-38
1.0795525 0.48521435 -0.51565325 1.4736863e-38
1.3430614 0.14765504 -0.54424345 1.1254819e-38
1.3577914 0.13924213 -0.5580433 1.3838449e-38
1.2708961 0.17610276 -0.53463989 1.1626463e-38
1.300151 0.16556147 -0.53927684 9.0431984e-39
1.3305235 0.15460984 -0.54907924 1.0519779e-38
1.2496214 0.19779186 -0.52780062 8.0272416e-39
1.2639692 0.18691295 -0.5278554 8.0286891e-39
1.2161124 0.22865975 -0.51730442 9.2272337e-39
1.2323952 0.21477063 -0.52541256 9.4112634e-39
1.1835517 0.25719771 -0.51012248 1.0793112e-38
1.2006786 0.24199267 -0.51955742 1.0426501e-38
1.1653001 0.2918365 -0.50543106 1.2634487e-38
1.1736326 0.27836242 -0.50934082 1.1993454e-38
1.157948 0.31480649 -0.50295889 1.24501e-38
1.1611429 0.34381092 -0.50484204 1.0879876e-38
1.168817 0.36037427 -0.50700265 9.3146887e-39
1.175683 0.37507996 -0.50943345 1.0328123e-38
1.1008097 0.41447642 -0.49829853 1.6492598e-38
1.1915288 0.39753851 -0.51600689 8.2072692e-39
1.2085937 0.40985018 -0.51508981 7.3775127e-39
1.079438 0.44332942 -0.48723543 1.5842185e-38
1.0921723 0.43015975 -0.48614365 1.6121298e-38
1.215076 0.42496696 -0.52577049 7.9296075e-39
1.242038 0.43418264 -0.52251548 9.31e-39
1.2617375 0.44653213 -0.51925159 1.2810509e-38
1.0787841 0.46284416 -0.48431417 1.4458874e-38
1.0838107 0.47780916 -0.49215347 1.446102e-38
1.0839089 0.48475966 -0.4759478 1.4367723e-38
1.0868987 0.48655409 -0.4898271 1.4830513e-38
1.3446344 0.14724402 -0.52239048 1.0425422e-38
1.3640152 0.14029762 -0.53049648 1.1623589e-38
1.3828547 0.13513762 -0.53434259 9.8754912e-39
1.2892125 0.1769052 -0.51430398 1.1902332e-38
1.3109614 0.16906513 -0.51314443 9.3194223e-39
1.3302637 0.15453579 -0.51522815 1.0149919e-38
1.2583203 0.20761102 -0.51254857 1.0243527e-38
1.2762539 0.19609421 -0.50666493 9.1328576e-39
1.3022344 0.1865841 -0.50137937 8.0257954e-39
1.1913279 0.23095044 -0.47027609 8.5840167e-39
1.2216423 0.23096669 -0.49490008 8.3967472e-39
1.2490393 0.2171213 -0.49971661 9.87225e-39
1.1707164 0.2583527 -0.46323332 7.8424958e-39
1.1930172 0.25436091 -0.48608252 9.6863986e-39
1.1684718 0.28807735 -0.47703639 1.1161892e-38
1.1810138 0.27590722 -0.48461187 1.199094e-38
1.1607411 0.31477696 -0.47526559 1.0792019e-38
1.1650475 0.34455058 -0.47502756 9.4990954e-39
1.1735312 0.36892587 -0.46718588 6.6399449e-39
1.1855973 0.37522471 -0.48503348 7.8384867e-39
1.1951839 0.39334038 -0.48123497 5.8065717e-39
1.2193279 0.40708256 -0.49563786 6.2668309e-39
1.2364819 0.41690275 -0.49327448 6.1803862e-39
1.0861672 0.44687241 -0.45866603 1.4831274e-38
1.0969173 0.43710786 -0.45731777 1.4371379e-38
1.2493368 0.42998838 -0.50539315 8.479875e-39
1.0854079 0.4647637 -0.45497671 1.4368117e-38
1.0861268 0.48558787 -0.45649585 1.3169928e-38
1.0958053 0.4947066 -0.45054358 1.0960106e-38
1.3498163 0.14587432 -0.50057071 1.1810135e-38
1.3627191 0.14827155 -0.49271843 1.2638441e-38
1.2361187 0.17704149 -0.45509073 1.0795277e-38
1.2526808 0.17140254 -0.45499298 9.0424809e-39
1.3244349 0.17112659 -0.49684063 6.180808e-39
1.3405067 0.16188309 -0.49070638 8.2137922e-39
1.3728061 0.15871927 -0.48733783 1.0790597e-38
1.2093164 0.20234148 -0.45160794 9.8740436e-39
1.2249305 0.19073278 -0.45939842 9.2254176e-39
1.2426068 0.18421283 -0.46982256 1.0332473e-38
1.3210806 0.18369173 -0.49583378 8.5786049e-39
1.1785004 0.23331451 -0.44558707 9.597098e-39
1.1928248 0.21859005 -0.451931 9.5049024e-39
1.1541849 0.2656624 -0.43639085 1.033358e-38
1.1647785 0.25352159 -0.44301438 9.5963749e-39
1.1496783 0.28455675 -0.43610913 9.6878517e-39
1.1554053 0.28352129 -0.45502332 8.1197875e-39
1.1442919 0.31473783 -0.43775725 8.4885742e-39
1.1543186 0.32099816 -0.45566663 7.6573632e-39
1.1453794 0.34457117 -0.43437156 8.3952926e-39
1.1564159 0.34409857 -0.45441985 7.3796903e-39
1.1519123 0.37365583 -0.43102196 8.4853218e-39
1.167442 0.37724084 -0.45079631 6.4573585e-39
1.1558917 0.39173946 -0.42985588 8.5739105e-39
1.1667742 0.40194491 -0.4387849 9.8638926e-39
1.1864886 0.40272665 -0.45846573 5.8973296e-39
1.0904629 0.44889909 -0.43502253 1.3816419e-38
1.1038066 0.44443649 -0.42904425 1.35427e-38
1.0941482 0.46594164 -0.42640457 1.4368486e-38
1.1036872 0.45550257 -0.41780463 1.4923118e-38
1.0963017 0.48787692 -0.42362416 1.1695889e-38
1.1012667 0.49543485 -0.42698094 1.0776453e-38
1.2439001 0.17823364 -0.4318909 1.1995998e-38
1.2656509 0.16714408 -0.43981692 1.1441736e-38
1.2947216 0.15560979 -0.43692565 1.2270773e-38
1.383782 0.16084404 -0.48330218 7.7567868e-39
1.2143714 0.20220102 -0.42799255 1.1442102e-38
1.2301205 0.18876611 -0.42824826 1.1535017e-38
1.1878841 0.23523411 -0.42002696 1.1257337e-38
1.2010379 0.22020534 -0.42200467 1.1441729e-38
1.1793549 0.25574231 -0.41671115 1.2178932e-38
1.156016 0.29084834 -0.4162482 1.171796e-38
1.1725231 0.28228867 -0.40996942 1.2455521e-38
1.1475295 0.31529829 -0.40811977 1.1164057e-38
1.1729662 0.30162203 -0.40009451 1.3008335e-38
1.1500359 0.34584877 -0.40874732 1.0424315e-38
1.1579107 0.37102917 -0.41348985 1.0976763e-38
1.1676403 0.38338235 -0.41074607 1.1345184e-38
1.1575984 0.39173946 -0.42332095 1.0607253e-38
1.171813 0.40432996 -0.41367918 1.1068596e-38
1.1159316 0.44786495 -0.40715271 1.2529274e-38
1.1833669 0.43082023 -0.41508856 1.0974224e-38
1.1985892 0.44958165 -0.40883443 1.0967007e-38
1.1027309 0.47330916 -0.39784846 1.4645434e-38
1.1133411 0.45976543 -0.39616141 1.4463581e-38
1.2027464 0.45368809 -0.41270402 1.6134609e-38
1.1032419 0.48877326 -0.3954908 1.3262128e-38
1.1091874 0.50558949 -0.39709646 1.0409464e-38
1.1110036 0.51224583 -0.38803113 9.582603e-39
1.3125097 0.14675596 -0.43169475 1.3927392e-38
1.3305557 0.14616472 -0.42503569 1.3925593e-38
1.3507665 0.14259633 -0.41976172 1.4111412e-38
1.2746269 0.17426442 -0.41405392 1.2734279e-38
1.3011026 0.1621782 -0.41886896 1.3378921e-38
1.3291862 0.15726826 -0.41730866 1.3746622e-38
1.2246974 0.20328692 -0.39655471 1.1072232e-38
1.239326 0.18963289 -0.40151575 1.1627572e-38
1.2640898 0.18171155 -0.39943588 1.2826473e-38
1.1928233 0.2353766 -0.39776832 1.0703095e-38
1.2113205 0.22248751 -0.39228636 1.2179659e-38
1.1884011 0.25490075 -0.38762245 1.0242467e-38
1.2067875 0.24101284 -0.37744325 1.2828977e-38
1.1800334 0.28540915 -0.38521156 1.0149543e-38
1.1577983 0.32123128 -0.39019701 1.2178578e-38
1.1768095 0.31255552 -0.3834596 1.1993459e-38
1.1556917 0.34528321 -0.3796905 1.0978584e-38
1.1758745 0.33206311 -0.37629479 1.2823581e-38
1.1594499 0.37094936 -0.37995517 1.0238467e-38
1.1735474 0.38686603 -0.38599667 1.0421761e-38
1.1905376 0.40502179 -0.39156681 1.0792005e-38
1.2050307 0.41713762 -0.38416994 1.0331741e-38
1.1316708 0.44942021 -0.37221545 1.5392786e-38
1.1943781 0.43380362 -0.39676273 8.671155e-39
1.2054832 0.43660188 -0.38626927 8.2101755e-39
1.1132303 0.47472849 -0.3620922 1.4186264e-38
1.1252695 0.462825 -0.37044868 1.3820012e-38
1.2088693 0.4594799 -0.38978642 1.1247556e-38
1.1109498 0.49242753 -0.36686692 1.3723104e-38
1.1148069 0.50708383 -0.3787446 1.1971748e-38
1.1148032 0.51049912 -0.35765308 1.2524552e-38
1.1213045 0.51945943 -0.36738679 1.041019e-38
1.3701469 0.14481908 -0.41203955 1.3280219e-38
1.3925747 0.14888807 -0.40214533 1.3380307e-38
1.2852221 0.17645347 -0.38579652 1.2549166e-38
1.3090391 0.16995555 -0.38760111 1.3655504e-38
1.3452469 0.1649321 -0.40725848 1.4207953e-38
1.3662591 0.1584813 -0.40793011 1.411504e-38
1.394304 0.16203547 -0.40080041 1.3839533e-38
1.2311008 0.20497829 -0.36778262 1.1534302e-38
1.2491177 0.19361265 -0.37316388 1.2365496e-38
1.2688903 0.18212843 -0.37907609 1.2088192e-38
1.2099702 0.23562935 -0.34942639 9.226868e-39
1.216426 0.22313334 -0.36370349 1.0058432e-38
1.1990098 0.25623816 -0.35973573 1.1626125e-38
1.2091298 0.24101286 -0.36847436 1.1902705e-38
1.1775731 0.29367948 -0.34683797 9.9658763e-39
1.1817282 0.28292409 -0.35704657 1.0335018e-38
1.1768774 0.31009197 -0.34455472 8.8584316e-39
1.1793675 0.3163096 -0.35975432 9.4116081e-39
1.1709888 0.35113531 -0.35682759 1.1625031e-38
1.1807144 0.34193802 -0.35459533 1.0978939e-38
1.1665807 0.37356931 -0.34998846 1.0886015e-38
1.1828793 0.36168805 -0.34630713 1.1258046e-38
1.172832 0.39679727 -0.34883094 9.9604295e-39
1.1867557 0.40615779 -0.3607502 9.4072529e-39
1.2091298 0.41713762 -0.36847436 9.2214295e-39
1.2088028 0.42043668 -0.35389665 7.0108672e-39
1.2176025 0.43650484 -0.36431625 6.9194325e-39
1.1174122 0.47598934 -0.34238601 1.3541613e-38
1.135341 0.46615973 -0.34053329 1.3359751e-38
1.1531473 0.45730853 -0.35273492 1.5856251e-38
1.2219744 0.46395347 -0.36504987 9.3136237e-39
1.1149889 0.49423018 -0.33889732 1.3630912e-38
1.236482 0.48331377 -0.35872078 1.7794862e-38
1.1200142 0.51564133 -0.33572143 1.2525284e-38
1.1267087 0.52535158 -0.34129012 1.1054478e-38
1.2966061 0.17686868 -0.35464513 1.2825751e-38
1.3119175 0.16971377 -0.35982645 1.3101977e-38
1.4085752 0.16620772 -0.38836926 1.3286001e-38
1.4197342 0.17297615 -0.39313033 1.3472193e-38
1.2400835 0.20471644 -0.3403644 1.1811248e-38
1.2553166 0.19314799 -0.34544876 1.1534657e-38
1.2806747 0.18275689 -0.35209191 1.218039e-38
1.2096394 0.23425069 -0.33194774 9.8740366e-39
1.2235001 0.21850368 -0.33678645 1.1258064e-38
1.2022982 0.25621146 -0.33056167 9.8733136e-39
1.1826298 0.29718164 -0.32747516 1.1164774e-38
1.1924952 0.28442812 -0.32760853 1.1256621e-38
1.178106 0.31421936 -0.32362995 1.0057342e-38
1.1798383 0.34130928 -0.32291928 9.0417354e-39
1.1864494 0.35434127 -0.33263719 9.9644176e-39
1.1788439 0.38125151 -0.32566637 1.1254802e-38
1.1883321 0.36929175 -0.32542947 1.0609795e-38
1.1774315 0.40256491 -0.32231626 9.962247e-39
1.2069069 0.42336881 -0.34136882 5.4413877e-39
1.2298542 0.44210029 -0.33962497 4.8907601e-39
1.1250706 0.47750273 -0.31042406 1.4186984e-38
1.142294 0.46805948 -0.31404325 1.3083174e-38
1.234688 0.4662672 -0.33885196 7.4711587e-39
1.1202778 0.4937849 -0.31020576 1.4183733e-38
1.2380527 0.48645836 -0.34281248 1.724205e-38
1.1241874 0.51663929 -0.31011137 1.3077015e-38
1.1333673 0.53006274 -0.31031528 1.151438e-38
1.2954676 0.17490058 -0.32282102 1.2456247e-38
1.3191222 0.16701256 -0.3317925 1.3654059e-38
1.2484666 0.20539002 -0.31141829 1.1533934e-38
1.263757 0.19169463 -0.31448564 1.1257347e-38
1.284019 0.18143363 -0.32444564 1.1720124e-38
1.2136413 0.2326538 -0.30386966 1.070344e-38
1.2340784 0.21807936 -0.30690324 1.1534289e-38
1.2036233 0.25488877 -0.30023542 9.0428256e-39
1.1917322 0.29327923 -0.29262212 8.9495538e-39
1.1955116 0.28070459 -0.30026531 9.1350241e-39
1.1822271 0.31433865 -0.29541832 9.7800221e-39
1.1802033 0.34423906 -0.29332814 8.7640639e-39
1.1893462 0.37488011 -0.2950938 8.9477279e-39
1.1922091 0.37600493 -0.31058303 1.0240284e-38
1.1895543 0.4049193 -0.29700461 9.8704101e-39
1.1988733 0.40689909 -0.2850658 1.070232e-38
1.1974176 0.42929173 -0.2945981 6.6406749e-39
1.2362458 0.4476521 -0.31609318 3.5989268e-39
1.1326457 0.47750276 -0.28141892 1.4278101e-38
1.150399 0.47222406 -0.28852549 1.3082807e-38
1.1837902 0.47543484 -0.28147936 1.4473296e-38
1.2450075 0.46609411 -0.31137824 4.8918377e-39
1.1293968 0.4941189 -0.27987647 1.4644351e-38
1.1414598 0.48211375 -0.2714141 1.4093e-38
1.2485583 0.48443833 -0.31248009 9.0348733e-39
1.2551136 0.49493182 -0.30980626 1.6043493e-38
1.1301051 0.51722431 -0.27943283 1.3814215e-38
1.1413531 0.53246021 -0.28290346 1.2250489e-38
1.3039536 0.1729106 -0.29174119 1.1439911e-38
1.3285861 0.16817909 -0.31077611 1.4115001e-38
1.2542893 0.20220956 -0.28116345 8.9520719e-39
1.2701833 0.1893079 -0.2860727 9.3197867e-39
1.2947196 0.18158449 -0.28787065 1.0610531e-38
1.2216547 0.23203097 -0.27214903 8.9499167e-39
1.2396059 0.21662663 -0.27799958 8.8588001e-39
1.200645 0.2641615 -0.25849524 9.1331996e-39
1.2060565 0.25208724 -0.26934102 8.8566309e-39
1.1951205 0.28513014 -0.2640723 8.2112573e-39
1.2009296 0.27307451 -0.27719191 7.749919e-39
1.1868546 0.31524566 -0.26440871 7.8417447e-39
1.1850922 0.34604329 -0.26299477 7.65628e-39
1.1877458 0.37481678 -0.2639876 7.56299e-39
1.1965261 0.40475816 -0.26827735 7.8413761e-39
1.2051567 0.4136807 -0.26100668 7.8428139e-39
1.1986625 0.42612413 -0.26608634 7.1023888e-39
1.2049162 0.43764839 -0.26654524 6.4591648e-39
1.1600429 0.47554094 -0.25566342 9.9568394e-39
1.1794841 0.47185624 -0.26572546 1.1342632e-38
1.2129824 0.45049539 -0.26270157 4.2417739e-39
1.2519573 0.47051865 -0.28317091 3.413451e-39
1.1371338 0.49425304 -0.2494894 1.1703138e-38
1.1488557 0.48185226 -0.25100979 1.0698007e-38
1.2570596 0.48431566 -0.27992865 4.2435886e-39
1.2636826 0.49441636 -0.28798816 8.4827631e-39
1.1378626 0.52000487 -0.24861535 1.1061004e-38
1.1474458 0.53471619 -0.26206228 1.1792769e-38
1.1519825 0.5417431 -0.26278192 1.1059188e-38
1.2986487 0.17727156 -0.26513001 1.1718291e-38
1.2564069 0.20177232 -0.24990848 8.6726166e-39
1.2791847 0.19043568 -0.25831193 1.0058068e-38
1.3005952 0.18251497 -0.26097551 1.042578e-38
1.2269611 0.22953609 -0.24288394 8.8584414e-39
1.2448939 0.21536005 -0.24925618 8.3049131e-39
1.2049921 0.26260531 -0.23465385 8.5807531e-39
1.2124631 0.24797685 -0.24033658 8.7644381e-39
1.1974198 0.28495011 -0.23439182 7.6570129e-39
1.1910084 0.3155776 -0.23296262 7.9332242e-39
1.1881977 0.34587711 -0.23241773 7.8406713e-39
1.1899917 0.37527841 -0.23276317 7.8403027e-39
1.1991191 0.40502089 -0.23456447 6.9183464e-39
1.1713634 0.44723365 -0.22023174 6.3662671e-39
1.2042929 0.42772627 -0.23463382 5.7190816e-39
1.2107391 0.43943784 -0.24021795 6.3658957e-39
1.1493353 0.46857968 -0.21197371 7.6577234e-39
1.1645887 0.46709639 -0.22909272 7.013077e-39
1.1941335 0.45851153 -0.23395929 6.0885914e-39
1.2114401 0.45211008 -0.23694761 6.459162e-39
1.2545774 0.47209856 -0.25833923 3.3194561e-39
1.1411823 0.49374744 -0.21930371 8.7629877e-39
1.1512493 0.48211375 -0.23393007 8.3045473e-39
1.2622827 0.48376355 -0.25992894 3.2294142e-39
1.2728046 0.49366483 -0.26185405 3.7782818e-39
1.1455851 0.52314693 -0.21883713 9.8657087e-39
1.1528573 0.53337705 -0.23370859 1.1433385e-38
1.1516595 0.54052848 -0.21652959 1.1247888e-38
1.1596485 0.5417431 -0.23342884 1.207477e-38
1.3344524 0.17861284 -0.24082509 1.0790924e-38
1.2646673 0.20386285 -0.22122237 9.1350367e-39
1.2862211 0.19217014 -0.22727115 1.0333929e-38
1.316247 0.18396035 -0.2365291 1.1716156e-38
1.3399291 0.18398166 -0.23172659 1.4667825e-38
1.2327754 0.22872293 -0.21333273 9.0424711e-39
1.2521366 0.21454599 -0.2199132 9.6889167e-39
1.209093 0.2586638 -0.20873457 8.5796825e-39
1.2204623 0.24392875 -0.20892036 9.1328562e-39
1.1998705 0.28513774 -0.20390654 8.3949297e-39
1.1866105 0.32266089 -0.1935107 8.4881903e-39
1.1918013 0.31218624 -0.20307341 8.3038004e-39
1.1855108 0.34748909 -0.19634555 8.6722172e-39
1.1886282 0.34166941 -0.20557053 7.657352e-39
1.1853819 0.36484921 -0.19821538 7.842095e-39
1.1916234 0.37987188 -0.2025822 8.3012711e-39
1.1988229 0.40483215 -0.20328306 6.6431931e-39
1.1544945 0.44837555 -0.18456775 8.4907294e-39
1.1718112 0.44360414 -0.19758067 8.2137908e-39
1.2099987 0.43410954 -0.20888466 5.075873e-39
1.2160097 0.44578058 -0.21945009 5.6283405e-39
1.1414853 0.46411023 -0.18918434 8.30309e-39
1.1594071 0.45198166 -0.20269336 8.2112853e-39
1.2105057 0.45027524 -0.22073777 7.1942019e-39
1.13774 0.49425751 -0.18883148 8.9459216e-39
1.1464361 0.52372789 -0.19036086 1.0051538e-38
1.1567183 0.54195839 -0.19715969 1.253646e-38
1.1662869 0.54546237 -0.18426497 1.1887869e-38
1.3510783 0.17940551 -0.20090887 1.364965e-38
1.2754309 0.20496514 -0.19771162 1.0057701e-38
1.294907 0.19622228 -0.19795331 1.0701641e-38
1.3267647 0.18927273 -0.2033446 1.2544819e-38
1.3487968 0.1836428 -0.21228315 1.2637722e-38
1.2394003 0.23005942 -0.18331441 9.0428354e-39
1.2632558 0.21511121 -0.19062261 9.4130571e-39
1.2124445 0.25753114 -0.1775994 8.5814873e-39
1.2266363 0.24368326 -0.18363203 8.3967373e-39
1.1946061 0.29289064 -0.16131158 8.1197707e-39
1.2025319 0.28348565 -0.17573372 8.1186973e-39
1.1904821 0.31776312 -0.16903304 7.747747e-39
1.1960055 0.3059409 -0.17908315 7.5647921e-39
1.1885765 0.34585607 -0.17015383 7.1956592e-39
1.1895533 0.37496936 -0.17009403 7.65518e-39
1.1928413 0.39314315 -0.16965209 6.1807786e-39
1.2006574 0.40723461 -0.17431964 6.0896564e-39
1.1606125 0.44480985 -0.16141964 8.4864008e-39
1.1774226 0.4367677 -0.16741319 7.1041852e-39
1.2072047 0.43096122 -0.17785375 4.6141746e-39
1.1321996 0.47190461 -0.16836105 6.6446462e-39
1.1489542 0.46402773 -0.16008158 8.2101769e-39
1.1319789 0.49476555 -0.15986699 7.1012888e-39
1.1416247 0.49227294 -0.15748292 9.2232288e-39
1.1463516 0.52451295 -0.15853722 9.1281297e-39
1.1578407 0.54383427 -0.16647887 1.0507812e-38
1.1697276 0.54711193 -0.17900652 1.1890379e-38
1.3506079 0.17900917 -0.19083749 1.1529119e-38
1.2848623 0.20760733 -0.16852506 1.125228e-38
1.3004448 0.20250753 -0.17037423 1.098038e-38
1.3355913 0.19125184 -0.17530333 1.0793105e-38
1.3542796 0.18435375 -0.18785872 1.1071113e-38
1.2462124 0.22971979 -0.15547843 8.39675e-39
1.2729813 0.21500807 -0.16138427 9.7803963e-39
1.2178524 0.25984508 -0.14778832 8.8584274e-39
1.2347292 0.24403103 -0.15264429 8.8577127e-39
1.1975454 0.28874493 -0.14064696 7.2885849e-39
1.2067722 0.27526543 -0.14796986 8.0272276e-39
1.1889606 0.31422979 -0.13915294 7.2874919e-39
1.1870174 0.34471416 -0.13951473 7.5640732e-39
1.1914221 0.37467262 -0.1398294 7.1945676e-39
1.1698797 0.4122465 -0.12763681 6.643926e-39
1.1923724 0.40271315 -0.14062065 5.166991e-39
1.204421 0.41064221 -0.15565343 5.5375532e-39
1.1430285 0.44306144 -0.11502427 5.8109129e-39
1.1603537 0.43567225 -0.13131788 5.4435793e-39
1.1792145 0.42927065 -0.14927626 4.5223419e-39
1.2048854 0.42044035 -0.159152 4.7092443e-39
1.1419667 0.46424332 -0.11750763 6.732502e-39
1.1505253 0.46471092 -0.13564327 7.1012916e-39
1.1447507 0.48386547 -0.11502615 8.8511756e-39
1.1514982 0.49498725 -0.13133781 8.2987515e-39
1.1596457 0.52201706 -0.13325943 9.3125321e-39
1.1795299 0.53807336 -0.12564285 1.0228379e-38
1.1804527 0.54545993 -0.1300243 1.1429416e-38
1.3643006 0.17940551 -0.1502804 4.0419081e-39
1.3062986 0.20523688 -0.13987108 1.0701267e-38
1.3396472 0.19202593 -0.14757977 1.0242085e-38
1.3597783 0.18411744 -0.15968128 9.1371442e-39
1.2551267 0.23255551 -0.12837343 9.4112536e-39
1.2807575 0.21828102 -0.13194832 9.0421194e-39
1.2081034 0.26795229 -0.11121311 5.3579025e-39
1.224407 0.25829744 -0.11884283 8.7644339e-39
1.2436364 0.24264462 -0.12158279 8.9499181e-39
1.198204 0.28594813 -0.1110651 7.935748e-39
1.209806 0.27348259 -0.12448123 8.1215798e-39
1.1808231 0.32110211 -0.095627598 7.8420908e-39
1.1869392 0.3133612 -0.11126242 7.380405e-39
1.1792033 0.34585094 -0.096555166 5.9041903e-39
1.1866729 0.34475058 -0.11365643 7.6548171e-39
1.1783528 0.37318805 -0.097802535 5.1659092e-39
1.1877203 0.37652719 -0.11393248 6.0896508e-39
1.1535687 0.41448256 -0.086538486 5.9049162e-39
1.1675583 0.40632644 -0.10237493 6.08859e-39
1.1861787 0.39460608 -0.11479672 4.522695e-39
1.1491542 0.43913627 -0.094043344 7.9324984e-39
1.1577289 0.42977345 -0.10486033 8.1176099e-39
1.1459583 0.46486866 -0.097489804 8.9455615e-39
1.1468583 0.4921945 -0.095440499 8.2980257e-39
1.1557119 0.50441265 -0.10779282 9.405797e-39
1.166778 0.52205354 -0.10620412 1.0325588e-38
1.1846437 0.53990829 -0.12189219 1.0786558e-38
1.2989383 0.20780917 -0.11957496 8.3042194e-39
1.3206563 0.20366056 -0.1116076 1.0425034e-38
1.3446344 0.19148108 -0.11991856 1.0701992e-38
1.3760239 0.18235412 -0.11924283 6.4519677e-39
1.2672269 0.23299067 -0.099026024 9.9644176e-39
1.2920723 0.21978793 -0.10502401 9.6881978e-39
1.3136317 0.21242692 -0.098931 8.7640919e-39
1.2337102 0.25959459 -0.090994909 8.8566407e-39
1.251961 0.24417177 -0.09391281 9.4094459e-39
1.2046345 0.28637719 -0.082903519 8.3027382e-39
1.2252712 0.27276087 -0.078456365 7.5644726e-39
1.1827557 0.31676421 -0.074788399 7.4726062e-39
1.1926581 0.30355671 -0.083289936 8.3038018e-39
1.1742821 0.3439371 -0.073883176 6.6413938e-39
1.159953 0.38253504 -0.062092736 6.3615587e-39
1.1770647 0.37601799 -0.074401699 5.2584538e-39
1.1893194 0.37880367 -0.088158801 6.0024676e-39
1.1530795 0.41146266 -0.065746717 7.6573492e-39
1.1671265 0.39918542 -0.074200258 6.2726155e-39
1.1459081 0.43442675 -0.066874228 7.6544583e-39
1.1439205 0.46412972 -0.066493116 7.8384895e-39
1.1519259 0.49480361 -0.068518609 9.220698e-39
1.1562068 0.5157541 -0.076436937 1.078691e-38
1.1673087 0.52205133 -0.067847691 1.0694368e-38
1.3305401 0.20401916 -0.089152887 9.6860412e-39
1.3564795 0.19574527 -0.090465896 1.1531378e-38
1.3800658 0.18256238 -0.10970227 1.6048575e-38
1.2770743 0.23484664 -0.070368387 9.5019947e-39
1.2988135 0.22514474 -0.074646831 1.033284e-38
1.3224765 0.21468912 -0.081553325 9.8722304e-39
1.2446719 0.26312953 -0.063637204 8.7644311e-39
1.2643617 0.24907033 -0.065969348 9.2254064e-39
1.2137637 0.28948259 -0.054713704 9.134294e-39
1.2324498 0.27590537 -0.054486491 9.4112466e-39
1.1880996 0.31894431 -0.047912341 8.486768e-39
1.2019986 0.3048093 -0.049107712 9.4101452e-39
1.1668853 0.35594371 -0.030272543 7.934285e-39
1.1744463 0.34372059 -0.043797664 7.748463e-39
1.1631132 0.3811065 -0.037241396 7.1023762e-39
1.1743371 0.3704074 -0.045775354 5.6275992e-39
1.1576431 0.40595147 -0.037741911 7.2867674e-39
1.1663599 0.40022385 -0.053390324 5.4399878e-39
1.1390465 0.43134704 -0.023985993 8.2079894e-39
1.1447073 0.43512851 -0.03709393 8.2069104e-39
1.1408828 0.45173943 -0.020346325 8.2018672e-39
1.145951 0.46388736 -0.036639992 8.7604444e-39
1.1538124 0.49248028 -0.040327553 9.4965647e-39
1.1742362 0.50588256 -0.031146841 1.207875e-38
1.1822172 0.52261347 -0.046097945 1.1154269e-38
1.3416308 0.20766239 -0.070870385 8.8616966e-39
1.3640234 0.20187327 -0.064976208 1.1899077e-38
1.3878609 0.19172354 -0.079854153 1.2168825e-38
1.2819117 0.23929539 -0.054174043 7.747768e-39
1.3086253 0.23270981 -0.047431856 1.033212e-38
1.3333728 0.22116697 -0.053604662 1.0886361e-38
1.356609 0.21355352 -0.053093523 1.0146655e-38
1.2562288 0.26476961 -0.041141197 1.0516491e-38
1.2750812 0.25430772 -0.038605552 9.133215e-39
1.2969284 0.24327181 -0.03794517 1.0147721e-38
1.2230623 0.29504585 -0.02879345 9.5016304e-39
1.2468386 0.28035387 -0.029563393 9.7778543e-39
1.1974572 0.32490987 -0.022041706 9.5931029e-39
1.214303 0.31166786 -0.020732421 9.3165118e-39
1.1718756 0.356756 -0.015002182 8.1150792e-39
1.1869729 0.34376869 -0.014118834 9.7778487e-39
1.1679735 0.37626404 -0.0091891158 7.8399398e-39
1.1757584 0.36617342 -0.017403804 8.1161568e-39
1.1569678 0.40491769 -0.0075028203 7.9314166e-39
1.1432301 0.43367788 -0.0043236134 9.1295968e-39
1.148845 0.43109027 -0.0056900582 9.0366795e-39
1.1419113 0.45580918 -0.01640868 7.4668455e-39
1.150978 0.46477902 -0.0061566248 9.9579001e-39
1.1656828 0.48896769 -0.0091194976 1.0786217e-38
1.1805712 0.50387341 -0.010847209 1.0786213e-38
1.1928563 0.52048159 -0.018603168 9.6798671e-39
1.2065595 0.53786176 -0.032699484 1.0229061e-38
1.3775443 0.20722571 -0.046144713 1.1809762e-38
1.4001551 0.20351705 -0.045443505 1.2727026e-38
1.4212168 0.20461282 -0.047112577 1.3647907e-38
1.3196405 0.23804036 -0.03041175 9.411269e-39
1.3429894 0.2340875 -0.026093924 1.1069322e-38
1.3703303 0.22232553 -0.031459793 1.1529213e-38
1.4008598 0.21510367 -0.031070964 1.254732e-38
1.2829319 0.26203337 -0.01295488 1.0331392e-38
1.3127913 0.25120622 -0.014912346 1.0884928e-38
1.3356658 0.24255413 -0.014562023 1.0608e-38
1.2352978 0.29870093 -0.0070854332 9.0439088e-39
1.2577382 0.28681877 -0.00426726 9.8689681e-39
1.2743133 0.27474707 -0.00072761026 1.0333911e-38
1.2282516 0.31643793 0.0043297792 9.4087159e-39
1.2491913 0.30332354 0.0078576133 9.0402893e-39
1.1770883 0.35851744 0.011433625 9.314372e-39
1.2025639 0.34751931 0.0091751078 1.0605447e-38
1.2202072 0.33725539 0.014281448 9.7764194e-39
1.1732461 0.37744892 0.016706107 9.775332e-39
1.1913705 0.36737558 0.022588503 1.1527761e-38
1.1624517 0.40330678 0.022092264 8.8537316e-39
1.1488826 0.43484089 0.01925534 1.0603644e-38
1.1578815 0.43030652 0.02684618 1.0602919e-38
1.1491098 0.45173943 0.011154886 8.3898724e-39
1.1629438 0.46414098 0.022570984 1.2077322e-38
1.1756973 0.48766702 0.01902076 1.1985841e-38
1.1842388 0.50325143 0.011901738 1.1523422e-38
1.1853229 0.5130716 0.0033890195 1.0966643e-38
1.4286726 0.2091376 -0.03043709 1.1810079e-38
1.3821924 0.23396017 -0.011668824 1.0327815e-38
1.4075485 0.22614595 -0.012385304 1.2634831e-38
1.4294478 0.21800736 -0.019553173 1.3279469e-38
1.3037567 0.26797065 0.0096834889 1.1160799e-38
1.3202149 0.26074255 0.012274723 1.1068607e-38
1.3441315 0.25061888 0.0051328274 1.1529936e-38
1.3769234 0.24597226 0.0018257612 1.1897639e-38
1.3983914 0.24311192 0.0039982055 1.1524151e-38
1.2680604 0.29336536 0.02041644 9.6853154e-39
1.2909689 0.28079769 0.021068156 1.1068609e-38
1.2431353 0.32415241 0.02851128 9.8682479e-39
1.2579298 0.31099659 0.029963464 9.5938246e-39
1.2136919 0.35583165 0.030887594 1.0511101e-38
1.233284 0.34430775 0.036210239 1.0328492e-38
1.1844531 0.38653454 0.036995377 1.3001089e-38
1.2029725 0.37481424 0.041921616 1.1157182e-38
1.2262443 0.36343122 0.047950383 1.0692964e-38
1.175801 0.40528798 0.046781138 1.1157179e-38
1.1966912 0.3953211 0.054834154 1.0511081e-38
1.1717206 0.43363035 0.049373653 1.1801457e-38
1.179637 0.46154329 0.045655951 1.3274429e-38
1.1980751 0.46681103 0.052217342 1.180179e-38
1.1781982 0.48145324 0.035470791 1.502579e-38
1.4363654 0.232962 0.0041062203 1.3924473e-38
1.3295064 0.26256764 0.03382957 9.6798909e-39
1.3739583 0.2481688 0.013337601 1.1436661e-38
1.415786 0.24598898 0.0072837085 1.1896905e-38
1.4480858 0.25201437 0.016523894 1.2632676e-38
1.3041912 0.28842586 0.049451634 1.2072622e-38
1.3214471 0.27621531 0.044001941 1.1245374e-38
1.2769699 0.32193008 0.049792197 1.2172763e-38
1.2917172 0.30964756 0.053725768 1.1888958e-38
1.2477026 0.34887752 0.052284744 9.406541e-39
1.2704858 0.34350181 0.058631916 1.1435571e-38
1.2902677 0.33456147 0.064884685 1.6492577e-38
1.2183186 0.38238594 0.057177316 1.1894733e-38
1.2416468 0.37474126 0.062452599 1.1433043e-38
1.2656106 0.3651523 0.067033827 1.1803627e-38
1.2099514 0.40531525 0.066033743 1.2907803e-38
1.237072 0.39902154 0.073100358 1.382867e-38
1.1883348 0.43820003 0.063731037 1.4014137e-38
1.2069147 0.42660218 0.070235066 1.3920866e-38
1.2636021 0.23720367 0.10129233 9.5808275e-39
1.2755828 0.23340185 0.098884866 8.0034391e-39
1.2617013 0.24913152 0.099290565 5.7107621e-39
1.2802474 0.25893971 0.092737921 5.800071e-39
1.3067156 0.26321486 0.078083307 1.243959e-38
1.3235909 0.26935416 0.059904564 1.4005848e-38
1.4583545 0.2626034 0.031203315 1.2911055e-38
1.4682978 0.25719196 0.030267261 1.3092934e-38
1.2889152 0.28183511 0.093495809 6.8156453e-39
1.300064 0.28547284 0.076441735 1.2068644e-38
1.4636325 0.27759117 0.040105898 1.1801842e-38
1.4750917 0.27280182 0.044409033 1.3741878e-38
1.2893704 0.31713939 0.084989592 1.4646861e-38
1.2942114 0.30881381 0.070672877 1.4557924e-38
1.2881017 0.34263122 0.080995373 1.4742309e-38
1.2948717 0.34660265 0.081824437 1.6671553e-38
1.2824862 0.3751753 0.081996739 1.2724487e-38
1.2966653 0.36530492 0.089381196 1.584538e-38
1.2496432 0.4019289 0.07950335 1.4382566e-38
1.2799804 0.39209691 0.084855914 1.3738636e-38
1.2584034 0.23733699 0.10776911 1.123855e-38
1.2729286 0.22909503 0.10455266 8.8464855e-39
1.261972 0.25513875 0.10722727 8.8443233e-39
1.2731029 0.26996696 0.10205391 4.5133049e-39
1.2655447 0.27563944 0.10873001 6.9064102e-39
1.2816299 0.28901589 0.10436403 6.9071262e-39
1.2850788 0.31511971 0.10544297 1.2526717e-38
1.290027 0.3372134 0.10529628 1.5564491e-38
1.3040053 0.3533127 0.10391726 1.5748514e-38
1.3051395 0.3669174 0.097094938 1.5933627e-38
