# .PCD v0.7 - Point Cloud Data file format
VERSION 0.7
FIELDS x y z rgb
SIZE 4 4 4 4
TYPE F F F F
COUNT 1 1 1 1
WIDTH 931
HEIGHT 1
VIEWPOINT 0 0 0 1 0 0 0
POINTS 931
DATA ascii
4.4336905 0.068154134 -1.424031 7.6479045e-39
4.4978523 0.077713758 -1.4265537 6.723786e-39
4.5640349 0.070033029 -1.4292258 8.0120151e-39
4.4978523 0.10361835 -1.4265537 6.2667665e-39
4.4978523 0.12952293 -1.4265537 5.7114403e-39
4.5680923 0.052524772 -1.4121943 1.290591e-38
4.6363568 0.035508256 -1.414755 1.3821032e-38
4.5038557 0.086348616 -1.4013543 5.8040045e-39
4.5680923 0.070033029 -1.4121943 8.2007349e-39
4.5038557 0.10361835 -1.4013543 6.2653344e-39
4.5038557 0.12952293 -1.4013543 5.1597113e-39
4.5018544 0.15542752 -1.409754 4.3313589e-39
4.5680923 0.15757431 -1.4121943 3.5923701e-39
4.6342998 0.35508254 -1.4233904 6.7267007e-39
4.6342998 0.37283671 -1.4233904 4.8827712e-39
4.6322427 0.39946789 -1.4320258 4.3299548e-39
4.6322427 0.43497613 -1.4320258 3.8696773e-39
4.6322427 0.46160731 -1.4320258 3.1346514e-39
4.6322427 0.49711555 -1.4320258 6.3417051e-39
4.7001324 0.49210033 -1.4404778 4.3281639e-39
4.5138607 0.051809173 -1.3593552 4.5922036e-39
4.5741782 0.043770641 -1.3866467 1.1981084e-38
4.5125265 0.080592044 -1.3649551 3.5916653e-39
4.5721493 0.070033029 -1.3951626 7.6457296e-39
4.5118599 0.10361835 -1.3677551 4.7898497e-39
4.5118599 0.12088807 -1.3677551 4.6990904e-39
4.5741782 0.14006606 -1.3866467 4.2384696e-39
4.5741782 0.15757431 -1.3866467 3.3186629e-39
4.5741782 0.38518167 -1.3866467 3.3172532e-39
4.640471 0.37283671 -1.3974842 3.5920338e-39
4.7056952 0.36007339 -1.4171264 8.5781522e-39
4.5741782 0.4026899 -1.3866467 3.0388418e-39
4.5741782 0.42895228 -1.3866467 4.4210588e-39
4.5721493 0.45521468 -1.3951626 4.2392095e-39
4.640471 0.46160731 -1.3974842 5.3441151e-39
4.7056952 0.48609909 -1.4171264 5.2511894e-39
4.7098675 0.52210647 -1.3996129 1.0410542e-38
4.7752075 0.51748627 -1.431713 6.4457796e-39
4.582293 0.017508257 -1.3525834 1.4372765e-38
4.5198641 0.051809173 -1.3341558 3.8646382e-39
4.582293 0.035016514 -1.3525834 9.3142333e-39
4.5198641 0.077713758 -1.3341558 4.2377648e-39
4.5198641 0.10361835 -1.3341558 4.6980297e-39
4.5205307 0.12664466 -1.3313559 3.685677e-39
4.5802641 0.14006606 -1.3610992 3.9593772e-39
4.582293 0.15757431 -1.3525834 2.1212184e-39
4.6466427 0.35508254 -1.371578 1.1247844e-38
4.582293 0.37642753 -1.3525834 4.0533763e-39
4.582293 0.4026899 -1.3525834 3.9615212e-39
4.582293 0.42895228 -1.3525834 4.5143433e-39
4.5843215 0.45521468 -1.3440676 4.236669e-39
4.645957 0.47344339 -1.3744564 4.0530232e-39
4.6486998 0.49711555 -1.3629426 7.9179893e-39
4.5904074 0.0087541286 -1.3185202 1.4005774e-38
4.525867 0.043174312 -1.3089564 6.267491e-39
4.525867 0.077713758 -1.3089564 5.2519293e-39
4.525867 0.10361835 -1.3089564 5.3448522e-39
4.525867 0.12952293 -1.3089564 5.8036471e-39
4.5904074 0.16632843 -1.3185202 6.8184969e-39
4.5883789 0.34141099 -1.327036 1.1613002e-38
4.5883789 0.37642753 -1.327036 4.2334474e-39
4.525867 0.39720365 -1.3089564 4.1459167e-39
4.5904074 0.42895228 -1.3185202 3.7774887e-39
4.5904074 0.46396881 -1.3185202 4.5114748e-39
4.5904074 0.49023116 -1.3185202 8.9396943e-39
4.4731755 0.0085192667 -1.2582839 1.3912877e-38
4.5298691 0.017269725 -1.2921568 1.4098339e-38
4.4134431 0.033622019 -1.2414814 8.7568038e-39
4.4731755 0.051115599 -1.2582839 4.3313687e-39
4.5298691 0.043174312 -1.2921568 6.3586188e-39
4.4731755 0.076673396 -1.2582839 5.2537076e-39
4.5298691 0.077713758 -1.2921568 5.5281505e-39
4.5318699 0.10361835 -1.283757 5.2526468e-39
4.5298691 0.12952293 -1.2921568 4.9764074e-39
4.5964937 0.13131192 -1.2929727 5.0675212e-39
4.5964937 0.16632843 -1.2929727 5.8875667e-39
4.5318699 0.32812476 -1.283757 1.2440246e-38
4.5318699 0.34539446 -1.283757 7.55932e-39
4.5318699 0.37129909 -1.283757 3.4090775e-39
4.5318699 0.39720365 -1.283757 3.9611849e-39
4.5964937 0.42895228 -1.2929727 3.9618827e-39
4.5964937 0.46396881 -1.2929727 4.6958647e-39
4.5964937 0.49023116 -1.2929727 8.9407845e-39
4.4173388 0.016811009 -1.2251281 1.3821399e-38
4.4810724 0.0085192667 -1.2251345 1.4188012e-38
4.4173388 0.033622019 -1.2251281 8.3869759e-39
4.4797564 0.045436088 -1.2306594 5.8076072e-39
4.4790983 0.068154134 -1.2334218 5.4370212e-39
4.5398741 0.086348616 -1.2501578 4.976413e-39
4.5398741 0.10361835 -1.2501578 4.7927406e-39
4.5418754 0.12952293 -1.241758 5.2504706e-39
4.6005507 0.13131192 -1.275941 4.9760361e-39
4.5418754 0.16406238 -1.241758 5.8904548e-39
4.6005507 0.16632843 -1.275941 6.255266e-39
4.5378733 0.32812476 -1.2585576 1.3084162e-38
4.5398741 0.34539446 -1.2501578 8.6703521e-39
4.5398741 0.37129909 -1.2501578 4.2384654e-39
4.5418754 0.40583852 -1.241758 4.0558748e-39
4.6005507 0.4026899 -1.275941 4.422149e-39
4.5418754 0.43174312 -1.241758 3.7792936e-39
4.6005507 0.42895228 -1.275941 4.0555203e-39
4.5418754 0.46628255 -1.241758 5.1518093e-39
4.6019034 0.46105075 -1.2702638 4.4203484e-39
4.4850206 0.017038533 -1.2085598 1.4279856e-38
4.5498791 0.017269725 -1.2081587 1.4186587e-38
4.5478783 0.043174312 -1.2165586 7.0065175e-39
4.5478783 0.077713758 -1.2165586 5.621774e-39
4.5478783 0.10361835 -1.2165586 5.0682485e-39
4.5478783 0.12952293 -1.2165586 5.2519139e-39
4.5472112 0.16118409 -1.2193586 4.976413e-39
4.6127229 0.17508256 -1.2248461 3.6896427e-39
4.6127229 0.19259083 -1.2248461 6.9813124e-39
4.5458775 0.34539446 -1.2249584 1.0326254e-38
4.5478783 0.37129909 -1.2165586 4.8824153e-39
4.5478783 0.40583852 -1.2165586 4.4228623e-39
4.5478783 0.44037795 -1.2165586 4.2381109e-39
4.4850206 0.47707888 -1.2085598 9.3031406e-39
4.5478783 0.46628255 -1.2165586 5.3358321e-39
4.5538812 0.043174312 -1.1913592 8.2947256e-39
4.5538812 0.077713758 -1.1913592 6.4486466e-39
4.5538812 0.10361835 -1.1913592 5.1654678e-39
4.5538812 0.12952293 -1.1913592 5.0682499e-39
4.5538812 0.15542752 -1.1913592 5.2508377e-39
4.6167803 0.17508256 -1.2078145 4.3339275e-39
4.6167803 0.19259083 -1.2078145 6.8926929e-39
4.492918 0.35780919 -1.1754104 6.8134747e-39
4.5538812 0.37993395 -1.1913592 4.6097941e-39
4.5538812 0.40583852 -1.1913592 4.4225106e-39
4.5538812 0.44037795 -1.1913592 3.9636806e-39
4.4889693 0.47707888 -1.191985 9.6755021e-39
4.5538812 0.46628255 -1.1913592 5.7053166e-39
4.5538812 0.48355228 -1.1913592 1.0315839e-38
4.4988403 0.042596333 -1.1505482 9.4907479e-39
4.5598845 0.077713758 -1.1661597 7.002905e-39
4.5598845 0.10361835 -1.1661597 6.6355518e-39
4.5598845 0.12952293 -1.1661597 5.6210594e-39
4.5605516 0.16118409 -1.1633598 4.9738851e-39
4.6208377 0.17508256 -1.1907828 5.1593637e-39
4.6228662 0.19259083 -1.182267 5.4247935e-39
4.6228662 0.21009909 -1.182267 1.0228225e-38
4.3825507 0.31522566 -1.1122466 1.3358613e-38
4.4994988 0.35212967 -1.1477858 8.4755001e-39
4.5008149 0.37484774 -1.1422609 4.7931134e-39
4.5578833 0.37993395 -1.1745596 4.4257602e-39
4.5008149 0.40040553 -1.1422609 4.6998135e-39
4.5578833 0.40583852 -1.1745596 4.9749627e-39
4.5598845 0.44037795 -1.1661597 4.1477243e-39
4.5598845 0.46628255 -1.1661597 6.1652298e-39
4.5598845 0.48355228 -1.1661597 1.0777545e-38
4.5060792 0.045436088 -1.1201613 9.9520735e-39
4.5698895 0.03453945 -1.1241608 1.2534277e-38
4.5678887 0.077713758 -1.1325605 7.4646006e-39
4.5678887 0.10361835 -1.1325605 7.5571354e-39
4.5678887 0.12952293 -1.1325605 5.6224887e-39
4.5678887 0.16406238 -1.1325605 4.1473558e-39
4.5685554 0.19572355 -1.1297606 4.3274339e-39
4.628952 0.21009909 -1.1567194 8.1977558e-39
4.3863955 0.29863486 -1.0961075 1.3173523e-38
4.4446092 0.31940916 -1.1106544 1.3357531e-38
4.5087118 0.31521285 -1.1091115 1.3176017e-38
4.5067377 0.34928989 -1.1173989 8.7553198e-39
4.5067377 0.37484774 -1.1173989 5.2529999e-39
4.5067377 0.40040553 -1.1173989 4.6076249e-39
4.5067377 0.42596331 -1.1173989 4.607262e-39
4.5678887 0.44901282 -1.1325605 4.4239427e-39
4.5678887 0.46628255 -1.1325605 6.7147994e-39
4.5658875 0.48355228 -1.1409603 1.11481e-38
4.5738916 0.051809173 -1.1073611 9.9513309e-39
4.5738916 0.077713758 -1.1073611 7.7401127e-39
4.5738916 0.10361835 -1.1073611 7.7408106e-39
4.5738916 0.12952293 -1.1073611 5.897635e-39
4.5738916 0.16406238 -1.1073611 4.4232266e-39
4.5738916 0.19860184 -1.1073611 5.4333891e-39
4.51266 0.32373211 -1.0925368 1.0871484e-38
4.5738916 0.31085503 -1.1073611 1.3357529e-38
4.51266 0.34928989 -1.0925368 7.3727609e-39
4.51266 0.37484774 -1.0925368 5.4366611e-39
4.51266 0.40040553 -1.0925368 4.2391815e-39
4.4524007 0.42027521 -1.0779476 4.9763906e-39
4.51266 0.44300184 -1.0925368 4.7923847e-39
4.5738916 0.46628255 -1.1073611 7.3576479e-39
4.6411242 0.052524772 -1.1056246 1.0136126e-38
4.5205574 0.085192658 -1.0593873 6.1717122e-39
4.5792279 0.074835472 -1.0849617 6.9103675e-39
4.5205574 0.1022312 -1.0593873 5.7118201e-39
4.5778937 0.10361835 -1.0905615 7.3716693e-39
4.5798945 0.12952293 -1.0821617 5.527419e-39
4.5205574 0.16186605 -1.0593873 3.5016473e-39
4.5778937 0.16406238 -1.0905615 4.1462838e-39
4.5798945 0.19860184 -1.0821617 5.336897e-39
4.5205574 0.28965506 -1.0593873 1.2436301e-38
4.5192409 0.31805262 -1.0649122 7.2770004e-39
4.5778937 0.31085503 -1.0905615 1.0968379e-38
4.4601922 0.35303119 -1.0452409 5.3433865e-39
4.5179248 0.34645012 -1.0704372 6.4490152e-39
4.4582443 0.38665321 -1.0534176 4.8820342e-39
4.5185828 0.37484774 -1.0676748 5.2501104e-39
4.4582443 0.4034642 -1.0534176 4.6994254e-39
4.4582443 0.42027521 -1.0534176 5.0675114e-39
4.5185828 0.44300184 -1.0676748 4.885302e-39
4.5798945 0.46628255 -1.0821617 8.4697352e-39
4.5264797 0.085192658 -1.0345253 8.9408167e-39
4.5858979 0.0690789 -1.0569623 1.0231904e-38
4.4679837 0.10086605 -1.0125341 7.8326699e-39
4.5258217 0.11359021 -1.0372877 7.0954594e-39
4.5264797 0.13630827 -1.0345253 6.1738688e-39
4.5264797 0.16186605 -1.0345253 4.9760543e-39
4.5878987 0.19860184 -1.0485625 4.8762846e-39
4.6532965 0.22760734 -1.0545297 1.0964004e-38
4.5245056 0.28965506 -1.0428126 1.2713973e-38
4.5899 0.2935853 -1.0401627 1.3264269e-38
4.4666853 0.31380549 -1.0179852 8.0166758e-39
4.5245056 0.30669358 -1.0428126 9.5840449e-39
4.4094639 0.34840736 -0.99927235 6.2656931e-39
4.4660358 0.34462565 -1.0207108 6.4504389e-39
4.5245056 0.34077063 -1.0428126 6.7270258e-39
4.4075413 0.381589 -1.007342 4.7005296e-39
4.4660358 0.3698422 -1.0207108 5.5284882e-39
4.4056191 0.3981798 -1.0154115 3.8722137e-39
4.4679837 0.4034642 -1.0125341 5.2529859e-39
4.4660358 0.42027521 -1.0207108 4.9781913e-39
4.5264797 0.44300184 -1.0345253 5.7099956e-39
4.5878987 0.46628255 -1.0485625 9.8591534e-39
4.4738274 0.084055036 -0.98800403 1.0321574e-38
4.4718795 0.10086605 -0.99618071 7.924155e-39
4.5350351 0.11359021 -0.99861342 7.3706225e-39
4.5363512 0.13630827 -0.99308854 6.4483019e-39
4.5939021 0.1381578 -1.0233631 6.4486578e-39
4.5343771 0.16186605 -1.0013759 5.251558e-39
4.5363512 0.18742387 -0.99308854 4.6987219e-39
4.5952358 0.20148014 -1.0177633 3.594545e-39
4.5959029 0.22450641 -1.0149633 7.6367081e-39
4.4171534 0.29863486 -0.96699399 9.2144875e-39
4.4171534 0.31522566 -0.96699399 6.2635547e-39
4.4718795 0.31940916 -0.99618071 6.7230447e-39
4.5324025 0.30669358 -1.0096632 9.7691242e-39
4.4152308 0.34840736 -0.97506356 6.6351945e-39
4.4738274 0.33622015 -0.98800403 7.002891e-39
4.4145904 0.37605873 -0.9777534 5.5288399e-39
4.4757752 0.3698422 -0.97982734 6.2649882e-39
4.4738274 0.4034642 -0.98800403 5.1597225e-39
4.4744768 0.42587888 -0.98527849 5.7103599e-39
4.5324025 0.44300184 -1.0096632 6.9942422e-39
4.5363512 0.46004036 -0.99308854 1.1061259e-38
4.5939021 0.46628255 -1.0233631 1.1149524e-38
4.4816189 0.084055036 -0.95529729 9.6743992e-39
4.4816189 0.10086605 -0.95529729 7.7401281e-39
4.542274 0.11926972 -0.96822643 7.4628224e-39
4.542274 0.13630827 -0.96822643 6.7259762e-39
4.542274 0.16186605 -0.96822643 5.897635e-39
4.542274 0.19594313 -0.96822643 5.0671485e-39
4.542274 0.23002018 -0.96822643 6.813434e-39
4.3680763 0.29480365 -0.92272407 8.2053242e-39
4.4229202 0.29033944 -0.9427852 1.0413745e-38
4.4229202 0.31522566 -0.9427852 6.265005e-39
4.4229202 0.34011191 -0.9427852 7.0943734e-39
4.4235611 0.37605873 -0.94009531 5.7125361e-39
4.479671 0.3698422 -0.96347398 6.3575384e-39
4.4248428 0.40647522 -0.93471557 4.608341e-39
4.479671 0.4034642 -0.96347398 5.1579302e-39
4.4809694 0.43148255 -0.95802283 5.4316066e-39
4.4835668 0.45389724 -0.94712061 9.2158986e-39
4.6019063 0.46628255 -0.98976386 9.6761635e-39
4.5481968 0.085192658 -0.94336438 1.0505229e-38
4.60991 0.0690789 -0.95616466 1.2527803e-38
4.4874625 0.10927156 -0.93076718 8.6624221e-39
4.5481968 0.13630827 -0.94336438 7.2791346e-39
4.5481968 0.16186605 -0.94336438 6.4508074e-39
4.5481968 0.19594313 -0.94336438 5.3441025e-39
4.5481968 0.23002018 -0.94336438 3.9579297e-39
4.6079092 0.25904587 -0.96456444 1.2254059e-38
4.3737693 0.28661466 -0.89882588 9.4928792e-39
4.3756671 0.31118163 -0.89085978 7.2773325e-39
4.4286876 0.31522566 -0.91857636 6.5404919e-39
4.4306097 0.34011191 -0.91050678 7.1869165e-39
4.4306097 0.37329358 -0.91050678 6.3578845e-39
4.4306097 0.40647522 -0.91050678 5.1604189e-39
4.4325323 0.43136147 -0.90243721 4.6083171e-39
4.4874625 0.43708622 -0.93076718 4.6076053e-39
4.4874625 0.45389724 -0.93076718 8.3771752e-39
4.4939556 0.078451373 -0.90351158 1.1056626e-38
4.4933062 0.10927156 -0.90623713 7.8315867e-39
4.4933062 0.13448808 -0.90623713 7.2780612e-39
4.436377 0.16590825 -0.886298 6.6348385e-39
4.4926567 0.15690273 -0.90896267 6.7263195e-39
4.4939556 0.19052477 -0.90351158 5.5281421e-39
4.552145 0.20446239 -0.92678964 4.9767577e-39
4.495254 0.21854311 -0.89806044 4.3306835e-39
4.5534611 0.23285992 -0.92126477 3.8686095e-39
4.4933062 0.26897615 -0.90623713 1.2804002e-38
4.5560937 0.25557798 -0.91021496 6.6164619e-39
4.6139121 0.25904587 -0.93936503 8.5694544e-39
4.3794627 0.29480365 -0.87492764 6.9056745e-39
4.436377 0.28204402 -0.886298 1.041556e-38
4.436377 0.31522566 -0.886298 6.9100003e-39
4.436377 0.34011191 -0.886298 7.2791318e-39
4.436377 0.37329358 -0.886298 6.4500773e-39
4.3794627 0.39307153 -0.87492764 5.7139458e-39
4.436377 0.41477063 -0.886298 5.1618679e-39
4.436377 0.43965685 -0.886298 6.3567859e-39
4.4913583 0.45389724 -0.91441381 8.2863963e-39
4.5010977 0.084055036 -0.87353039 1.0414152e-38
4.4421439 0.11613578 -0.86208922 7.5546368e-39
4.5010977 0.10086605 -0.87353039 7.5532019e-39
4.4427848 0.14378716 -0.85939932 7.0940216e-39
4.4991498 0.13448808 -0.88170707 7.3709672e-39
4.4421439 0.16590825 -0.86208922 6.5426583e-39
4.4440665 0.1907945 -0.85401964 5.3451983e-39
4.4991498 0.19332659 -0.88170707 5.344834e-39
4.4440665 0.21568073 -0.85401964 4.5147272e-39
4.5004482 0.22975045 -0.87625593 3.7796663e-39
4.5620165 0.25557798 -0.88535291 3.4973257e-39
4.4421439 0.29863486 -0.86208922 7.0889727e-39
4.5010977 0.28578714 -0.87353039 1.005466e-38
4.5620165 0.27261654 -0.88535291 8.749873e-39
4.4421439 0.31522566 -0.86208922 7.0940216e-39
4.4421439 0.34011194 -0.86208922 7.1869417e-39
4.3851557 0.37669358 -0.85102946 6.5415499e-39
4.4421439 0.36499816 -0.86208922 6.9099877e-39
4.3851557 0.40126055 -0.85102946 5.9883915e-39
4.385788 0.43128681 -0.84837407 6.6337567e-39
4.4402218 0.44795227 -0.87015879 8.2850244e-39
4.451756 0.082954124 -0.82174122 1.1977136e-38
4.5069413 0.084055036 -0.84900028 1.0968756e-38
4.451756 0.09954495 -0.82174122 9.0326284e-39
4.5082397 0.11207338 -0.84354919 7.5525055e-39
4.4479113 0.14102203 -0.83788043 7.0021847e-39
4.5108371 0.13448808 -0.83264691 7.2762717e-39
4.5095387 0.1625064 -0.83809805 6.5422954e-39
4.4498334 0.18249908 -0.82981086 5.8065324e-39
4.5088892 0.2017321 -0.84082359 5.1604413e-39
4.4498334 0.21568073 -0.82981086 4.147737e-39
4.5088892 0.23535411 -0.84082359 3.7789488e-39
4.451756 0.2571578 -0.82174122 3.6845854e-39
4.5069413 0.26057065 -0.84900028 3.1310501e-39
4.4504743 0.29310456 -0.82712096 6.3542958e-39
4.5069413 0.28578714 -0.84900028 5.5245421e-39
4.3933792 0.32210028 -0.81650978 7.7404672e-39
4.4479113 0.31522566 -0.83788043 7.9234124e-39
4.3927464 0.34393761 -0.81916517 7.2802094e-39
4.3927464 0.36850458 -0.81916517 7.0021735e-39
4.3927464 0.40126052 -0.81916517 6.1727814e-39
4.3927464 0.4340165 -0.81916517 7.8301321e-39
4.402235 0.098267883 -0.77933478 1.0325172e-38
4.4568825 0.1106055 -0.80022234 8.2921893e-39
4.4556007 0.13272661 -0.80560201 7.3709687e-39
4.5186286 0.13448808 -0.79994017 7.464588e-39
4.4594455 0.16590825 -0.78946286 6.360404e-39
4.5160313 0.15690273 -0.81084239 6.6351973e-39
4.5166807 0.19332659 -0.80811685 5.4366681e-39
4.4594455 0.23227155 -0.78946286 3.9622611e-39
4.5160313 0.22414678 -0.81084239 4.3303289e-39
4.4575229 0.2571578 -0.79753244 3.8660998e-39
4.4575229 0.29033944 -0.79753244 6.1713339e-39
4.4003372 0.31937063 -0.78730088 7.925206e-39
4.4003372 0.34393761 -0.78730088 7.464588e-39
4.4003372 0.36850458 -0.78730088 6.8185095e-39
4.4003372 0.40126055 -0.78730088 5.8047233e-39
4.4575229 0.43965685 -0.79753244 5.7118088e-39
4.407928 0.098267883 -0.7554366 1.0600672e-38
4.4652123 0.11613578 -0.76525408 8.1059819e-39
4.4652123 0.14102203 -0.76525408 7.2794723e-39
4.4652123 0.16590825 -0.76525408 6.5419226e-39
4.4652123 0.1907945 -0.76525408 5.5281294e-39
4.4652123 0.23227155 -0.76525408 3.9636652e-39
4.5225244 0.21854311 -0.7835868 4.6998163e-39
4.4652123 0.2571578 -0.76525408 3.5005332e-39
4.4085608 0.28934431 -0.75278127 6.7262803e-39
4.4632902 0.28204402 -0.77332366 5.431985e-39
4.407928 0.31937063 -0.7554366 8.5684202e-39
4.407928 0.34393761 -0.7554366 7.556062e-39
4.407928 0.36850458 -0.7554366 6.8192172e-39
4.407928 0.40126055 -0.7554366 5.2508195e-39
4.407928 0.4340165 -0.7554366 5.5252526e-39
4.4098258 0.45858344 -0.74747056 7.5506544e-39
4.4136209 0.098267883 -0.73153841 1.1520829e-38
4.4709797 0.11613578 -0.7410453 8.8417603e-39
4.4709797 0.14102203 -0.7410453 7.1879983e-39
4.4709797 0.16590825 -0.7410453 6.4511886e-39
4.4709797 0.1907945 -0.7410453 5.3433781e-39
4.4174166 0.22929172 -0.71560627 2.5792958e-39
4.4709797 0.22397614 -0.7410453 2.7619116e-39
4.5264201 0.21854311 -0.76723337 4.6994534e-39
4.4174166 0.25385872 -0.71560627 2.6700481e-39
4.4709797 0.2571578 -0.7410453 2.3952661e-39
4.4155188 0.28661466 -0.72357231 4.8795076e-39
4.3609991 0.31529176 -0.70646685 3.9597065e-39
4.4136209 0.31937063 -0.73153841 8.2925116e-39
4.3597503 0.35032415 -0.71170974 4.5136174e-39
4.4136209 0.34393761 -0.73153841 7.9262668e-39
4.3597503 0.37727216 -0.71170974 4.9706327e-39
4.3055706 0.41504586 -0.69748759 5.4319794e-39
4.3609991 0.40422019 -0.70646685 6.0787459e-39
4.4136209 0.40126052 -0.73153841 5.8032632e-39
4.2032719 0.43597797 -0.66518426 7.5395098e-39
4.2521224 0.44142383 -0.68882918 8.1866715e-39
4.303721 0.4389908 -0.70525199 6.441081e-39
4.3572521 0.4365578 -0.72219551 6.4403537e-39
4.4136209 0.4258275 -0.73153841 5.7089446e-39
4.2521224 0.46507156 -0.68882918 6.3561021e-39
4.2521224 0.48871928 -0.68882918 9.7662221e-39
4.4786692 0.082954124 -0.70876688 1.2711795e-38
4.4767466 0.10784036 -0.71683651 1.0965483e-38
4.4767466 0.14102203 -0.71683645 7.1883542e-39
4.4767466 0.16590825 -0.71683651 6.455122e-39
4.4212122 0.19653577 -0.69967413 3.1263824e-39
4.4761057 0.18802936 -0.71952635 4.7905658e-39
4.4212122 0.22110274 -0.69967413 2.3005593e-39
4.4748244 0.21568073 -0.72490609 3.0374055e-39
4.3666196 0.25870094 -0.68287385 2.1165268e-39
4.4212122 0.24566972 -0.69967413 2.3005523e-39
4.3666196 0.28295416 -0.68287385 2.2998447e-39
4.3129692 0.31926602 -0.66643006 1.658071e-39
4.3659949 0.31259695 -0.68549526 2.0243368e-39
4.3117361 0.34587154 -0.6716063 1.9332202e-39
4.3647461 0.33954498 -0.69073814 2.3916774e-39
4.310503 0.37247705 -0.67678261 1.9321397e-39
4.3684931 0.38805139 -0.67500949 1.6580682e-39
4.2569938 0.40463853 -0.66838121 7.1768117e-39
4.3129692 0.39908257 -0.66643006 4.3177089e-39
4.2068801 0.43597797 -0.65003747 9.8486633e-39
4.2576027 0.4256587 -0.66582519 7.9111496e-39
4.2104883 0.45154864 -0.63489068 1.0491568e-38
4.2576027 0.46507156 -0.66582519 8.285002e-39
4.2576027 0.48871928 -0.66582519 1.0398268e-38
4.4825139 0.066363305 -0.69262773 1.1605105e-38
4.5420032 0.084055036 -0.70181984 1.0675229e-38
4.484436 0.11613578 -0.68455809 6.7226944e-39
4.543951 0.10086605 -0.69364315 8.3746627e-39
4.484436 0.14102203 -0.68455809 4.2355914e-39
4.484436 0.16590825 -0.68455809 2.8512388e-39
4.4269052 0.19653577 -0.67577589 2.0246955e-39
4.484436 0.18249908 -0.68455809 2.2998447e-39
4.3741136 0.2263633 -0.65141654 1.8403015e-39
4.4262724 0.21837308 -0.67843127 1.9321426e-39
4.3741136 0.25870094 -0.65141654 2.1154632e-39
4.4269052 0.24566972 -0.67577589 1.9321482e-39
4.3741136 0.28295416 -0.65141654 2.2991314e-39
4.3203678 0.31926602 -0.63537258 1.6577053e-39
4.3734889 0.31259695 -0.65403795 1.8406616e-39
4.3179016 0.34587157 -0.64572507 1.9328586e-39
4.3759866 0.33954498 -0.64355218 1.6573465e-39
4.3179016 0.37247705 -0.64572507 2.0246983e-39
4.3759866 0.38805139 -0.64355218 1.4747727e-39
4.3185182 0.4070642 -0.64313698 3.7699329e-39
4.2649093 0.43354127 -0.63515323 9.201859e-39
4.214097 0.45154864 -0.61974394 9.9394534e-39
4.2649093 0.47295415 -0.63515323 9.3873671e-39
4.2649093 0.48871928 -0.63515323 1.0023009e-38
4.4921255 0.049772475 -0.65227973 1.132743e-38
4.5497947 0.075649537 -0.6691131 9.2977008e-39
4.6074238 0.076673396 -0.69474369 8.2853467e-39
4.4902034 0.10784036 -0.66034931 6.9031241e-39
4.4921255 0.14102203 -0.65227973 2.7611816e-39
4.4921255 0.16590825 -0.65227973 1.8406644e-39
4.4351287 0.19107644 -0.64125627 2.0250556e-39
4.4902034 0.18249908 -0.66034931 2.0243312e-39
4.4351287 0.21837308 -0.64125627 1.6577137e-39
4.4351287 0.25112906 -0.64125627 1.8399525e-39
4.3259172 0.28733945 -0.61207944 2.1158135e-39
4.3797336 0.27486974 -0.62782353 2.2998419e-39
4.3259172 0.31128436 -0.61207944 2.1161681e-39
4.3253007 0.34055045 -0.61466759 1.6573493e-39
4.3259172 0.36715597 -0.61207944 1.5658684e-39
4.3797336 0.38805139 -0.62782353 1.6580668e-39
4.3240676 0.41504586 -0.61984384 2.5746351e-39
4.3797336 0.40422019 -0.62782353 1.932853e-39
4.2722163 0.44142383 -0.60448128 7.4534014e-39
4.3259172 0.43100914 -0.61207944 4.3191536e-39
4.2722163 0.46507156 -0.60448134 9.0185593e-39
4.2728252 0.49397433 -0.60192531 1.1225145e-38
4.4991741 0.077423848 -0.62269121 1.1515407e-38
4.5536904 0.075649537 -0.65275973 6.6215724e-39
4.5549889 0.10646972 -0.64730859 5.1482388e-39
4.6192694 0.11926972 -0.64501959 4.5024855e-39
4.4978929 0.14931743 -0.62807095 2.9448666e-39
4.5575862 0.13448808 -0.63640636 3.8660956e-39
4.4420867 0.16377981 -0.61204731 2.3924229e-39
4.4420867 0.18834677 -0.61204731 1.9325069e-39
4.4420867 0.22110274 -0.61204731 1.7484716e-39
4.4420867 0.25385872 -0.61204737 1.6566389e-39
4.3333158 0.28733945 -0.58102196 1.7488317e-39
4.385354 0.27486974 -0.60423052 1.4733294e-39
4.3333158 0.31128436 -0.58102196 1.4729609e-39
4.3339324 0.34055045 -0.57843387 1.749182e-39
4.385354 0.35571378 -0.60423052 1.8406602e-39
4.3333158 0.37513763 -0.58102196 1.8413847e-39
4.3834805 0.38805139 -0.61209488 1.6573703e-39
4.3333158 0.4070642 -0.58102196 1.7499051e-39
4.3834805 0.40422019 -0.61209488 1.656992e-39
4.3333158 0.4389908 -0.58102196 2.9427002e-39
4.3834805 0.420389 -0.61209488 2.301274e-39
4.2795229 0.46507156 -0.57380933 7.9140293e-39
4.278914 0.49397433 -0.57636529 9.1104144e-39
4.5634298 0.10086605 -0.61187625 1.1609388e-38
4.6251922 0.11926972 -0.62015754 8.1981762e-39
4.6251922 0.13630827 -0.62015754 5.0585193e-39
4.5055823 0.16590825 -0.59579259 3.6831393e-39
4.5634298 0.15129907 -0.61187625 4.6015026e-39
4.4496775 0.18834679 -0.58018303 2.2080106e-39
4.3947215 0.2101945 -0.56490886 1.9310748e-39
4.4490452 0.22383241 -0.58283842 1.7484688e-39
4.3947215 0.25870094 -0.56490886 1.4729623e-39
4.4490452 0.25112906 -0.58283842 1.748473e-39
4.3407145 0.28733945 -0.54996443 1.657013e-39
4.392848 0.27486974 -0.57277322 1.8403099e-39
4.2850032 0.31530273 -0.55080533 1.5655194e-39
4.341331 0.30862382 -0.54737633 1.5648006e-39
4.3407145 0.343211 -0.54996443 1.6577053e-39
4.3407145 0.3751376 -0.54996443 1.7495422e-39
4.3407145 0.4070642 -0.54996443 1.7499009e-39
4.3947215 0.4365578 -0.56490886 2.2080078e-39
4.2868299 0.47295415 -0.54313737 8.0061997e-39
4.3407145 0.46293578 -0.54996443 4.9638181e-39
4.3947215 0.4527266 -0.56490886 2.3909571e-39
4.2868299 0.49660182 -0.54313737 8.5525687e-39
4.5094271 0.09954495 -0.57965338 6.438965e-39
4.5692735 0.11767706 -0.5873462 6.6226234e-39
4.631115 0.13630827 -0.59529543 6.0708706e-39
4.5113492 0.16590825 -0.57158375 4.233446e-39
4.5712214 0.15129907 -0.57916951 5.1528603e-39
4.4022155 0.1940257 -0.53345156 2.3920375e-39
4.456636 0.1856171 -0.55097413 2.7586704e-39
4.4572682 0.22110274 -0.54831874 1.8395854e-39
4.4009662 0.25331131 -0.53869444 1.9317782e-39
4.4553709 0.24566972 -0.55628484 1.6580626e-39
4.2923098 0.2995376 -0.52013338 1.7473912e-39
4.3462634 0.27935779 -0.52667135 1.7481184e-39
4.3984685 0.27486974 -0.54918021 1.9317824e-39
4.2941365 0.31530273 -0.51246542 1.9325055e-39
4.2959633 0.34683305 -0.5047974 2.1179603e-39
4.3462634 0.343211 -0.52667135 1.6577039e-39
4.3462634 0.37513763 -0.52667135 1.4740343e-39
4.3462634 0.39908257 -0.52667135 1.5662327e-39
4.4009662 0.4311682 -0.5386945 1.6577123e-39
4.2947454 0.46769908 -0.50990945 4.8766294e-39
4.3462634 0.46293578 -0.52667135 3.7685064e-39
4.400342 0.4527266 -0.54131591 2.1158149e-39
4.2941365 0.49660182 -0.51246542 8.1898945e-39
4.2941365 0.52024955 -0.51246542 1.02996e-38
4.6370373 0.11075046 -0.57043338 7.8214917e-39
4.6370373 0.13630827 -0.57043338 5.8893394e-39
4.5790129 0.16811007 -0.54646271 5.4319808e-39
4.6390119 0.15334679 -0.56214601 6.6197115e-39
4.407836 0.1940257 -0.50985861 1.9325041e-39
4.5209613 0.18249908 -0.53123575 3.4054594e-39
4.4084601 0.22097369 -0.50723714 1.8399413e-39
4.4629617 0.21291375 -0.52442056 1.3807666e-39
4.407836 0.25061652 -0.50985855 1.9314293e-39
4.3518124 0.27935779 -0.50337821 1.7484758e-39
4.3524289 0.30862382 -0.50079012 1.5647964e-39
4.3032699 0.34683305 -0.47412544 1.4740371e-39
4.3524289 0.34055045 -0.50079012 1.8410217e-39
4.3032699 0.36259818 -0.47412544 1.5655138e-39
4.3518124 0.37513763 -0.50337821 1.7488345e-39
4.3524289 0.40440366 -0.50079012 1.6577095e-39
4.3518124 0.43100914 -0.50337821 1.6573647e-39
4.4059625 0.420389 -0.5177229 1.5647992e-39
4.302052 0.46769908 -0.47923744 4.1372889e-39
4.353662 0.46293578 -0.49561384 2.4828066e-39
4.407836 0.4527266 -0.50985861 1.9321383e-39
4.3014431 0.49660185 -0.48179346 8.0058535e-39
4.3014431 0.52813208 -0.48179346 9.8479725e-39
4.7072935 0.13240123 -0.54737413 7.1736098e-39
4.5286508 0.16590825 -0.49895743 4.9695439e-39
4.5848565 0.16811007 -0.52193272 4.4167414e-39
4.6449347 0.15334679 -0.53728396 5.7960605e-39
4.4153295 0.1940257 -0.47840121 2.3005565e-39
4.5267282 0.18249908 -0.50702703 3.1285179e-39
4.359211 0.23944955 -0.47232071 1.6569864e-39
4.4153295 0.21827888 -0.47840121 1.7484646e-39
4.3610606 0.25541285 -0.46455634 1.5658796e-39
4.413456 0.25870094 -0.48626557 1.6573521e-39
4.359211 0.27935779 -0.47232071 1.5651733e-39
4.359211 0.31128436 -0.47232071 1.6566347e-39
4.3598275 0.34055045 -0.46973255 1.2903675e-39
4.3087502 0.36259818 -0.45112154 1.5647936e-39
4.359211 0.38311926 -0.47232071 1.4736797e-39
4.3087502 0.40989357 -0.45112154 1.9324971e-39
4.3585944 0.40440366 -0.47490886 1.4740357e-39
4.359211 0.4389908 -0.47232071 1.6566333e-39
4.3610606 0.47091743 -0.46455634 3.4933474e-39
4.3087502 0.49660182 -0.45112154 7.5455873e-39
4.3087502 0.52813214 -0.45112154 8.5558043e-39
4.6528316 0.13630827 -0.50413454 7.3580066e-39
4.7770452 0.12255779 -0.53506434 8.177678e-39
4.5344176 0.16590825 -0.47474864 5.4297947e-39
4.592648 0.15129907 -0.48922595 6.7162147e-39
4.650857 0.15334679 -0.51242191 6.2573932e-39
4.4228234 0.1940257 -0.44694397 2.2998447e-39
4.4762454 0.1801578 -0.46865812 3.7717181e-39
4.3672261 0.23412843 -0.43867505 1.9314181e-39
4.4221988 0.2155841 -0.44956538 1.6559144e-39
4.3178835 0.26012477 -0.41278157 1.9321383e-39
4.3666096 0.25541285 -0.44126317 1.9314237e-39
4.3178835 0.29165503 -0.41278157 1.4733196e-39
4.3666096 0.27935779 -0.44126317 1.5651663e-39
4.3178835 0.31530273 -0.41278157 1.5655236e-39
4.3666096 0.31128436 -0.44126317 1.4736797e-39
4.3166656 0.34157801 -0.41789356 1.5658698e-39
4.365993 0.34055045 -0.44385132 1.6573521e-39
4.3160567 0.37048078 -0.42044958 1.6569962e-39
4.3647599 0.38311926 -0.44902757 1.3811268e-39
4.3160567 0.40201098 -0.42044953 1.3814827e-39
4.3647599 0.39908257 -0.44902757 1.8399413e-39
4.3666096 0.4389908 -0.44126317 1.564802e-39
4.3178835 0.47295415 -0.41278157 3.3093177e-39
4.3666096 0.47091743 -0.44126317 3.1252865e-39
4.3160567 0.49660182 -0.42044953 7.0853364e-39
4.3160567 0.52813214 -0.42044958 8.3714089e-39
4.5965438 0.11767706 -0.47287256 8.635073e-39
4.540185 0.13272661 -0.45053983 7.9028987e-39
4.5965438 0.13448808 -0.47287256 7.7217403e-39
4.540185 0.16590825 -0.45053983 5.5220184e-39
4.5984917 0.15129907 -0.46469587 6.8066181e-39
4.3746247 0.20220183 -0.40761763 2.0246969e-39
4.4284439 0.1940257 -0.42335093 2.6675524e-39
4.4838362 0.1801578 -0.43679383 3.8649928e-39
4.3740082 0.23146789 -0.41020572 1.4736755e-39
4.321537 0.26012477 -0.39744559 1.5655208e-39
4.321537 0.29165503 -0.39744559 1.5651537e-39
4.321537 0.31530273 -0.39744559 1.7491932e-39
4.321537 0.33895046 -0.39744559 1.4743916e-39
4.321537 0.37048075 -0.39744559 1.2903647e-39
4.321537 0.40201101 -0.39744559 1.5655222e-39
4.3740082 0.4389908 -0.41020572 1.6573479e-39
4.3746247 0.46825686 -0.40761763 1.8388721e-39
4.321537 0.49660185 -0.39744559 6.3485014e-39
4.321537 0.52813208 -0.39744559 7.8239874e-39
4.321537 0.55177981 -0.39744559 1.0305677e-38
4.6082311 0.13448808 -0.42381239 8.4521209e-39
4.6666512 0.13630827 -0.44612306 8.2702351e-39
4.4914269 0.16377981 -0.40492952 5.7939137e-39
4.5440297 0.16590825 -0.43440068 5.6149315e-39
4.6082311 0.15129907 -0.42381239 7.2632803e-39
4.6666512 0.15334679 -0.44612306 7.0810372e-39
4.3814068 0.19954127 -0.37914824 2.2083819e-39
4.4914269 0.1801578 -0.40492952 4.2330522e-39
4.3270168 0.23647708 -0.37444159 1.7481142e-39
4.3814068 0.22348623 -0.37914824 1.4729791e-39
4.3270168 0.26012477 -0.37444159 1.65592e-39
4.3270168 0.29165503 -0.37444159 1.5655166e-39
4.3270168 0.31530273 -0.37444159 1.4729609e-39
4.3270168 0.33895046 -0.37444159 1.4733182e-39
4.3270168 0.37048078 -0.37444159 1.6562787e-39
4.3270168 0.40201098 -0.37444159 1.2889353e-39
4.3270168 0.4256587 -0.37444159 1.6548382e-39
4.3814068 0.44697246 -0.37914824 1.4711644e-39
4.3814068 0.47091743 -0.37914824 1.563723e-39
4.3270168 0.49660182 -0.37444159 5.8850262e-39
4.3270168 0.52813208 -0.37444159 7.6381654e-39
4.5555639 0.14931743 -0.38598308 7.8208121e-39
4.6121268 0.13448808 -0.40745908 8.9102404e-39
4.4990177 0.16377981 -0.37306523 5.9779463e-39
4.6121268 0.15129907 -0.40745908 7.6313705e-39
4.3881888 0.20220183 -0.3506788 4.6029347e-39
4.4990177 0.1801578 -0.37306523 4.0486904e-39
4.3343239 0.23647708 -0.34376961 4.6029362e-39
4.3888054 0.22348623 -0.34809065 4.4210826e-39
4.3349328 0.26275229 -0.34121361 4.3292205e-39
4.3869557 0.25541285 -0.35585505 3.2225268e-39
4.3343239 0.29165503 -0.34376961 3.9597079e-39
4.3343239 0.31530273 -0.34376961 2.762971e-39
4.3343239 0.33895046 -0.34376961 1.5658754e-39
4.3343239 0.37048075 -0.34376961 1.6569948e-39
4.3343239 0.40201101 -0.34376961 1.2892885e-39
4.3349328 0.43091378 -0.34121361 1.4715231e-39
4.3869557 0.44697246 -0.35585505 1.6548368e-39
4.3349328 0.46769908 -0.34121361 2.1140241e-39
4.3869557 0.46293578 -0.35585505 1.6548424e-39
4.3343239 0.49660185 -0.34376961 5.6127398e-39
4.286263 0.52940184 -0.31680831 5.7928628e-39
4.3343239 0.52813208 -0.34376961 7.2693843e-39
4.5613308 0.14931743 -0.3617743 1.0851725e-38
4.5047112 0.16377981 -0.34916699 7.3655666e-39
4.396204 0.20752293 -0.3170332 5.5245113e-39
4.4490519 0.1940257 -0.33684328 5.4315898e-39
4.5047112 0.1801578 -0.34916699 4.7858939e-39
4.3422394 0.23122203 -0.31054163 5.0638989e-39
4.3943543 0.22348623 -0.32479757 5.3404788e-39
4.3416305 0.26012477 -0.3130976 4.603655e-39
4.3416305 0.29165503 -0.3130976 5.2472153e-39
4.3416305 0.31530273 -0.3130976 3.6816931e-39
4.3416305 0.33895048 -0.3130976 1.4726035e-39
4.3416305 0.37048075 -0.3130976 1.2889396e-39
4.3416305 0.40201098 -0.3130976 1.3796932e-39
4.3416305 0.4335413 -0.3130976 1.4718889e-39
4.2934799 0.46711928 -0.28651476 1.2871459e-39
4.3416305 0.46507156 -0.31309766 1.2871487e-39
4.2934799 0.49047524 -0.28651476 2.1154534e-39
4.3416305 0.49660185 -0.3130976 3.7692098e-39
4.3422394 0.52550459 -0.31054163 5.1481884e-39
4.5709429 0.11613578 -0.3214263 9.5541538e-39
4.6277099 0.11767706 -0.34204549 1.0745835e-38
4.5690203 0.14102203 -0.32949588 8.1751794e-39
4.5104041 0.16377981 -0.32526875 4.6937151e-39
4.3489375 0.20494679 -0.28242564 5.2479482e-39
4.4565458 0.1940257 -0.30538598 5.1553588e-39
4.5104041 0.1801578 -0.32526875 4.0468841e-39
4.3489375 0.2285945 -0.28242564 4.6029263e-39
4.3489375 0.26012477 -0.28242564 4.7876693e-39
4.3489375 0.29165503 -0.28242564 4.9735011e-39
4.2988925 0.31919819 -0.2637946 2.6704166e-39
4.3471107 0.31530273 -0.29009366 3.3150616e-39
4.2988925 0.35033947 -0.2637946 1.7484632e-39
4.3471107 0.33895046 -0.29009366 1.6573521e-39
4.3006964 0.37369543 -0.2562212 1.6573465e-39
4.3483286 0.37310827 -0.28498167 1.5651621e-39
4.3489375 0.40201101 -0.28242564 1.3807652e-39
4.3489375 0.43354127 -0.28242564 1.2882193e-39
4.2988925 0.46711928 -0.2637946 1.380768e-39
4.3489375 0.45718899 -0.28242564 1.2882109e-39
4.2988925 0.49047524 -0.2637946 1.6566305e-39
4.2994938 0.51902145 -0.26127011 2.115452e-39
4.3483286 0.53075963 -0.28498167 2.6668377e-39
4.5767097 0.10784036 -0.29721749 4.5953916e-39
4.5767097 0.14102203 -0.29721749 1.2878563e-39
4.4659133 0.17785689 -0.26606432 3.5887688e-39
4.5767097 0.16590825 -0.29721749 2.2058512e-39
4.3544173 0.20494679 -0.25942171 4.8813055e-39
4.4073019 0.19155963 -0.27044696 5.1557218e-39
4.5179949 0.1801578 -0.29340446 4.2326879e-39
4.3562441 0.22859451 -0.25175375 3.9582702e-39
4.3562441 0.26012477 -0.25175375 4.2348669e-39
4.3079133 0.2958422 -0.2259277 4.6969226e-39
4.3562441 0.29165503 -0.25175375 4.8809566e-39
4.306109 0.31919819 -0.23350109 2.5771546e-39
4.306109 0.35033947 -0.23350109 1.564439e-39
4.3067102 0.37888566 -0.23097661 1.5644404e-39
4.306109 0.40483668 -0.23350109 1.6559116e-39
4.3556352 0.39938346 -0.25430971 1.4729595e-39
4.306109 0.42819265 -0.23350109 1.1052587e-39
4.3544173 0.43354127 -0.25942171 1.1970928e-39
4.3067102 0.46192908 -0.23097661 1.472256e-39
4.3562441 0.45718899 -0.25175369 1.10527e-39
4.306109 0.49047524 -0.23350109 1.6559172e-39
4.306109 0.52161652 -0.23350109 2.849057e-39
4.5824771 0.11613578 -0.27300876 4.1362239e-39
4.5824771 0.14102203 -0.27300876 1.380052e-39
4.4715338 0.17785689 -0.24247128 3.7742447e-39
4.5255857 0.16377981 -0.26154029 1.8403043e-39
4.3635511 0.20494679 -0.22108175 4.6965583e-39
4.414084 0.19688074 -0.24197751 4.9709928e-39
4.3635511 0.2285945 -0.22108175 3.1310277e-39
4.3635511 0.26012477 -0.22108181 4.8798608e-39
4.3641601 0.28902751 -0.21852572 4.8802279e-39
4.3133254 0.31919819 -0.20320754 2.4860282e-39
4.3133254 0.35033947 -0.20320754 1.3814841e-39
4.3133254 0.38148075 -0.20320754 1.2892913e-39
4.3133254 0.40483668 -0.20320754 1.4715287e-39
4.3133254 0.42819265 -0.20320754 1.5633698e-39
4.3139272 0.46192908 -0.20068306 1.4715259e-39
4.3653774 0.45718899 -0.21341379 1.4715315e-39
4.3133254 0.49047524 -0.20320754 1.6566403e-39
4.3127241 0.51902145 -0.20573196 2.7579488e-39
4.588244 0.11613578 -0.24879995 5.2385862e-39
4.5331764 0.14740182 -0.22967599 1.7466723e-39
4.5876031 0.13825689 -0.25148979 1.3797045e-39
4.4771543 0.17785689 -0.21887831 4.5107181e-39
4.5331764 0.16377981 -0.22967599 2.7597508e-39
4.3708577 0.20494679 -0.19040981 4.6951276e-39
4.4220991 0.19155963 -0.20833196 5.2483042e-39
4.3708577 0.2285945 -0.19040981 3.6809658e-39
4.3702488 0.26275229 -0.19296578 5.2472182e-39
4.3708577 0.29165503 -0.19040981 5.2482943e-39
4.318738 0.31919819 -0.18048736 2.7615431e-39
4.318738 0.35033947 -0.18048736 1.4715245e-39
4.318738 0.38148075 -0.18048736 1.380059e-39
4.318738 0.40483668 -0.18048736 1.5647936e-39
4.318738 0.42819265 -0.18048736 1.2889297e-39
4.318738 0.45933396 -0.18048736 1.3793331e-39
4.318738 0.49047524 -0.18048736 1.8403141e-39
4.318738 0.5138312 -0.18048736 1.8370827e-39
4.6549802 0.11767706 -0.22757183 6.8930628e-39
4.5407672 0.14740182 -0.19781169 1.4711798e-39
4.5959334 0.13272661 -0.21652156 2.7594131e-39
4.4827743 0.17785689 -0.19528534 4.6933143e-39
4.5407672 0.16377981 -0.19781169 2.9448469e-39
4.3781643 0.20494679 -0.15973786 4.2323586e-39
4.4294977 0.19155963 -0.17727444 5.3372516e-39
4.376338 0.2285945 -0.16740587 4.9680907e-39
4.3787732 0.26275229 -0.15718183 3.9568451e-39
4.4294977 0.25541285 -0.17727444 4.8769825e-39
4.3781643 0.29165503 -0.15973786 4.2344955e-39
4.3235493 0.32179329 -0.16029163 2.5778623e-39
4.3799911 0.31530273 -0.1520699 2.6707656e-39
4.3241506 0.35033947 -0.15776721 1.6566333e-39
4.3241506 0.38148075 -0.15776721 1.3814925e-39
4.3241506 0.40483668 -0.15776721 1.564453e-39
4.3241506 0.42819265 -0.15776721 1.381124e-39
4.2739577 0.46150458 -0.14838849 1.4722518e-39
4.3235493 0.45673886 -0.16029163 1.3807722e-39
4.3241506 0.49047524 -0.15776721 1.6573549e-39
4.3235493 0.51902145 -0.16029163 4.9695312e-39
4.6588759 0.11767706 -0.21121845 8.7304944e-39
4.5464606 0.14740182 -0.17391345 1.5619531e-39
4.6036229 0.13272661 -0.18424322 4.8748329e-39
4.4350467 0.17559633 -0.15398134 3.3154203e-39
4.4902682 0.16977248 -0.16382802 3.4068887e-39
4.5464606 0.16377981 -0.17391345 3.1299501e-39
4.4375129 0.19688074 -0.14362887 2.944512e-39
4.4368963 0.23146789 -0.14621696 2.4835115e-39
4.3854713 0.26012477 -0.12906596 1.6562815e-39
4.3854713 0.29165503 -0.12906596 1.6562731e-39
4.3854713 0.31530273 -0.12906592 1.3814841e-39
4.331367 0.35812479 -0.12747364 1.3807877e-39
4.3854713 0.33895046 -0.12906596 1.3814869e-39
4.331367 0.38148075 -0.12747364 1.4722448e-39
4.331367 0.40483668 -0.12747364 1.3814995e-39
4.2846527 0.4461211 -0.10349429 1.1974586e-39
4.331367 0.42819265 -0.12747364 1.4729623e-39
4.331367 0.45933396 -0.12747364 1.5633698e-39
4.331367 0.49047524 -0.12747364 1.6566445e-39
4.3836446 0.52024955 -0.13673392 5.8778319e-39
4.5521536 0.14740182 -0.15001532 2.1143842e-39
4.6093898 0.13272661 -0.16003442 5.8868198e-39
4.4958887 0.17785689 -0.14023505 3.0374097e-39
4.5540514 0.16377981 -0.14204922 2.9437651e-39
4.4424453 0.20752293 -0.12292381 3.1314214e-39
4.4442949 0.23146789 -0.11515943 2.3009335e-39
4.3909512 0.26012477 -0.10606192 1.9314335e-39
4.3909512 0.29165503 -0.10606192 1.9321454e-39
4.3909512 0.31530273 -0.10606192 1.4737008e-39
4.3385839 0.35812479 -0.097180031 1.3811268e-39
4.3909512 0.33895046 -0.10606192 1.4733238e-39
4.3385839 0.38148075 -0.097180031 1.6559144e-39
4.3385839 0.40483668 -0.097180031 1.6566389e-39
4.2917824 0.4461211 -0.073564865 1.9314251e-39
4.3385839 0.42819265 -0.097180031 1.564802e-39
4.3391852 0.46192908 -0.094655551 1.5651635e-39
4.3367796 0.49047524 -0.10475342 1.7466961e-39
4.5578465 0.14740182 -0.12611708 3.6777625e-39
4.5597444 0.16377981 -0.11815097 2.7604795e-39
4.5597444 0.18834677 -0.11815097 3.588787e-39
4.3982582 0.23647708 -0.075389914 4.1409056e-39
4.451077 0.22880733 -0.086690053 3.3150952e-39
4.5052562 0.2101945 -0.10091333 4.144507e-39
4.3970404 0.25749725 -0.080501907 3.4047601e-39
4.3964314 0.29165503 -0.083057933 2.0236305e-39
4.4498439 0.27137613 -0.091866285 2.0243564e-39
4.3964314 0.31530273 -0.083057933 1.7485052e-39
4.343996 0.35033947 -0.074459866 1.4736769e-39
4.3958225 0.33632293 -0.085613959 1.5658782e-39
4.3982582 0.37836331 -0.075389914 1.5655208e-39
4.3982582 0.40201101 -0.075389914 1.6570032e-39
4.2953472 0.4461211 -0.058600154 6.4328708e-40
4.3451991 0.43078777 -0.069410898 1.3811464e-39
4.343996 0.46711928 -0.074459866 1.7481366e-39
4.3958225 0.49922934 -0.085613959 6.4439831e-39
4.620924 0.14931743 -0.11161681 4.5982684e-39
4.6247687 0.16590825 -0.095477618 3.2250688e-39
4.5679679 0.19107644 -0.083631277 3.8664936e-39
4.6247687 0.18249908 -0.095477618 3.5899011e-39
4.403738 0.2285945 -0.052385986 6.4493753e-39
4.5127501 0.2101945 -0.069456019 4.7895317e-39
4.403738 0.26012477 -0.052385926 7.2704717e-39
4.3548212 0.2958422 -0.029019531 8.4664786e-39
4.403738 0.29165503 -0.052385986 7.5484949e-39
4.403738 0.31530273 -0.052385986 5.9865825e-39
4.403738 0.33895046 -0.052385986 3.0384957e-39
4.4019117 0.37048075 -0.060053941 1.5648034e-39
4.4609418 0.37513763 -0.04528005 2.1165422e-39
4.4019117 0.40201101 -0.060053941 1.6559438e-39
4.4019117 0.4256587 -0.060053941 2.482099e-39
4.5730286 0.19653577 -0.062388435 7.3810328e-39
4.3608351 0.22836943 -0.0037748234 7.8268937e-39
4.4110451 0.2285945 -0.021714037 1.0781436e-38
4.3620377 0.24913028 0.0012740253 3.8635915e-39
4.4110451 0.26012477 -0.021714037 6.7151371e-39
4.3608351 0.29065201 -0.0037748234 5.7038649e-39
4.4110451 0.28377247 -0.021714037 7.35835e-39
4.3620377 0.31141284 0.0012740253 6.994245e-39
4.4110451 0.31530273 -0.021714037 8.0069452e-39
4.4128718 0.33106789 -0.014046022 7.4545127e-39
4.4646411 0.343211 -0.029751288 7.7321519e-39
4.4646411 0.38311926 -0.029751288 1.9296679e-39
4.5221171 0.37188259 -0.030134363 4.2298615e-39
4.320302 0.19229357 0.046152845 1.1149143e-38
4.3692546 0.19463304 0.031567581 1.1886008e-38
4.3185196 0.22306055 0.038670488 7.1782677e-39
4.3656464 0.22577432 0.016420804 8.1016729e-39
4.320302 0.24613577 0.046152845 6.5293054e-39
4.3674502 0.2569156 0.023994192 7.2693997e-39
4.4165249 0.26800734 0.001289894 3.95505e-39
4.3674502 0.28805688 0.023994192 6.4414313e-39
4.3680515 0.31660306 0.026518732 6.6279862e-39
4.5258641 0.35571378 -0.014405677 7.1822039e-39
4.2793388 0.19760001 0.089961208 8.1845709e-39
4.3238668 0.19229357 0.061117675 1.0685987e-38
4.2793388 0.21280001 0.089961208 7.9129685e-39
4.3274317 0.21536879 0.076082274 7.4555833e-39
4.376471 0.22577432 0.061861135 6.5322018e-39
4.3274317 0.25382751 0.076082274 6.5318417e-39
4.3752685 0.25951073 0.056812286 6.2534583e-39
4.3256493 0.28459448 0.068600036 7.7278696e-39
4.3740654 0.29065201 0.051763322 7.2690354e-39
4.3740654 0.31660306 0.051763322 6.8120243e-39
4.2863841 0.19760001 0.11953358 6.0708944e-39
4.3345618 0.19998531 0.1060117 6.9910584e-39
4.3818836 0.19463304 0.084581301 8.7477738e-39
4.434792 0.18918166 0.077969819 9.496758e-39
4.2846227 0.21280001 0.1121404 6.9956925e-39
4.3327794 0.23075229 0.098529458 7.453777e-39
4.3800793 0.23355964 0.077007912 6.6258352e-39
4.3327794 0.25382751 0.098529458 7.637448e-39
4.3327794 0.28459448 0.098529458 7.638527e-39
4.434792 0.28377247 0.077969819 8.0051613e-39
4.3812823 0.31660306 0.08205688 7.5459796e-39
4.4323564 0.34157801 0.067745954 8.1888127e-39
4.2899065 0.19760001 0.13431971 4.4196197e-39
4.3405032 0.22562446 0.13095292 5.3394068e-39
4.3399091 0.25382751 0.12845889 6.7169504e-39
4.3393149 0.28203055 0.12596473 5.704588e-39
4.3891001 0.31141284 0.11487486 6.6272477e-39
4.4402723 0.33106789 0.10097375 6.2592065e-39
4.3452568 0.19998531 0.15090597 5.6959896e-39
4.3452568 0.22306055 0.15090597 7.8239944e-39
4.2951899 0.25080001 0.15649913 8.2824601e-39
4.2969513 0.27360001 0.16389221 8.0058634e-39
4.3452568 0.27690274 0.15090597 7.9169187e-39
4.396317 0.2958422 0.14516841 5.9833413e-39
4.3969183 0.31660306 0.14769295 5.7056698e-39
4.3981209 0.34255415 0.1527418 1.4743986e-39
4.4475789 0.33106789 0.13164581 4.60149e-39
4.4017296 0.22577432 0.16788858 7.1779006e-39
4.3004737 0.25840002 0.17867845 7.6392514e-39
4.3004737 0.27360001 0.17867845 7.6406682e-39
4.4017296 0.2958422 0.16788858 7.6363732e-39
4.4017296 0.31919819 0.16788858 5.798929e-39
4.4567122 0.34683305 0.16998567 2.3012754e-39
4.4530592 0.36259818 0.15464975 3.9492865e-39
