# .PCD v0.7 - Point Cloud Data file format
VERSION 0.7
FIELDS x y z rgb
SIZE 4 4 4 4
TYPE F F F F
COUNT 1 1 1 1
WIDTH 1009
HEIGHT 1
VIEWPOINT 0 0 0 1 0 0 0
POINTS 1009
DATA ascii
2.1230259 -0.092455842 -1.1156631 1.2901295e-38
2.1552413 -0.093755729 -1.1229662 1.373069e-38
2.1365998 -0.075774364 -1.1266218 1.1336853e-38
2.1525912 -0.072583005 -1.132578 1.281197e-38
2.1084611 -0.032048352 -1.1080443 9.0319557e-39
2.1276643 -0.042098418 -1.1288452 8.4751932e-39
2.1069398 -0.012124483 -1.1135356 8.8468498e-39
2.119174 -0.02080828 -1.1294858 8.938335e-39
2.0977688 0.01362905 -1.1185443 8.1107197e-39
2.100255 0.049834125 -1.1187967 7.9263257e-39
2.1221166 0.078497916 -1.1259457 8.5713335e-39
2.1591341 0.086642131 -1.1282903 8.6646054e-39
2.2027788 0.091231354 -1.1380103 9.0301411e-39
2.2205951 0.082907878 -1.1373371 8.7553408e-39
2.1183004 0.096699163 -1.1322503 8.7546514e-39
2.1504498 0.098063424 -1.1397871 8.8472072e-39
2.1980729 0.1001294 -1.1551851 9.2163344e-39
2.2158475 0.10083342 -1.1546323 8.2965333e-39
2.2450771 0.11012381 -1.1576532 8.478405e-39
2.244525 0.138319 -1.1595669 7.1854998e-39
2.2390461 0.16514656 -1.1567596 7.5560844e-39
2.2711165 0.17630523 -1.153176 7.7433525e-39
2.2487249 0.18412137 -1.1667886 8.3851178e-39
2.2710226 0.19482256 -1.1631992 8.2021755e-39
2.3050852 0.20672455 -1.1653271 8.935063e-39
2.2674556 0.21294014 -1.1664288 1.0682806e-38
2.1455271 -0.097407646 -1.0940558 1.3361571e-38
2.1682911 -0.1028436 -1.1056077 1.6774589e-38
2.1322634 -0.071062729 -1.0939362 9.678414e-39
2.1575327 -0.085034169 -1.1145557 1.2442111e-38
2.1138208 -0.041649878 -1.0884814 7.9266942e-39
2.1252463 -0.045163687 -1.1073694 7.831256e-39
2.1129494 -0.014964958 -1.0915704 7.9256068e-39
2.103519 0.016054988 -1.0893853 7.926683e-39
2.1077843 0.04686752 -1.0912753 8.7535584e-39
2.1319518 0.053721972 -1.0824885 8.6616963e-39
2.132246 0.068209119 -1.1015775 8.66209e-39
2.1717446 0.070099384 -1.1075125 8.5698944e-39
2.2247427 0.073946886 -1.1222038 8.295097e-39
2.2478809 0.080685616 -1.1247603 8.2018251e-39
2.278461 0.080136389 -1.1266704 8.2932907e-39
2.244951 0.10517333 -1.1283858 7.3709785e-39
2.2425873 0.13777396 -1.1287457 7.1862131e-39
2.2583404 0.16367044 -1.1317025 8.2011049e-39
2.2747407 0.17630886 -1.1399231 8.4776819e-39
2.2896154 0.19119714 -1.1423401 8.2936494e-39
2.3112125 0.20673068 -1.1429204 9.2127078e-39
2.155829 -0.12336801 -1.0564796 1.7605426e-38
2.182523 -0.12070828 -1.0839592 1.8252235e-38
2.1432204 -0.098887548 -1.0678359 1.5854076e-38
2.1667588 -0.11118275 -1.0809139 1.8341894e-38
2.1224649 -0.069607951 -1.056975 7.5586291e-39
2.1360564 -0.081695095 -1.0679747 8.7532207e-39
2.1208632 -0.04484513 -1.0627408 7.8341398e-39
2.1208334 -0.014957074 -1.0627408 8.2029125e-39
2.1151097 0.015154893 -1.0608137 8.6628005e-39
2.138799 0.010737969 -1.0576075 8.9390356e-39
2.1207778 0.040549316 -1.0627408 8.6624361e-39
2.146224 0.053971104 -1.070735 8.3872828e-39
2.2479882 0.056414157 -1.1017125 8.4787539e-39
2.2981029 0.055264264 -1.1061151 8.478391e-39
2.2605424 0.077887259 -1.1012177 7.0940258e-39
2.2876573 0.073109135 -1.1125654 7.9237865e-39
2.2548594 0.10720858 -1.0991453 6.5408492e-39
2.2490973 0.13766302 -1.0973586 7.6482786e-39
2.2580221 0.16446608 -1.098745 8.0181443e-39
2.2932911 0.19151378 -1.1110275 8.2943655e-39
2.3185656 0.20673804 -1.1160324 9.4899898e-39
2.3197818 0.216031 -1.1115512 1.068567e-38
2.3334928 0.21764837 -1.133437 1.1422847e-38
2.1560202 -0.12837107 -1.035579 1.0965174e-38
2.1445811 -0.10103246 -1.0368736 8.755736e-39
2.128777 -0.074725293 -1.0339112 8.0188912e-39
2.127604 -0.04482004 -1.0333514 8.3869437e-39
2.1284368 -0.016016902 -1.034941 8.6628075e-39
2.1456203 -0.0064515485 -1.0327266 8.7549919e-39
2.1286788 0.023478314 -1.0339113 8.4787525e-39
2.1451507 0.0098845037 -1.0343854 8.6624389e-39
2.1264136 0.036285229 -1.0421484 8.5691699e-39
2.1433065 0.03940304 -1.0410203 8.4784036e-39
2.175806 0.041413523 -1.0472721 8.5713181e-39
2.2701356 0.044619784 -1.0662591 9.1244933e-39
2.2985044 0.051283017 -1.0762295 7.6482534e-39
2.2702339 0.080357149 -1.0748681 5.3430305e-39
2.2976959 0.071782343 -1.0758622 5.8029255e-39
2.2615933 0.10626081 -1.0688382 7.186583e-39
2.2592702 0.13779062 -1.0677418 7.5564431e-39
2.2715678 0.16467999 -1.0748005 8.0163521e-39
2.2999954 0.17369924 -1.0703286 7.9259417e-39
2.3026698 0.18945238 -1.0832385 8.2010979e-39
2.3267388 0.20364897 -1.086157 8.6606145e-39
2.1672771 -0.15365565 -1.0147282 8.5688028e-39
2.1846318 -0.15912087 -1.015733 8.1085519e-39
2.15944 -0.13037641 -1.010215 8.5709776e-39
2.1805937 -0.146046 -1.0304512 9.5851029e-39
2.1381323 -0.097894467 -0.99978662 8.019243e-39
2.1513937 -0.10962381 -1.0119926 8.2943837e-39
2.1355104 -0.074672699 -1.0045485 8.2954683e-39
2.1357694 -0.044806138 -1.0046786 8.6628019e-39
2.1341252 -0.016651673 -1.0141425 8.5716951e-39
2.15308 -0.013813949 -1.0054762 8.754273e-39
2.1556358 0.011991505 -1.0133667 8.7542618e-39
2.1827366 0.010903008 -1.0220408 8.7546276e-39
2.1501133 0.03654379 -1.0161394 8.8461085e-39
2.280098 0.047682956 -1.0355051 7.0007526e-39
2.3041477 0.054341875 -1.055582 5.8979938e-39
2.2806661 0.07488171 -1.0333282 6.4486662e-39
2.3025455 0.073406339 -1.0556836 6.173866e-39
2.2700284 0.10629049 -1.0404323 6.9100115e-39
2.2701018 0.13803631 -1.0432965 7.3731365e-39
2.2823346 0.15687424 -1.0439875 7.7422959e-39
2.3084123 0.17239022 -1.0509293 7.8337461e-39
2.3339863 0.19215214 -1.0596958 7.7426336e-39
2.1639366 -0.17839663 -0.96637762 9.3103377e-39
2.1671815 -0.15945114 -0.97718841 7.0025673e-39
2.1898112 -0.1634753 -0.99680948 7.3695421e-39
2.1457224 -0.12594509 -0.97213387 8.293662e-39
2.1632469 -0.13813989 -0.98608375 8.4791365e-39
2.1445749 -0.10459758 -0.97625232 8.2018293e-39
2.1430097 -0.074656032 -0.97554713 8.2947424e-39
2.1445236 -0.053360924 -0.97625232 8.5706077e-39
2.160393 -0.036530368 -0.97881812 8.7542632e-39
2.1658235 -0.016796121 -0.98315048 8.7539087e-39
2.3148899 0.048275549 -1.0239049 5.8954812e-39
2.2807658 0.076728277 -1.0121078 6.0806124e-39
2.309885 0.066428348 -1.0118126 6.3589915e-39
2.2722278 0.10608979 -1.0128931 7.0036435e-39
2.277072 0.1379552 -1.0121208 7.3731281e-39
2.2895308 0.15688142 -1.017673 7.3717057e-39
2.3124669 0.17016257 -1.0214887 7.647215e-39
2.3418689 0.18817781 -1.0308872 7.7397386e-39
2.1420152 -0.18451399 -0.9290399 1.4150285e-38
2.1536577 -0.17717388 -0.9433043 9.0215343e-39
2.1684558 -0.16119576 -0.94979042 8.017808e-39
2.1524887 -0.13447778 -0.94742286 7.7426406e-39
2.1507208 -0.10449855 -0.9466694 8.1107057e-39
2.1524289 -0.074701667 -0.94742286 8.3865681e-39
2.1706204 -0.058015563 -0.94149673 8.6617369e-39
2.1508317 -0.054208558 -0.95318878 8.4791225e-39
2.173806 -0.042641364 -0.95405477 8.9379328e-39
2.2093728 -0.038606774 -0.95514953 8.7531842e-39
2.1808398 -0.01513193 -0.96462661 8.7538891e-39
2.1977217 -0.023959091 -0.96737289 8.845726e-39
2.3302372 0.030008316 -1.0057608 4.0534057e-39
2.3506052 0.030226851 -0.99951804 4.5972104e-39
2.3004251 0.056862921 -0.97820127 6.7248986e-39
2.3248699 0.047160756 -0.99973524 5.7107425e-39
2.2607887 0.091913216 -0.99032778 7.3717071e-39
2.2868748 0.074662231 -0.98219335 6.8181732e-39
2.2643182 0.10984703 -0.97735643 6.9107304e-39
2.2812903 0.092557572 -0.9798035 6.5426681e-39
2.2868116 0.13805303 -0.98219329 7.6479143e-39
2.3226655 0.1666632 -0.99883121 7.9241564e-39
2.3504567 0.17889467 -0.99951804 7.6486584e-39
2.1581714 -0.18570882 -0.92683035 1.3150498e-38
2.176414 -0.1812502 -0.92076272 1.0130729e-38
2.1615162 -0.15154766 -0.91447484 7.4653363e-39
2.1763957 -0.16290745 -0.92076272 8.1089148e-39
2.1347229 -0.1243047 -0.89861989 7.1865984e-39
2.1548674 -0.13522631 -0.91740251 7.4649706e-39
2.1347146 -0.11587536 -0.89861989 7.0011282e-39
2.1525373 -0.10302984 -0.91611236 7.6479255e-39
2.1597562 -0.081098914 -0.92065263 8.1088882e-39
2.1812141 -0.066726439 -0.92098743 7.9234306e-39
2.2058065 -0.058828082 -0.93793631 8.3858422e-39
2.1938117 -0.04686087 -0.91730845 8.3833269e-39
2.2097964 -0.038528059 -0.93338203 8.9375811e-39
2.1945498 -0.023775104 -0.91452497 9.6748084e-39
2.2980504 0.047585312 -0.95279932 7.4635412e-39
2.3195724 0.043538943 -0.97647166 7.4649748e-39
2.2728605 0.081167117 -0.94622499 6.2657099e-39
2.2872708 0.065480962 -0.95803404 6.4493809e-39
2.2720106 0.10313086 -0.94925159 7.0039812e-39
2.2888873 0.11603673 -0.95193857 7.4642573e-39
2.2955685 0.13903499 -0.9547171 7.2798548e-39
2.3075147 0.16339484 -0.95188683 7.4617308e-39
2.3212588 0.16948566 -0.96984524 8.3822269e-39
2.1843491 -0.17837621 -0.8917349 8.8475659e-39
2.1716528 -0.15153751 -0.87740839 8.4773344e-39
2.1840498 -0.16225493 -0.89277172 8.7542829e-39
2.1369464 -0.12430248 -0.8904891 6.8181774e-39
2.1596644 -0.13469145 -0.88499808 7.7415616e-39
2.1647336 -0.10438821 -0.88832003 6.4504571e-39
2.1693275 -0.078954488 -0.88564539 5.804352e-39
2.1831038 -0.066601247 -0.89588177 5.7103725e-39
2.1715546 -0.053333893 -0.87740839 8.9375587e-39
2.1867425 -0.044301081 -0.8946228 1.2346293e-38
2.2149804 -0.032661099 -0.90429455 1.3911468e-38
2.2241509 -0.019025711 -0.90537125 1.2715815e-38
2.3172436 0.029598992 -0.9168008 1.013794e-38
2.3001761 0.047491658 -0.92455387 7.3724218e-39
2.279721 0.078484431 -0.92114693 6.4493879e-39
2.2799852 0.10986271 -0.92006594 7.0954748e-39
2.293179 0.11062451 -0.93626457 7.3731224e-39
2.2812452 0.13078263 -0.91538179 6.817097e-39
2.3015308 0.14107694 -0.92835724 7.1862131e-39
2.3171163 0.15690902 -0.9168008 7.182962e-39
2.3428519 0.16808549 -0.9396314 8.1067316e-39
2.1922872 -0.17836827 -0.8627072 8.6642564e-39
2.1492012 -0.14957832 -0.84576964 8.6627935e-39
2.1650755 -0.15717804 -0.85883147 8.4784162e-39
2.1911447 -0.16977122 -0.86685401 8.7549905e-39
2.1483924 -0.13512878 -0.84867346 7.9252172e-39
2.1609793 -0.12510416 -0.85947675 7.4631769e-39
2.1502666 -0.10321577 -0.84170425 5.8047346e-39
2.1627102 -0.10398083 -0.86017704 5.8025766e-39
2.1502371 -0.073713019 -0.84170425 6.1738772e-39
2.167938 -0.074438438 -0.86227816 5.1597239e-39
2.1491044 -0.052640747 -0.84576964 6.9056899e-39
2.1657021 -0.041538168 -0.85814703 1.0132143e-38
2.1887391 -0.032202937 -0.87514764 1.3454445e-38
2.1782782 -0.019169357 -0.85269737 1.3545207e-38
2.19473 -0.017194187 -0.86834806 1.3453375e-38
2.3051667 0.029388752 -0.89272565 1.6592678e-38
2.2885311 0.052238189 -0.88902724 5.4366583e-39
2.3051579 0.03841627 -0.89272565 1.0424589e-38
2.2735004 0.082399316 -0.87943316 5.5281519e-39
2.2861457 0.072727561 -0.8976748 5.437394e-39
2.2755702 0.1002069 -0.87179977 5.8965658e-39
2.2876434 0.11068538 -0.89205956 6.3568335e-39
2.2879443 0.13228352 -0.89088029 6.7252475e-39
2.3050494 0.14674649 -0.89272565 6.3571839e-39
2.3098474 0.15831643 -0.89219767 7.7375862e-39
2.3484099 0.1734585 -0.91148907 1.1705255e-38
2.1852021 -0.18568179 -0.82798636 1.0223285e-38
2.1491957 -0.15251556 -0.82153928 8.2018083e-39
2.1805396 -0.17047404 -0.83076394 8.7553604e-39
2.148066 -0.13229665 -0.82289988 7.0021889e-39
2.1396978 -0.10249237 -0.81969291 6.6341337e-39
2.1413352 -0.073245674 -0.82033813 7.0014757e-39
2.1446419 -0.043980978 -0.82161897 7.2773339e-39
2.1577415 -0.018071728 -0.8140595 9.2119722e-39
2.1764197 -0.012414461 -0.83509755 1.5113237e-38
2.1784897 0.0088029392 -0.82654715 1.2901995e-38
2.2791641 0.028988438 -0.85891867 9.1201955e-39
2.2820795 0.049022555 -0.84818435 5.3451913e-39
2.2948895 0.045328576 -0.86580217 5.8040115e-39
2.2656343 0.077446185 -0.84914029 5.1600868e-39
2.2731476 0.10878144 -0.85198337 6.2657057e-39
2.2818029 0.129889 -0.84889996 6.3579125e-39
2.2957418 0.13856693 -0.86234313 6.7259538e-39
2.3098118 0.14675125 -0.87531006 6.7284677e-39
2.31459 0.16383953 -0.86630654 9.3049175e-39
2.3436012 0.17637771 -0.88811952 1.4289625e-38
2.3460083 0.18553975 -0.87928432 1.4472945e-38
2.2047701 -0.18695396 -0.81709218 1.1050169e-38
2.1522257 -0.1564043 -0.79227728 8.8468428e-39
2.181771 -0.17071883 -0.80256915 9.5851253e-39
2.1355124 -0.1225975 -0.77820784 7.8355439e-39
2.1470153 -0.13345644 -0.7930482 7.649366e-39
2.1351264 -0.10227086 -0.77954471 7.3727749e-39
2.1450596 -0.10188912 -0.80008423 7.0947405e-39
2.13464 -0.07270477 -0.78121573 7.0951034e-39
2.1446366 -0.073190182 -0.80152607 7.3695435e-39
2.1346109 -0.043600194 -0.78121573 7.5546523e-39
2.1459873 -0.043891564 -0.7964797 7.0022001e-39
2.1365094 -0.022809293 -0.77419728 7.9208998e-39
2.148165 -0.013545795 -0.78840554 7.3691764e-39
2.1546638 0.012235669 -0.78880948 1.2718654e-38
2.183553 0.027720347 -0.80480492 1.2824563e-38
2.1798415 0.036118474 -0.78991354 6.0633372e-39
2.2090743 0.045200922 -0.80050492 5.980491e-39
2.2552853 0.054924205 -0.81724614 4.7923385e-39
2.2689934 0.050892036 -0.83158159 4.6079808e-39
2.2542925 0.073873669 -0.81069988 4.7920105e-39
2.2697413 0.080360688 -0.82873923 5.2519279e-39
2.2575481 0.10759438 -0.80877906 5.7114431e-39
2.270102 0.10835556 -0.82731801 5.5288637e-39
2.2784448 0.13275133 -0.82434267 6.1734989e-39
2.3021197 0.14574541 -0.83899456 6.4508088e-39
2.289607 0.15363748 -0.82027519 7.0940174e-39
2.3036785 0.16367725 -0.83322954 8.0130927e-39
2.3169334 0.16932718 -0.84918672 8.934707e-39
2.3246067 0.1849591 -0.83471721 1.4199237e-38
2.1577873 -0.15775123 -0.75926155 1.0044666e-38
2.1415539 -0.1319465 -0.75614989 8.7546332e-39
2.1529794 -0.13596168 -0.77124792 9.0322935e-39
2.1409752 -0.10180303 -0.75815523 8.0177898e-39
2.1380022 -0.072604366 -0.75712526 7.3717015e-39
2.1365016 -0.043504111 -0.75661039 7.4628055e-39
2.138998 -0.01684507 -0.75749302 7.4635202e-39
2.1565299 -0.0062131151 -0.75779098 7.5546452e-39
2.1430399 0.027090844 -0.75013405 7.1858291e-39
2.1591334 0.013902525 -0.76639462 7.9248389e-39
2.2159128 0.010815082 -0.77562404 7.0951202e-39
2.1430316 0.035406437 -0.75013405 6.4497424e-39
2.163064 0.046534728 -0.75970078 4.9738907e-39
2.1890314 0.053224925 -0.77520096 4.5139901e-39
2.1887596 0.070065022 -0.75717795 4.2363298e-39
2.2259395 0.071305878 -0.77917397 4.2381151e-39
2.2538614 0.083918512 -0.79201895 4.5129181e-39
2.2604957 0.10752556 -0.79126275 5.4366443e-39
2.2628157 0.13267961 -0.78942573 6.2649686e-39
2.2759006 0.13930266 -0.80599982 6.5412122e-39
2.2897375 0.15499394 -0.79401541 6.6337694e-39
2.3110495 0.16880757 -0.80625719 6.6312442e-39
2.3344977 0.19239065 -0.80761993 1.2904878e-38
2.1659398 -0.1559758 -0.73151088 1.0781861e-38
2.2005963 -0.17230676 -0.7432133 1.4559683e-38
2.1483133 -0.12812842 -0.73141825 9.1234101e-39
2.1640239 -0.14013596 -0.73087704 9.3992781e-39
2.1235178 -0.094743788 -0.71202761 8.3862136e-39
2.140317 -0.10410861 -0.73162264 8.478768e-39
2.1224651 -0.070732996 -0.71578878 7.925234e-39
2.1326196 -0.074310452 -0.73553514 7.6486415e-39
2.1232536 -0.047130819 -0.71281934 7.1890983e-39
2.1340032 -0.040838968 -0.73035371 7.2787884e-39
2.1345632 -0.019902369 -0.72822791 7.4624426e-39
1.9496235 0.011017785 -0.66969419 1.0499858e-38
2.1385584 0.026970766 -0.726717 7.6479213e-39
2.143646 0.045550738 -0.72743833 6.5419254e-39
2.1733608 0.076153107 -0.73233831 4.6987387e-39
2.1921041 0.082794987 -0.74490207 4.054077e-39
2.2203715 0.088203065 -0.75903678 4.236683e-39
2.2014472 0.095833689 -0.73912132 4.5139607e-39
2.2393293 0.10612296 -0.75030303 4.5150663e-39
2.2534754 0.11211728 -0.76299906 5.2501188e-39
2.2664547 0.13372687 -0.76095206 5.8961931e-39
2.2947958 0.15938683 -0.76445413 6.7245272e-39
2.319351 0.17803715 -0.77586704 7.1840621e-39
2.3213851 0.19357876 -0.76837248 9.0326452e-39
2.3400614 0.1984219 -0.78725213 1.1985083e-38
2.173089 -0.15420847 -0.70452029 1.0690737e-38
2.1553271 -0.12999721 -0.69612825 8.7553534e-39
2.1684401 -0.14013155 -0.71472871 9.3081769e-39
2.129801 -0.098431639 -0.68906409 8.6624291e-39
2.1430135 -0.11355513 -0.6976704 8.6627809e-39
2.1242442 -0.071603239 -0.69159412 8.2940138e-39
2.1186633 -0.042816747 -0.6897828 7.6482814e-39
1.9286216 -0.010477724 -0.63840067 9.8526836e-39
2.1219718 -0.022427501 -0.69087958 9.9448891e-39
1.9277146 0.012823889 -0.6375891 1.0314382e-38
1.9038565 0.057033326 -0.62762028 8.2896711e-39
1.9160569 0.049241852 -0.62852734 8.103852e-39
2.1406848 0.035198584 -0.70564193 7.370956e-39
2.1328709 0.080121063 -0.67718655 6.6319435e-39
2.1516998 0.080988213 -0.70057833 6.1717024e-39
2.1328545 0.096539408 -0.67718655 6.356088e-39
2.1560857 0.10347384 -0.6915347 5.5274204e-39
2.1704054 0.10261916 -0.70665455 5.0660751e-39
2.1999073 0.11249822 -0.71625841 4.7902169e-39
2.1900582 0.12863149 -0.69534975 4.7901987e-39
2.2043583 0.13795589 -0.69989061 4.7905532e-39
2.236753 0.13440908 -0.71918303 4.9745913e-39
2.2657676 0.14202464 -0.73310542 5.1579036e-39
2.2806461 0.16467439 -0.72410828 5.1600574e-39
2.3031187 0.16844051 -0.74319333 5.618537e-39
2.3245502 0.18162841 -0.75684232 7.0936615e-39
2.3118813 0.18927081 -0.73869455 8.0116591e-39
2.3251235 0.19955927 -0.7546804 8.9411866e-39
2.1772804 -0.14849336 -0.68243206 9.9510324e-39
2.1629035 -0.13376945 -0.66843712 9.492571e-39
2.1320961 -0.10332888 -0.66078734 8.3862066e-39
2.1539135 -0.11354423 -0.65781283 9.4010704e-39
2.1228988 -0.075375229 -0.66114515 8.201451e-39
2.1092114 -0.038403571 -0.65419716 8.0156178e-39
2.1213691 -0.051719129 -0.66665339 7.6475639e-39
1.9221619 -0.0091685867 -0.60641629 1.2060704e-38
2.1085153 -0.022198753 -0.65668398 1.0860722e-38
1.9100116 0.017116787 -0.59930164 1.1694087e-38
1.9220928 0.015494356 -0.61416137 1.1049423e-38
1.9053394 0.049538705 -0.601138 1.077141e-38
1.8915558 0.067287095 -0.58536988 4.9738711e-39
2.1034935 0.08287517 -0.64812613 6.1677479e-39
2.12166 0.087779589 -0.66507959 6.629054e-39
2.1081524 0.10619938 -0.64995885 5.6181615e-39
2.1216354 0.11225297 -0.66507959 5.8029199e-39
2.110137 0.13715708 -0.6501708 4.3303107e-39
2.1216152 0.13264745 -0.66507959 4.7894798e-39
2.1099379 0.158089 -0.65082216 4.4214176e-39
2.1252379 0.17226028 -0.6605317 6.8181382e-39
2.1381819 0.18274112 -0.65739048 1.1614039e-38
2.1573431 0.19540127 -0.66183317 1.5479085e-38
2.1460645 -0.12099061 -0.62967598 1.0597488e-38
2.1677108 -0.12906364 -0.64987469 1.0689685e-38
2.1415839 -0.10028719 -0.63006258 9.3081601e-39
2.1582732 -0.11353987 -0.64186978 9.3999984e-39
2.1181757 -0.064728558 -0.62151301 7.1858585e-39
2.1308243 -0.077962957 -0.63217342 8.2010895e-39
2.117085 -0.042447072 -0.62542093 6.265354e-39
1.9203999 -0.0054290621 -0.56735426 1.6116929e-38
1.9280136 -0.0091627352 -0.58501846 1.353297e-38
2.1132932 -0.019458806 -0.62151039 6.7122897e-39
1.9121702 0.022181354 -0.5716849 1.5561624e-38
1.9295309 0.0061559603 -0.57941431 1.5837119e-38
1.9141316 0.047068018 -0.57404459 1.4639659e-38
1.9308692 0.061087865 -0.5743196 1.3265015e-38
1.9346968 0.068618305 -0.57545966 7.0007442e-39
2.0900047 0.082127742 -0.62163317 3.6846022e-39
2.1036775 0.087219283 -0.62090069 4.1437685e-39
2.105741 0.10689028 -0.62212873 4.2384724e-39
2.1118691 0.13550973 -0.62394005 4.2381193e-39
2.1173074 0.16255288 -0.62385774 3.87005e-39
2.1312537 0.17752503 -0.62966973 4.1448419e-39
2.142513 0.18274544 -0.64155364 3.866806e-39
2.1649656 0.19631341 -0.63901061 4.1426923e-39
2.1846528 0.20726648 -0.65417248 9.0369332e-39
2.2230141 0.21830046 -0.65412354 1.178375e-38
2.2539856 0.2265707 -0.66594011 1.5858384e-38
2.152843 -0.094010815 -0.6047895 7.1880277e-39
2.1655345 -0.10802313 -0.61529809 1.0137572e-38
2.1245859 -0.062696464 -0.59806573 4.7912861e-39
2.1390381 -0.075359084 -0.60212862 5.6192727e-39
2.1178248 -0.042326458 -0.59617794 4.2391927e-39
2.1155496 -0.014014754 -0.59554869 4.5110979e-39
1.9217645 0.019994702 -0.54559076 1.65754e-38
1.9357973 0.0093312981 -0.5564881 1.6943467e-38
2.1214464 0.0048233662 -0.59160769 1.0859228e-38
1.9202067 0.049565502 -0.54440308 1.630061e-38
1.9251719 0.069917947 -0.54962891 8.4787497e-39
1.9406146 0.068492115 -0.53865659 1.0688209e-38
2.1005571 0.086140133 -0.58303219 4.1394567e-39
2.1102505 0.087992646 -0.59686244 3.8653851e-39
2.1109395 0.10677987 -0.59427369 3.7756992e-39
2.1142781 0.13518994 -0.59522992 3.8696913e-39
2.1213613 0.16395485 -0.59723407 3.8693298e-39
2.1387813 0.18161143 -0.60212868 4.0533399e-39
2.1544144 0.19096653 -0.59800231 4.3295835e-39
2.1734245 0.19700024 -0.61186737 3.9626156e-39
2.1945891 0.20727642 -0.61783868 5.6102497e-39
2.2099857 0.21294504 -0.62217253 7.4397542e-39
2.2346869 0.22178259 -0.63132864 1.3916477e-38
2.1574962 -0.093512498 -0.57892704 8.1099602e-39
2.1735187 -0.099062234 -0.58606917 7.4649958e-39
2.1288607 -0.062692188 -0.58243418 4.6115597e-39
2.1506255 -0.071417585 -0.57566577 5.4384576e-39
2.17786 -0.080463387 -0.57012612 6.6352057e-39
2.1048954 -0.0299088 -0.56759185 4.424293e-39
2.1258063 -0.043139022 -0.56876296 4.6083396e-39
2.1052527 -0.015673978 -0.56033564 4.1466467e-39
2.1160104 -0.0086181629 -0.5761525 3.9633233e-39
1.9335419 0.025810091 -0.5157091 1.4271573e-38
2.1080263 0.0061108642 -0.55601156 3.8657537e-39
2.1200123 0.010180956 -0.57029617 6.3485252e-39
1.9269139 0.049514182 -0.51205862 1.5194261e-38
1.934706 0.070479468 -0.50781226 7.8287028e-39
1.9425651 0.068494067 -0.531524 9.7687711e-39
2.1026683 0.086142242 -0.57531202 4.2327271e-39
2.1190293 0.087464675 -0.56476206 4.1412335e-39
2.1079342 0.098153017 -0.55601156 3.7785663e-39
2.1179464 0.10839716 -0.56864518 3.7778558e-39
2.1183448 0.13496713 -0.56709194 3.6849469e-39
2.1233821 0.16759512 -0.5684551 3.6852944e-39
2.1537819 0.19311146 -0.57376987 4.2381137e-39
2.1848428 0.2070985 -0.5877685 5.239312e-39
2.1911061 0.21839774 -0.57367045 9.6812404e-39
2.2100284 0.22061116 -0.5916611 1.2999919e-38
2.2288918 0.2228245 -0.60986769 1.4567599e-38
2.1936073 -0.089276999 -0.56564939 7.8376907e-39
2.2103424 -0.089865766 -0.56131953 1.2356025e-38
2.1631422 -0.063372277 -0.5493269 6.2667805e-39
2.1856046 -0.072307013 -0.55504441 5.9923502e-39
2.2164199 -0.077450506 -0.55421555 7.282031e-39
2.2448635 -0.082598217 -0.55258036 1.6782102e-38
2.1133404 -0.029900355 -0.53671104 4.605834e-39
2.1330936 -0.041190702 -0.53792804 5.2511894e-39
2.1562331 -0.054947384 -0.53917778 6.0816718e-39
2.1064572 -0.013857075 -0.53086191 3.7793062e-39
1.9413706 0.028894067 -0.49054462 1.3351063e-38
2.0882251 0.025791992 -0.52219963 8.9288832e-39
2.1041541 0.011300643 -0.52932525 4.3252675e-39
1.9405698 0.050368506 -0.48227558 1.5193181e-38
1.958199 0.038931698 -0.47446322 1.5286811e-38
1.9402246 0.076464906 -0.48173061 9.6704518e-39
1.957172 0.090692163 -0.47802952 4.4185771e-39
2.1236987 0.090689883 -0.54767638 3.774644e-39
2.113559 0.10349443 -0.53542435 3.5923926e-39
2.1268601 0.11484718 -0.53602707 3.5019822e-39
2.1163313 0.14618346 -0.52513075 3.7764265e-39
2.1265383 0.13325001 -0.53713655 3.7771299e-39
2.1173747 0.15819 -0.52127063 3.7764349e-39
2.1263516 0.16833083 -0.5376913 3.6852987e-39
2.1396391 0.19567835 -0.53676808 3.7756978e-39
2.1584508 0.20266782 -0.55666292 4.1423209e-39
2.142478 0.21281514 -0.53163171 9.9505924e-39
2.2045498 -0.064319253 -0.52554399 3.3093303e-39
2.224344 -0.073286615 -0.53027868 1.0333143e-38
2.2471015 -0.082595982 -0.54439646 1.9822357e-38
2.1484938 -0.031882085 -0.5105291 5.5292225e-39
2.1676965 -0.045280132 -0.51845366 5.9880454e-39
2.1969125 -0.053016793 -0.51804852 5.3412369e-39
2.1175759 -0.0085358629 -0.50345296 4.239906e-39
2.138473 -0.019356564 -0.50289816 4.885288e-39
2.0910776 0.02415741 -0.49206108 4.1390783e-39
2.1088829 0.009339245 -0.49979404 3.4097894e-39
1.9475981 0.050359387 -0.4537943 1.4548885e-38
2.0975957 0.033702284 -0.48790476 6.617213e-39
2.1070468 0.033917237 -0.50641865 1.2152492e-38
1.9478309 0.078267157 -0.45284122 1.3168834e-38
1.9620484 0.090697043 -0.46019804 9.0311304e-39
1.9522868 0.099959448 -0.45036727 5.2497741e-39
1.9630163 0.098092511 -0.45663175 5.9876923e-39
2.1220653 0.11257377 -0.50428623 3.4994921e-39
2.1182568 0.13444333 -0.49917743 3.5920212e-39
2.1321537 0.13095525 -0.51661158 3.7764083e-39
2.1220381 0.16277787 -0.49977779 3.5005459e-39
2.1337004 0.17725222 -0.51078689 3.5927499e-39
2.1432023 0.19337854 -0.50546616 3.9618743e-39
2.1624277 0.20610851 -0.51557118 2.5843573e-39
2.1906424 0.2170615 -0.52229702 9.0070547e-39
2.2107444 -0.067818172 -0.49532294 1.1053772e-38
2.2268903 -0.077293254 -0.50076324 1.8526605e-38
2.1566141 -0.030253412 -0.48082921 4.3281611e-39
2.1786401 -0.04240061 -0.48668018 4.1462824e-39
2.203738 -0.053758595 -0.50193691 4.2406557e-39
2.152041 -0.014029637 -0.47980198 5.6199748e-39
2.0975077 0.025729716 -0.46361452 3.5931016e-39
2.1237702 0.010882573 -0.4718861 4.2395584e-39
1.9534155 0.058153223 -0.42554227 1.4640723e-38
1.97054 0.051268205 -0.42929012 1.3259209e-38
2.0794475 0.045010746 -0.45566109 7.4494456e-39
2.0918269 0.036123428 -0.45970854 3.4969655e-39
1.9483297 0.078705333 -0.42321488 1.4365216e-38
1.9541811 0.1021693 -0.42489839 1.0405127e-38
1.9848371 0.11605807 -0.42226577 7.187271e-39
2.11535 0.12140082 -0.47573611 3.2246904e-39
2.1068716 0.13642354 -0.45360988 3.4994963e-39
2.1163828 0.13730645 -0.47190079 3.5916709e-39
2.1068518 0.15617582 -0.45360988 3.4090803e-39
2.1228137 0.16674067 -0.47102278 3.3172294e-39
2.1300142 0.18621552 -0.47494948 3.5034227e-39
2.1495438 0.20005156 -0.47930482 4.054084e-39
2.2166159 -0.067753583 -0.46626905 1.3176796e-38
2.1645565 -0.033718072 -0.45179921 4.6991087e-39
2.1816633 -0.048032306 -0.46132472 5.3455543e-39
2.2094448 -0.055639125 -0.45453912 4.7023317e-39
2.1407626 -0.005861911 -0.4363485 2.7658591e-39
2.1575487 -0.014750881 -0.45323056 3.9611751e-39
2.1111505 0.025814917 -0.43836769 4.1452048e-39
2.1299725 0.010088408 -0.44390246 4.1470027e-39
2.1471491 0.0021481498 -0.46224806 5.3433739e-39
1.9671936 0.058321748 -0.39600968 1.2150716e-38
2.013041 0.054700311 -0.41033971 9.9437442e-39
2.0856206 0.048919678 -0.43307394 5.3275574e-39
2.1017618 0.041407004 -0.43321553 3.8661152e-39
1.9634724 0.07900051 -0.39651099 1.4917311e-38
1.9663241 0.10408627 -0.39485207 1.3812755e-38
1.9835148 0.11695156 -0.4043518 1.0775343e-38
1.9815167 0.12768902 -0.38887206 8.1139217e-39
2.0896523 0.13478431 -0.41801584 6.5379836e-39
2.1043365 0.14045876 -0.43470401 3.4976886e-39
2.1113162 0.15787336 -0.43727899 3.4090733e-39
2.1243176 0.17389496 -0.44275236 3.4101355e-39
2.1374035 0.18622291 -0.44792879 3.5027109e-39
2.1570008 0.20005901 -0.45203635 4.0544539e-39
2.1606457 0.21283332 -0.46519765 4.6890025e-39
2.3597491 0.24105078 -0.49901852 7.8376515e-39
2.3930771 0.23548779 -0.50606161 3.9604576e-39
2.3763998 0.2516546 -0.50254011 1.1250368e-38
2.3907034 0.24445057 -0.51470923 8.6670857e-39
2.2194905 -0.064030319 -0.4355275 1.0332387e-38
2.2390301 -0.073095791 -0.4563553 1.9267424e-38
2.1701534 -0.03294079 -0.43132934 6.1713507e-39
2.1910837 -0.041390404 -0.42348278 5.4355849e-39
2.2138047 -0.055634767 -0.4385961 3.9629631e-39
2.1460407 -0.0058566327 -0.41704804 4.6086773e-39
2.1657414 -0.018038772 -0.42087239 5.2540719e-39
2.1120431 0.02574425 -0.4104625 4.054091e-39
2.1322429 0.010085543 -0.41437098 4.1477201e-39
1.9401352 0.059746671 -0.36605504 1.2156795e-38
1.9608816 0.060442645 -0.37738207 1.2893305e-38
2.1109447 0.042191699 -0.40769756 4.2356054e-39
2.1353416 0.057802428 -0.40286505 6.434607e-39
1.9644331 0.078749187 -0.36693567 1.500951e-38
1.9705075 0.10835139 -0.36807135 1.4733273e-38
1.975527 0.12693439 -0.36528581 1.2798981e-38
1.9898375 0.13159274 -0.36980456 9.7676809e-39
2.1065619 0.14739203 -0.40542057 3.9575794e-39
2.1183045 0.16606344 -0.4116939 3.409425e-39
2.1289291 0.1770805 -0.42587698 3.5923673e-39
2.1203711 0.18384258 -0.40407282 3.5005318e-39
2.1363022 0.1880848 -0.41656661 3.960445e-39
2.1620853 0.19773015 -0.42018458 3.8696927e-39
2.1850226 0.20613109 -0.43294811 4.2377564e-39
2.2611268 0.21299618 -0.43516397 4.3310366e-39
2.290663 0.22431746 -0.44084746 3.5923968e-39
2.31761 0.22739764 -0.46361038 3.5963358e-39
2.3437459 0.23521678 -0.46884933 5.0606745e-39
2.3620853 0.23663291 -0.49049127 5.6181671e-39
2.3620722 0.24989346 -0.49049127 1.1062024e-38
2.2077224 -0.063464709 -0.404001 1.3473144e-38
2.2225327 -0.063890263 -0.40671003 1.3653591e-38
2.1815526 -0.032929391 -0.38964522 4.9760543e-39
2.2000663 -0.046904542 -0.40298623 5.3412397e-39
2.15343 -0.0058492436 -0.39002734 5.1607959e-39
2.1725295 -0.015999872 -0.3894079 4.9760529e-39
2.1218572 0.024188191 -0.37950838 3.7771538e-39
2.1417985 0.0093721617 -0.38425565 4.3314037e-39
1.9685947 0.060450356 -0.34917736 8.2878284e-39
2.1218333 0.044698764 -0.37952065 3.6838693e-39
2.1374393 0.057804525 -0.39519441 5.9768869e-39
1.9741828 0.079572529 -0.33979401 1.4824737e-38
2.1298683 0.065338247 -0.36977798 6.708666e-39
2.1651373 0.066577181 -0.39623526 1.095213e-38
1.9768851 0.10828207 -0.33953798 1.5653437e-38
1.9823133 0.12694117 -0.34047043 1.4640715e-38
1.994188 0.13509619 -0.34251019 1.335357e-38
2.0674732 0.14765386 -0.35122323 8.4794728e-39
2.0901544 0.14948939 -0.36684427 6.2671294e-39
2.1117365 0.15132383 -0.38648289 3.4036769e-39
2.1202128 0.16755159 -0.38007024 3.0402922e-39
2.1273155 0.18648314 -0.37866923 3.8689626e-39
2.1439068 0.1972973 -0.38430193 4.0547986e-39
2.1650004 0.20345052 -0.39623526 3.8729437e-39
2.2920249 0.22609589 -0.42164358 3.9615352e-39
2.3139315 0.23499395 -0.43659535 5.3340342e-39
2.213136 -0.063459292 -0.38420495 1.8257966e-38
2.1882489 -0.031842329 -0.36515582 5.067894e-39
2.2072437 -0.047610957 -0.37191746 6.3593531e-39
2.1629305 -0.0058397427 -0.35528645 4.2395388e-39
2.1809201 -0.017017171 -0.3653647 4.6076193e-39
2.1286628 0.025760869 -0.34968942 4.3310492e-39
2.1513369 0.010104636 -0.35339418 4.4225134e-39
2.1222003 0.04531588 -0.34860751 3.2239646e-39
1.9893833 0.085601903 -0.3147687 1.5836361e-38
2.0089824 0.079872407 -0.31135896 1.3995674e-38
2.0388286 0.077305928 -0.31595936 1.0033432e-38
2.0736136 0.071036115 -0.32905021 5.5104927e-39
2.1103086 0.06845814 -0.34272534 5.3368858e-39
2.1201091 0.064946838 -0.35618263 4.8683743e-39
1.989405 0.10853679 -0.31199914 1.6389194e-38
1.9881301 0.126947 -0.31920004 1.5468313e-38
2.010601 0.13317621 -0.31282759 1.5007691e-38
2.0387576 0.14525451 -0.32734337 1.2432712e-38
2.0655768 0.15472721 -0.32780364 7.0972488e-39
2.1015489 0.1633155 -0.33744726 3.037051e-39
2.1210396 0.17040522 -0.35239512 3.2239506e-39
2.1299784 0.19063583 -0.35099432 3.7774747e-39
2.1519799 0.20096043 -0.34149992 3.8700234e-39
2.2744596 0.22143887 -0.38637915 3.962582e-39
2.2994032 0.23087154 -0.39748919 3.503078e-39
2.3268018 0.24389856 -0.39960933 4.6043837e-39
2.1918712 -0.035551488 -0.33423251 5.5277889e-39
2.2106414 -0.051396776 -0.34020787 1.0969834e-38
2.1623468 -0.012025446 -0.32795852 4.7008925e-39
2.1797359 -0.019289611 -0.34316614 4.8842076e-39
2.1380284 0.019844543 -0.31546357 4.053728e-39
2.1557679 0.0089730239 -0.32835031 4.0548042e-39
2.1181514 0.049732763 -0.31411505 3.2239716e-39
2.1316137 0.037503887 -0.32242861 3.6849441e-39
1.9972812 0.08873374 -0.28587648 1.5098809e-38
2.0148132 0.083516777 -0.28244266 1.0129203e-38
2.0763609 0.078554459 -0.30381146 5.6981098e-39
2.1034658 0.06928575 -0.31298572 2.3927816e-39
1.9978431 0.10858057 -0.28374946 1.6388823e-38
1.9968553 0.12695572 -0.28729451 1.5281038e-38
2.0239248 0.13794336 -0.28683472 1.436196e-38
2.0407462 0.14504734 -0.30869931 1.454671e-38
2.0516884 0.15695736 -0.29897085 9.3963718e-39
2.077564 0.16298875 -0.31426823 5.5320685e-39
2.1204979 0.1738427 -0.30508009 2.2094427e-39
2.1293211 0.17490108 -0.32209483 2.7629794e-39
2.1365101 0.19043422 -0.31815118 3.9604366e-39
2.1540775 0.20096253 -0.33382928 3.3200965e-39
2.2822418 0.22144665 -0.35792133 3.6845742e-39
2.3109274 0.23287718 -0.36671445 3.7764223e-39
2.3268237 0.2344784 -0.36923596 2.6761858e-39
2.3404279 0.2447342 -0.38010767 5.0531103e-39
2.3671188 0.25052971 -0.3873691 6.355365e-39
2.3996575 0.25967604 -0.38524011 1.0321538e-38
2.4261494 0.27138147 -0.38499504 1.3920456e-38
2.2011976 -0.041491035 -0.30368707 9.0315746e-39
2.2164862 -0.054887131 -0.31884956 1.8993704e-38
2.1718924 -0.013804482 -0.30042902 5.1597183e-39
2.044703 0.031975996 -0.24915276 3.5985036e-39
2.0667922 0.024779731 -0.25938791 3.2246961e-39
2.0908437 0.021247817 -0.26622677 3.6878112e-39
2.1207979 0.022368416 -0.28482312 3.7782103e-39
2.1467743 0.012658483 -0.29172143 4.3313953e-39
2.1637158 0.0021647168 -0.29931143 4.7916588e-39
2.0394714 0.052798662 -0.25000975 2.4838898e-39
2.0547457 0.043452099 -0.25787914 2.0247221e-39
2.0870004 0.046468209 -0.27109021 2.4860492e-39
2.1103792 0.04369105 -0.28879356 2.8555492e-39
2.0065908 0.086012885 -0.25184396 1.0586626e-38
2.0256643 0.076265238 -0.25795323 5.7049747e-39
2.0517375 0.073555529 -0.26876917 2.8497885e-39
2.0787606 0.068828419 -0.27611795 2.4827982e-39
2.1042097 0.06784378 -0.29110458 2.5793098e-39
2.0060155 0.10753866 -0.25386971 1.3532565e-38
2.0146873 0.11663044 -0.26761791 1.6850159e-38
2.0069349 0.12990598 -0.2504259 1.0033461e-38
2.02789 0.14331305 -0.26059875 1.150965e-38
2.058259 0.1591676 -0.27190346 6.9088723e-39
2.1167927 0.17643455 -0.28341743 2.487117e-39
2.1399889 0.19273056 -0.28918129 3.7771313e-39
2.2495096 0.20885614 -0.30706605 3.9629786e-39
2.2846999 0.22094025 -0.32871747 3.5930918e-39
2.3150673 0.23250976 -0.33736038 3.960459e-39
2.350704 0.24474448 -0.34253144 3.5920282e-39
2.3789706 0.24816358 -0.36425728 4.5982754e-39
2.4026778 0.25937754 -0.36345538 7.177553e-39
2.4308791 0.27138618 -0.36769983 1.1421804e-38
2.4477925 0.28230217 -0.37025854 1.3554925e-38
2.1840668 -0.029829629 -0.27808452 5.0682457e-39
2.2025898 -0.044602305 -0.27561045 1.3086369e-38
2.1524935 -0.0057156235 -0.2544488 5.1597351e-39
2.1787212 -0.015382121 -0.27104315 5.3430249e-39
2.0496409 0.028239647 -0.23110881 5.0682387e-39
2.0567498 0.02463758 -0.25061911 4.6990862e-39
2.0878642 0.017347587 -0.24301772 4.422519e-39
2.1216114 0.0083193127 -0.2523309 4.5161369e-39
2.1515427 0.0021525435 -0.26611066 5.066808e-39
2.0367963 0.050358001 -0.22966246 5.0685932e-39
2.0133841 0.079194225 -0.22702849 4.8838362e-39
2.0133548 0.10859607 -0.22702849 4.8834803e-39
2.0133326 0.13064742 -0.22702849 4.882051e-39
2.0329258 0.14677714 -0.22924668 4.7902029e-39
2.0504971 0.15918554 -0.22750011 4.1477426e-39
2.0585997 0.16011842 -0.24335909 4.3314023e-39
2.0937438 0.17034438 -0.23991188 3.2264799e-39
2.1158006 0.17761049 -0.256533 3.1339157e-39
2.1488962 0.19243625 -0.26030621 3.9600835e-39
2.1740055 0.20098245 -0.26095822 4.146274e-39
2.2856619 0.22191466 -0.2968891 3.5938233e-39
2.3166876 0.23189212 -0.3077451 3.5019878e-39
2.3518279 0.24392357 -0.30809617 2.6740194e-39
2.3787329 0.24999331 -0.32468203 4.1401559e-39
2.4119737 0.26463747 -0.33558357 9.9419786e-39
2.423341 0.27840981 -0.33079144 1.2903795e-38
2.194623 -0.029819071 -0.23948354 2.8540918e-39
2.2107568 -0.042207837 -0.25192925 1.4194516e-38
2.1652732 -0.0096771568 -0.23237209 5.2522768e-39
2.1798904 -0.020085543 -0.2402475 5.4355877e-39
2.0571125 0.028781587 -0.20378523 5.2511922e-39
2.0959141 0.017355639 -0.21358116 4.7898413e-39
2.1350396 0.0083518242 -0.22294211 4.1469999e-39
2.1543527 0.0021553533 -0.23119402 4.4239469e-39
2.0453973 0.050361101 -0.20105371 5.1593567e-39
2.0211399 0.079201989 -0.19866805 4.8834831e-39
2.0211103 0.10860383 -0.19866805 4.6998149e-39
2.0210884 0.13065518 -0.19866799 4.7909358e-39
2.0392449 0.14667335 -0.2004533 4.6068864e-39
2.0693538 0.16182826 -0.21312621 4.1477047e-39
2.0937448 0.16969851 -0.20958276 2.9509608e-39
2.1224554 0.18000428 -0.2239759 2.6729348e-39
2.1387627 0.18909034 -0.2218077 3.5934716e-39
2.1520925 0.19063026 -0.23876911 3.6856784e-39
2.1873412 0.20163798 -0.23872732 4.2370249e-39
2.2042911 0.20348981 -0.25256035 4.1476893e-39
2.2755563 0.21848218 -0.26485911 3.9611681e-39
2.2986474 0.22909975 -0.26757571 3.4090817e-39
2.3232739 0.240273 -0.27889109 2.9506161e-39
2.3666801 0.25341734 -0.28407958 5.3293511e-39
2.3886855 0.26193231 -0.298356 9.1136571e-39
2.1971374 -0.034557112 -0.21438466 1.1059165e-38
2.2109122 -0.04609637 -0.22926173 2.1931345e-38
2.1484735 -0.0056560347 -0.20343791 4.880979e-39
2.1670637 -0.013586073 -0.20325093 4.7930881e-39
2.1868143 -0.021669079 -0.21493438 5.3448298e-39
2.0654275 0.031996723 -0.17336848 5.1597113e-39
2.0756111 0.024656441 -0.18164887 4.9745829e-39
2.1009307 0.017338635 -0.18386297 4.6072578e-39
2.1294177 0.0065361876 -0.19563079 4.6969437e-39
2.0509682 0.050308872 -0.1721528 4.7912847e-39
2.0298538 0.09023641 -0.16676249 5.1593371e-39
2.0410602 0.075987056 -0.17132781 4.9763976e-39
2.0298352 0.10861256 -0.16676243 4.6076193e-39
2.0298135 0.1306639 -0.16676249 4.6076221e-39
2.0561883 0.14733984 -0.17261392 4.23955e-39
2.0797379 0.1620236 -0.18425193 4.0555189e-39
2.1017833 0.16970654 -0.18018869 3.2279064e-39
2.1240473 0.17945726 -0.19351412 2.5800217e-39
2.1371884 0.18832545 -0.19471151 3.3172252e-39
2.1865916 0.20099504 -0.21493438 4.0544357e-39
2.2398958 0.20618597 -0.23229206 3.964059e-39
2.2772639 0.21781601 -0.23208052 3.8678934e-39
2.3069222 0.23403804 -0.24163121 3.5005613e-39
2.3921685 0.25990525 -0.26540759 3.7753461e-39
2.3994291 0.27976325 -0.26911312 1.059314e-38
2.182761 -0.029419927 -0.17671056 1.1072134e-38
2.2015243 -0.036071252 -0.18242678 1.8344024e-38
2.1743004 -0.013578835 -0.17473409 4.3310212e-39
2.0719454 0.02947969 -0.14196128 4.6998023e-39
2.0896578 0.020951219 -0.15304458 4.5157782e-39
2.1156869 0.011285133 -0.15722191 4.4225036e-39
2.1419852 0.0034280019 -0.1696337 4.6072676e-39
2.0376391 0.060842339 -0.138402 4.6079808e-39
2.0545175 0.049491867 -0.14344484 4.7005324e-39
2.0382609 0.085344508 -0.13603862 4.7909259e-39
2.0490851 0.078270316 -0.14197451 4.6994422e-39
2.0385609 0.10862128 -0.13485689 4.4246644e-39
2.0389547 0.13014802 -0.13333765 4.7001751e-39
2.0581801 0.14570454 -0.14385277 4.5161383e-39
2.0761561 0.1592112 -0.13367197 4.884216e-39
2.0890687 0.16378978 -0.15142657 4.4228637e-39
2.1058023 0.16971056 -0.16549167 2.7712345e-39
2.1321826 0.1794654 -0.16376606 2.5807434e-39
2.153146 0.18910472 -0.16921176 3.2261142e-39
2.2102251 0.2023031 -0.18158208 4.1458928e-39
2.2191577 0.20350468 -0.19819689 3.9633107e-39
2.2463515 0.20619242 -0.20868546 4.1469803e-39
2.2778409 0.21714869 -0.20343633 4.0523043e-39
2.3060739 0.22831452 -0.21009314 3.775702e-39
2.3363011 0.23990072 -0.21704037 3.8707773e-39
2.4016607 0.25950161 -0.23791972 3.2228954e-39
2.1883187 -0.029414369 -0.15638766 1.6602733e-38
2.1633205 -0.0056316461 -0.13928898 5.3448256e-39
2.1815014 -0.017486313 -0.14431119 6.4537053e-39
2.0704939 0.028117381 -0.11505126 4.5147076e-39
2.1006794 0.017220953 -0.12412672 4.1473544e-39
2.1170151 0.0097363684 -0.12507479 4.3303121e-39
2.1404951 0.0021414959 -0.134018 4.7923693e-39
2.0492728 0.060853973 -0.095861278 4.7913113e-39
2.062053 0.050245639 -0.11456081 4.6987387e-39
2.046567 0.081771806 -0.10567831 4.6980227e-39
2.0556931 0.072304435 -0.11783336 4.5154096e-39
2.0463164 0.10862903 -0.10649638 4.7909344e-39
2.0462945 0.13068038 -0.10649641 4.883839e-39
2.0642521 0.14680845 -0.11469503 5.0667926e-39
2.0810907 0.15921614 -0.11562808 4.514702e-39
2.0939977 0.16938831 -0.12298291 3.7781991e-39
2.1280792 0.17836405 -0.12949328 3.1346318e-39
2.138284 0.17947149 -0.14145502 2.9466784e-39
2.1657794 0.18949901 -0.13944103 3.1332081e-39
2.1769509 0.19065511 -0.14786835 3.1335668e-39
2.2002265 0.20100868 -0.16507524 4.1476879e-39
2.2308388 0.20351636 -0.15548274 4.3292121e-39
2.2734895 0.21571313 -0.16248919 3.6878112e-39
2.2922115 0.22198874 -0.17740612 3.9629589e-39
2.3253627 0.23501027 -0.17997363 3.8722277e-39
2.3418963 0.23990633 -0.19658063 4.3313771e-39
2.3582141 0.25000337 -0.19373751 2.9506301e-39
2.379132 0.25690687 -0.20820442 4.1394595e-39
2.4032838 0.26398242 -0.21463795 3.9525347e-39
2.4343448 0.26764649 -0.22614628 3.4915523e-39
2.4515219 0.27843797 -0.22774222 8.5802514e-39
2.1383688 -0.0055230199 -0.09253826 1.0153421e-38
2.1623399 -0.0087262066 -0.11331692 6.7252755e-39
2.0860441 0.028232014 -0.086619496 4.6987289e-39
2.1066234 0.015699558 -0.095573612 4.331038e-39
2.1277146 0.0066997269 -0.095060766 4.7909554e-39
2.1465964 0.0021475975 -0.11170693 5.4370268e-39
2.0545385 0.057709046 -0.07661666 4.791649e-39
2.07026 0.045073852 -0.087412082 4.6079836e-39
2.0541017 0.07923495 -0.078135952 4.7909344e-39
2.0525513 0.10601011 -0.083706766 4.6076053e-39
2.0661855 0.11298468 -0.079317361 4.7912861e-39
2.0511456 0.12701 -0.088771172 4.9738893e-39
2.0780878 0.14013422 -0.085321024 4.6061872e-39
2.1037223 0.1617409 -0.093517005 3.7782005e-39
2.1330504 0.17022222 -0.088598117 3.7796411e-39
2.1518631 0.17985082 -0.10822649 3.5945211e-39
2.1740153 0.18950723 -0.10932484 3.7789278e-39
2.1890736 0.1929287 -0.11585289 3.7785691e-39
2.2096663 0.20101811 -0.13055737 4.146253e-39
2.2340245 0.20351955 -0.14383341 3.9633121e-39
2.2778203 0.21571746 -0.1466523 4.1462824e-39
2.299825 0.22841261 -0.14575146 4.4235882e-39
2.3497293 0.23991415 -0.16793697 4.1502313e-39
2.336693 0.2467892 -0.1587166 3.2160528e-39
2.3627193 0.25000787 -0.17726354 3.0431761e-39
2.3812399 0.25172919 -0.17018872 2.3942347e-39
2.0902624 0.026940208 -0.057299808 4.8827853e-39
2.1133914 0.014192197 -0.070830017 5.253367e-39
2.0619884 0.055966381 -0.04938161 4.9764018e-39
2.0736465 0.042247672 -0.058792509 4.792019e-39
2.0618575 0.079242706 -0.0497755 5.0675198e-39
2.0628011 0.10497028 -0.046230447 4.9763962e-39
2.0718172 0.10982124 -0.058734663 4.7005296e-39
2.0608401 0.1270197 -0.053320583 4.2366858e-39
2.0886972 0.13442647 -0.059471171 4.1455677e-39
2.1092424 0.14511582 -0.058228377 3.3176021e-39
2.1083248 0.15582831 -0.070642792 3.8700374e-39
2.1360393 0.16752429 -0.070095651 4.3317345e-39
2.1617305 0.17811605 -0.080364704 4.1466229e-39
2.1924877 0.19067065 -0.091055334 3.8711276e-39
2.2435818 0.2035291 -0.10888541 4.0548141e-39
2.2764781 0.20622253 -0.098521359 3.5041584e-39
2.3090932 0.22130764 -0.12098418 4.6990848e-39
2.3347013 0.23447159 -0.12560739 4.2420822e-39
2.3631577 0.23992759 -0.11883352 3.2311813e-39
2.1029294 0.032034222 -0.03623502 4.8817161e-39
2.0673718 0.058421925 -0.029686848 4.8845831e-39
2.0872767 0.046580043 -0.025180729 5.2508405e-39
2.0675371 0.077673301 -0.029011643 5.2508349e-39
2.0875654 0.082151726 -0.019446382 5.4363066e-39
2.0976253 0.10883857 -0.030853966 4.5161369e-39
2.1018453 0.12930658 -0.039843775 4.4239679e-39
2.1220636 0.13423505 -0.034131389 4.7912889e-39
2.1533747 0.14773977 -0.037105788 5.1593736e-39
2.1431484 0.15495156 -0.051728126 4.4246742e-39
2.1738722 0.16482294 -0.046575233 4.7930783e-39
2.2110307 0.18393324 -0.072555773 4.8831076e-39
2.2419097 0.18632741 -0.065779179 3.9629631e-39
2.2574024 0.18744016 -0.058405083 4.6983716e-39
2.2890458 0.20074612 -0.07912226 4.2391857e-39
2.3116386 0.20891826 -0.079877838 4.5132474e-39
2.3179362 0.2180793 -0.092199206 5.2504678e-39
2.3451943 0.2291463 -0.097366832 4.9771319e-39
2.3676338 0.23993206 -0.10246579 3.9557591e-39
2.3796136 0.25002477 -0.11548604 8.731949e-39
2.1056767 0.051917102 -0.010952054 6.268598e-39
2.1242232 0.054811493 -0.0037781796 5.1626792e-39
2.1097927 0.076936521 -0.010973555 5.7107312e-39
2.1242044 0.073627993 -0.0037781796 5.9876811e-39
2.1271617 0.10021189 -0.011063995 5.3444514e-39
2.1576939 0.10921197 -0.006288317 5.897635e-39
2.1201847 0.12254694 -0.018298237 5.435215e-39
2.1543062 0.13216637 -0.018592514 5.7136011e-39
2.1830487 0.14319476 -0.017322052 5.4352136e-39
2.1966951 0.15830787 -0.026505269 5.251181e-39
2.2139051 0.1687832 -0.029246315 5.1604217e-39
2.2380087 0.17718957 -0.027003739 5.6231879e-39
2.2595263 0.18744229 -0.050638855 4.5186537e-39
2.3027394 0.19932403 -0.055590514 4.7912749e-39
2.321897 0.20935664 -0.06005678 4.8827783e-39
2.33076 0.21853741 -0.062995426 5.2486643e-39
2.3518343 0.22496761 -0.073101848 3.8715158e-39
2.3743505 0.23711066 -0.077914029 7.9065337e-39
2.2869735 -0.0098661603 -0.0040673427 7.6432185e-39
2.3017066 -0.014038585 -0.015918987 1.3819598e-38
2.2527552 0.026187714 -0.00016939551 9.2937463e-39
2.2817168 0.020475388 -0.0099103134 1.0506661e-38
2.298806 0.011623009 -0.017584452 1.4739362e-38
2.2315927 0.046477757 0.002130894 1.3174249e-38
2.244441 0.038030781 -0.003991826 1.2801863e-38
2.2837229 0.034695752 -0.015790969 1.132779e-38
2.1583335 0.082394242 0.0035345131 6.5437303e-39
2.199297 0.080040708 0.0073643741 6.0780802e-39
2.2195358 0.072899476 0.0074205026 6.2657589e-39
2.1645451 0.094114222 0.0035447474 6.5433464e-39
2.1922684 0.10983874 0.0064121801 6.4482795e-39
2.1990969 0.12943563 -0.0014004653 5.4363108e-39
2.2173948 0.14226739 -0.00015456158 6.1724157e-39
2.2298143 0.1576156 -0.0039660106 6.0805802e-39
2.2468805 0.16952871 -0.0078583676 5.6213971e-39
2.2712154 0.17940259 -0.007924702 3.6921174e-39
2.3358948 0.20191132 -0.044279549 5.2500992e-39
2.315217 -0.06315171 0.015613794 1.7413413e-38
2.2919972 -0.046323542 0.014169442 1.6031205e-38
2.3122241 -0.035305142 0.010078516 1.3076613e-38
2.2859683 -0.011183374 0.01584073 9.5775275e-39
2.3095167 -0.022214267 0.003765302 1.0767436e-38
2.2393246 0.025943091 0.030328842 1.2154698e-38
2.2590775 0.015820086 0.022911798 1.0035637e-38
2.2808311 0.0076494189 0.0089182472 7.5542627e-39
2.3025045 0.0023035055 -0.0040950272 6.3542636e-39
2.2372208 0.045693289 0.022707667 1.5100622e-38
2.237366 0.074005067 0.023342857 1.4922e-38
2.25278 0.089729063 0.026690707 1.6495051e-38
2.2323139 0.10210492 0.021399586 4.9771641e-39
2.2527721 0.097681351 0.026690707 1.1061674e-38
2.2339997 0.14050114 0.011276107 6.3568181e-39
2.2506268 0.145393 0.019020088 2.9463814e-39
2.2543263 0.1617123 0.01137879 4.9724642e-39
2.2744012 0.17940578 0.0037246435 3.2321874e-39
2.3181829 -0.063080236 0.035306845 1.2426587e-38
2.3533678 -0.076528244 0.031865198 1.6031205e-38
2.2703326 -0.032342751 0.055047009 1.2244009e-38
2.2943532 -0.041259784 0.039132513 1.1229863e-38
2.3122454 -0.054791372 0.031314913 1.1884897e-38
2.2687614 -0.012111162 0.047606435 1.1324935e-38
2.2879515 -0.021916566 0.034846984 1.0679213e-38
2.2421811 0.025910169 0.053094573 1.3902087e-38
2.2601914 0.0094182603 0.048190683 1.2155411e-38
2.2455573 0.04570163 0.053192075 1.6204082e-38
2.2457688 0.074570596 0.054071441 1.7216783e-38
2.2726188 0.090314031 0.046163663 1.7492644e-38
2.2704995 0.098315589 0.038443483 1.7496973e-38
2.291378 0.10449917 0.047840241 1.6665058e-38
2.2798085 -0.073306218 0.081507459 1.0682435e-38
2.3073516 -0.082770586 0.070182487 1.3635581e-38
2.3246648 -0.07124868 0.058979534 1.3079154e-38
2.3457131 -0.076163419 0.043680713 1.5292564e-38
2.2696819 -0.040733378 0.077404395 1.2612783e-38
2.2999547 -0.051614668 0.060940534 1.1691186e-38
2.2665184 -0.013637074 0.076549813 1.288974e-38
2.2530155 0.018035414 0.087404929 1.3806659e-38
2.2662079 0.010942442 0.075503834 1.3993204e-38
2.2479317 0.045590702 0.08343675 1.1877361e-38
2.2491138 0.076382011 0.082738258 9.1118424e-39
2.2893486 0.098906912 0.058088083 1.6479574e-38
2.2886398 -0.096422344 0.10406519 1.4742596e-38
2.3044083 -0.094311155 0.11245158 1.3916097e-38
2.287467 -0.070434839 0.10469715 1.0313667e-38
2.3033383 -0.086260848 0.10856853 1.2890455e-38
2.2635877 -0.0381179 0.1188181 4.6029446e-39
2.2754173 -0.044024199 0.10415524 1.0034192e-38
2.23928 -0.011809635 0.12859316 9.3877412e-39
2.2604833 -0.013519916 0.11459686 1.0215344e-38
2.2731624 -0.014955814 0.10084027 1.3348555e-38
2.2316206 0.017748225 0.13354746 7.0889854e-39
2.2605512 0.014103991 0.11406597 1.058377e-38
2.2717388 0.010225037 0.095726445 1.1781247e-38
2.2343683 0.046756491 0.12492809 2.761183e-39
2.2501502 0.044821199 0.11105374 4.9673999e-39
2.2540324 0.074329317 0.11461595 3.2210821e-39
2.2748058 0.089751087 0.1072324 3.5887842e-39
2.3031533 0.098920718 0.10856853 2.1197974e-39
2.312928 -0.11845678 0.14351645 1.1335001e-38
2.2975106 -0.10014852 0.1364899 9.023611e-39
2.3090873 -0.10074757 0.12953722 1.0775314e-38
2.2703314 -0.066203326 0.14337486 6.5393779e-39
2.2870986 -0.07597582 0.1322802 1.0588088e-38
2.307586 -0.086256601 0.12410087 1.2150718e-38
2.23509 -0.032745577 0.14604983 2.4871114e-39
2.2656701 -0.045073267 0.13872819 3.3139966e-39
2.2338088 -0.013300672 0.14964968 5.9804546e-39
2.2326117 0.013084995 0.15029758 3.4962229e-39
2.2537751 0.014034599 0.1324091 9.0271815e-39
2.2379212 0.039605178 0.14845495 2.4871184e-39
2.2574654 0.052519042 0.14604427 3.0370496e-39
2.2602692 0.076218255 0.14324097 2.8541045e-39
2.2694733 0.097081542 0.14083451 2.0268801e-39
2.302388 -0.12175356 0.15424643 1.0871132e-38
2.3182375 -0.11845147 0.16293196 8.4758378e-39
2.2997231 -0.10059246 0.15784661 5.3350922e-39
2.3171675 -0.11040115 0.15904886 5.9876306e-39
