# .PCD v0.7 - Point Cloud Data file format
VERSION 0.7
FIELDS x y z rgb
SIZE 4 4 4 4
TYPE F F F F
COUNT 1 1 1 1
WIDTH 1020
HEIGHT 1
VIEWPOINT 0 0 0 1 0 0 0
POINTS 1020
DATA ascii
3.1079586 -1.1003412 -1.3011348 6.9099947e-39
3.1393499 -1.0923116 -1.3076273 7.0925783e-39
3.1667578 -1.084253 -1.3324769 7.1862103e-39
3.1402516 -1.0613657 -1.3042159 7.8287e-39
3.1411319 -0.91530448 -1.3004634 1.1704486e-38
3.167686 -0.91343123 -1.3284581 1.0502757e-38
3.1391394 -0.88188601 -1.3076272 7.5564627e-39
3.1395783 -0.85447711 -1.3059216 7.3720561e-39
3.1681688 -0.84676886 -1.3264487 6.9081968e-39
3.2031224 -0.8425945 -1.3275132 7.001826e-39
3.2373912 -0.83841342 -1.3348694 7.2780626e-39
3.2390606 -0.82565945 -1.3287191 7.0036337e-39
3.1193516 -1.1738932 -1.2597429 9.2148953e-39
3.0532217 -1.1393868 -1.2588108 9.5904769e-39
3.0862434 -1.1444383 -1.2593901 8.2021713e-39
3.1193392 -1.1616325 -1.2597429 8.3862094e-39
3.0211868 -1.1286114 -1.2583926 9.0308866e-39
3.0532036 -1.1213483 -1.2588108 8.5720454e-39
3.0851495 -1.1181293 -1.2632943 7.4642699e-39
3.1160564 -1.1125937 -1.2715691 6.6316198e-39
3.1458988 -1.110872 -1.2837481 6.8163655e-39
3.119278 -1.1003299 -1.2597429 6.6323274e-39
3.1475127 -1.0923034 -1.2777783 6.9992981e-39
3.1176121 -1.0512893 -1.265656 7.6446689e-39
3.1474941 -1.0737364 -1.2777783 6.8163277e-39
3.1473331 -0.91282266 -1.2777783 8.6617201e-39
3.1473022 -0.88187778 -1.2777783 7.7404883e-39
3.1467354 -0.85918534 -1.2797682 7.6486289e-39
3.1786137 -0.85092473 -1.2882701 7.2794961e-39
3.2081172 -0.84258956 -1.3092481 7.00507e-39
3.1796958 -0.83425826 -1.2842513 7.1869445e-39
3.2136502 -0.8257522 -1.2889534 7.7383134e-39
3.2441063 -0.82565439 -1.3102682 7.7383204e-39
3.1557806 -1.1975081 -1.2479293 7.8347984e-39
3.1258199 -1.1738868 -1.2360902 8.2925676e-39
3.1525033 -1.1851333 -1.259869 7.6457969e-39
3.0926437 -1.1383603 -1.2359639 8.1053107e-39
3.1236477 -1.1575414 -1.2439744 7.4660636e-39
3.0658865 -1.1153226 -1.2124116 8.11467e-39
3.0910237 -1.1201471 -1.2418206 7.3724386e-39
3.0658684 -1.0972841 -1.2124116 6.7245525e-39
3.0942025 -1.0958577 -1.2301074 6.6326875e-39
3.1235824 -1.0921519 -1.2439744 6.8174249e-39
3.1540368 -1.0861079 -1.2538992 6.8149096e-39
3.1235497 -1.0594571 -1.2439744 7.3673631e-39
3.1255746 -0.92867577 -1.2360902 1.1056228e-38
3.1522558 -0.93757379 -1.259869 1.0507035e-38
3.1255624 -0.91641527 -1.2360902 8.8514671e-39
3.1535344 -0.91034085 -1.2550931 8.11034e-39
3.1538324 -0.88187128 -1.2538992 7.9248977e-39
3.1538076 -0.85711539 -1.2538992 7.186597e-39
3.1863027 -0.84675074 -1.2601385 7.1865844e-39
3.1868315 -0.82591838 -1.2581291 7.370247e-39
3.1590457 -1.1975048 -1.2359898 6.1677185e-39
3.1022894 -1.1747799 -1.2008249 3.7656463e-39
3.0722549 -1.1393677 -1.1892122 7.2841708e-39
3.0998659 -1.1535319 -1.2096096 7.5571564e-39
3.0711772 -1.119326 -1.1930786 7.7426645e-39
3.0706265 -1.0972793 -1.1950121 6.7274251e-39
3.1006029 -1.0897797 -1.2066814 6.4493837e-39
3.1322026 -1.0880564 -1.2124376 6.3571516e-39
3.1621995 -1.0860997 -1.2240503 6.4482921e-39
3.1289437 -1.0635386 -1.2242639 7.6414417e-39
3.1638198 -1.0737201 -1.2180804 7.551739e-39
3.1326947 -0.93357283 -1.2100724 6.3550245e-39
3.132031 -0.91640878 -1.2124376 7.6511541e-39
3.16202 -0.90661907 -1.2240503 7.3720603e-39
3.1619952 -0.88186318 -1.2240502 7.7408484e-39
3.1624341 -0.85445428 -1.2223445 7.2798632e-39
3.1928968 -0.84674412 -1.2360258 7.1862327e-39
3.224767 -0.84257287 -1.2483643 7.27915e-39
3.1950741 -0.82591015 -1.2279882 7.187669e-39
3.0786114 -1.151387 -1.1660128 7.4649692e-39
3.0785813 -1.121323 -1.1660126 7.7408596e-39
3.0785573 -1.0972714 -1.1660126 6.9110891e-39
3.1086109 -1.0897717 -1.1773988 6.6330533e-39
3.1397531 -1.0921357 -1.1848429 6.3589775e-39
3.1687298 -1.0860932 -1.2001711 6.8170592e-39
3.1408024 -1.0635266 -1.1809008 6.6315973e-39
3.1687174 -1.0737152 -1.2001711 7.6435899e-39
3.1385174 -0.93479311 -1.188785 9.314288e-39
3.1718526 -0.94374317 -1.1882315 9.5905357e-39
3.1406512 -0.91231328 -1.1809008 7.6468605e-39
3.1696365 -0.90454841 -1.1961912 7.2798688e-39
3.1416841 -0.8673569 -1.1769587 7.5571774e-39
3.169616 -0.88391846 -1.1961912 7.4639154e-39
3.1416719 -0.85509628 -1.1769587 7.3745826e-39
3.1697981 -0.84843469 -1.1953952 7.3706225e-39
3.1706383 -0.81790155 -1.1922114 7.5524788e-39
3.1994781 -0.83423847 -1.211913 7.6457493e-39
3.0881517 -1.1754289 -1.1312134 6.9192671e-39
3.1151142 -1.1869102 -1.1539727 4.3198612e-39
3.0862267 -1.1537845 -1.1381732 8.84684e-39
3.1182749 -1.1444062 -1.1422597 8.4798301e-39
3.0849254 -1.1213166 -1.1428131 8.2940264e-39
3.1171811 -1.1180972 -1.1461641 7.3749455e-39
3.0864816 -1.0912507 -1.1370133 6.6319925e-39
3.1166124 -1.0836921 -1.1481162 6.4468501e-39
3.0880315 -1.0551721 -1.1312134 6.9074542e-39
3.1165884 -1.0594058 -1.1481162 7.3702176e-39
3.1451144 -1.0635223 -1.1651324 7.8240267e-39
3.0880075 -1.0311208 -1.1312134 9.1234045e-39
3.1751363 -0.96230692 -1.1762919 1.1242515e-38
3.1466026 -0.93478501 -1.1592193 8.9448062e-39
3.1465781 -0.9102639 -1.1592193 7.5560872e-39
3.1783392 -0.90041381 -1.1643523 7.2780682e-39
3.1783206 -0.88184685 -1.1643523 7.3702694e-39
3.1448998 -0.84896278 -1.1651324 7.6486584e-39
3.1792207 -0.8491326 -1.160941 7.3731449e-39
3.1782587 -0.81995684 -1.1643523 8.1024254e-39
3.1247177 -1.1808289 -1.1188337 7.2798618e-39
3.0944722 -1.1513711 -1.1080139 7.3731491e-39
3.1225438 -1.1423781 -1.1266423 7.0003981e-39
3.0965545 -1.1193006 -1.1002806 5.8046995e-39
3.1214538 -1.1201167 -1.1305467 7.5582312e-39
3.094414 -1.0932471 -1.1080139 6.3575412e-39
3.1246204 -1.0836841 -1.1188337 6.082385e-39
3.1580753 -1.0880306 -1.1178272 5.3469808e-39
3.0912037 -1.0551689 -1.1196136 6.6330197e-39
3.1245964 -1.0593978 -1.1188337 6.1637738e-39
3.1580629 -1.07577 -1.1178272 4.5175803e-39
3.0943637 -1.0431401 -1.1080139 7.4523196e-39
3.1550965 -0.93937421 -1.1281751 8.2944201e-39
3.1546633 -0.91025585 -1.1296535 7.0036379e-39
3.1848695 -0.90040725 -1.1404732 6.8188725e-39
3.1578672 -0.87960124 -1.1178272 6.5426695e-39
3.1848509 -0.88184023 -1.1404732 6.9110905e-39
3.1864526 -0.85089368 -1.1345034 7.6490045e-39
3.1858795 -0.82201225 -1.1364933 8.2911285e-39
3.1343331 -1.186891 -1.0836946 1.0231567e-38
3.0725291 -1.1484133 -1.0707221 7.3760203e-39
3.0461848 -1.1240286 -1.0532372 6.4511984e-39
3.0725012 -1.1206188 -1.0707221 5.9880566e-39
3.073009 -1.1047359 -1.0688071 5.5277945e-39
3.1023426 -1.0912348 -1.0790145 4.5150691e-39
3.1310208 -1.0776062 -1.0954076 5.712162e-39
3.1039045 -1.0671818 -1.0732145 4.698394e-39
3.1623714 -1.0716788 -1.1020588 5.9822637e-39
3.1611869 -0.96542186 -1.1060009 1.4196007e-38
3.1631029 -0.94089878 -1.0989051 7.2867268e-39
3.1914494 -0.94991261 -1.1165941 6.9961045e-39
3.1627488 -0.91024774 -1.1000876 5.5292407e-39
3.1324158 -0.87117159 -1.0895511 5.6210888e-39
3.1627183 -0.87959647 -1.1000876 5.5288609e-39
3.1626937 -0.8550753 -1.1000876 6.0795292e-39
3.1946135 -0.84882247 -1.1046544 7.0014659e-39
3.1913254 -0.82613283 -1.1165941 7.0915301e-39
3.0493157 -1.1417283 -1.0418533 8.752485e-39
3.0223916 -1.1193846 -1.0264957 8.1085449e-39
3.0513756 -1.1259904 -1.0342642 7.8330384e-39
3.077734 -1.1166431 -1.0515721 7.5532061e-39
3.0523932 -1.1063197 -1.0304695 6.8167271e-39
3.08007 -1.0957948 -1.0429546 6.9099933e-39
3.1089993 -1.0864179 -1.054655 6.4508144e-39
3.1438334 -1.0775933 -1.0485555 7.2798464e-39
3.1086626 -1.0671771 -1.0558149 6.0838466e-39
3.1390164 -1.0654551 -1.066125 5.8036387e-39
3.1742337 -1.0757538 -1.0586957 7.368075e-39
3.1676552 -0.96541536 -1.0823482 1.4012319e-38
3.1426282 -0.93997252 -1.0524598 8.3901835e-39
3.1695759 -0.94579655 -1.0752524 7.2849261e-39
3.1121991 -0.90282238 -1.0422819 7.0936755e-39
3.1388645 -0.91366613 -1.066125 5.8068982e-39
3.1100686 -0.88679028 -1.0500151 6.8199641e-39
3.1393642 -0.87926012 -1.0641729 6.9092814e-39
3.1707914 -0.86732781 -1.070522 7.1855012e-39
3.2027905 -0.86325532 -1.0748055 6.7252209e-39
3.2324739 -0.8592037 -1.0913491 6.2642722e-39
3.0056026 -1.1439408 -0.97803974 9.4054004e-39
3.0316672 -1.1427587 -0.99266279 8.8490064e-39
3.0602117 -1.1417174 -1.0020099 8.0163521e-39
3.0270295 -1.1310717 -1.0095793 8.6627865e-39
3.0586369 -1.1240162 -1.0077018 7.3713386e-39
3.0579922 -1.1015934 -1.0099787 6.4490081e-39
3.0875823 -1.0894058 -1.0154605 6.0791536e-39
3.1181912 -1.0791934 -1.0210156 6.2631721e-39
3.1790972 -1.0880095 -1.0409561 6.3568167e-39
3.207911 -1.086054 -1.0568961 7.8250888e-39
3.180702 -1.0757474 -1.035043 8.3710614e-39
3.1164849 -0.958938 -1.0268155 1.4104156e-38
3.0901301 -0.9439075 -1.005612 1.0877665e-38
3.1180527 -0.94089788 -1.0210156 8.577439e-39
3.146903 -0.94401586 -1.0368425 6.5351151e-39
3.089045 -0.90618747 -1.009442 7.5578907e-39
3.1164489 -0.92286104 -1.0268155 7.3731477e-39
3.0875554 -0.88315922 -1.0148039 7.0958349e-39
3.1500332 -0.87115401 -1.0251294 8.5694796e-39
3.1788764 -0.86731976 -1.0409561 8.3854737e-39
3.0869105 -0.86648321 -1.017102 6.819227e-39
3.1163888 -0.86273253 -1.0268155 7.5539082e-39
3.1788642 -0.85505915 -1.0409561 8.0159401e-39
3.0117261 -1.1555201 -0.95568979 1.0049345e-38
3.038357 -1.1505466 -0.96822786 8.6667423e-39
3.0659232 -1.1456457 -0.9811396 7.6490045e-39
3.0664201 -1.1240083 -0.97924221 6.9099975e-39
3.095016 -1.1166258 -0.98837692 6.4486326e-39
3.0949924 -1.0928019 -0.98837692 6.2617484e-39
3.1261215 -1.0791855 -0.99201614 5.6185356e-39
3.1550443 -1.0775821 -1.0075599 5.4377177e-39
3.1292758 -1.0611436 -0.98041648 6.4399866e-39
3.1550322 -1.0654391 -1.0075599 7.9979488e-39
3.0932901 -0.96177232 -0.99412197 1.4101279e-38
3.1260135 -0.97095424 -0.99201626 1.42871e-38
3.0948434 -0.94390279 -0.98837692 9.1270268e-39
3.0948136 -0.91412306 -0.98837692 7.3734896e-39
3.0947838 -0.88434321 -0.98837692 7.6475639e-39
3.1275034 -0.87474722 -0.98621637 7.460649e-39
3.1564395 -0.87114757 -1.0017033 7.7379267e-39
3.1869621 -0.86731166 -1.0113904 7.8305049e-39
3.0931947 -0.86647695 -0.99412197 7.6471912e-39
3.1564152 -0.84686136 -1.0017034 9.0196594e-39
3.1869497 -0.85505104 -1.0113904 9.3855622e-39
2.9673021 -1.1463938 -0.90580708 9.5869358e-39
3.0185993 -1.1526169 -0.93054605 8.7557094e-39
3.0440094 -1.1485922 -0.9475522 8.1089078e-39
3.0208652 -1.1265476 -0.9221648 7.1865928e-39
3.0455282 -1.1252073 -0.94191337 6.9110765e-39
3.0734217 -1.121051 -0.9536286 6.7252223e-39
3.048583 -1.0959749 -0.93063575 5.9894677e-39
3.0741756 -1.0968564 -0.95078266 6.1717178e-39
3.1023202 -1.0888239 -0.96156687 5.8951183e-39
3.1340523 -1.0791775 -0.96301681 6.0791508e-39
3.1340342 -1.0611389 -0.96301681 6.7165749e-39
3.135602 -1.0430988 -0.95721698 1.2627164e-38
3.1027167 -0.96176285 -0.95965183 1.0886297e-38
3.1355419 -0.9829703 -0.95721698 1.4105585e-38
3.1026988 -0.94389492 -0.95965183 6.8163782e-39
3.0708716 -0.90566987 -0.96216649 7.3738525e-39
3.1030617 -0.91411477 -0.95821559 7.3716903e-39
3.0770743 -0.88206005 -0.93939883 7.3742281e-39
3.1020093 -0.8831448 -0.96194977 7.4631867e-39
3.0770507 -0.85845643 -0.93939883 7.1865732e-39
3.1026213 -0.86646748 -0.95965183 7.3709644e-39
3.1338358 -0.86271507 -0.96301681 7.5520935e-39
3.1644351 -0.85899657 -0.97242075 7.828714e-39
3.1955702 -0.85095555 -0.97985363 1.1141964e-38
3.0270178 -1.1670901 -0.89981478 8.9386783e-39
2.9971328 -1.156742 -0.90291005 9.3131949e-39
3.0254724 -1.1497138 -0.9054023 7.6482828e-39
3.0254431 -1.1207504 -0.90540224 6.9103618e-39
3.053221 -1.107662 -0.9137193 6.35643e-39
3.0532033 -1.0901244 -0.9137193 6.3543154e-39
3.0819445 -1.0826864 -0.92232305 6.1695528e-39
3.0819328 -1.0708846 -0.92232305 5.7107144e-39
3.1111991 -1.0649912 -0.92901176 5.2515496e-39
3.1387923 -1.0611341 -0.9456172 6.3481595e-39
3.1122267 -1.0451369 -0.92518175 7.9010939e-39
3.1387742 -1.0430956 -0.9456172 1.3185714e-38
3.1105781 -0.96771097 -0.9309268 9.0341165e-39
3.1105542 -0.94388711 -0.9309268 6.5426681e-39
3.0833299 -0.91155833 -0.91663116 6.8181536e-39
3.1089594 -0.92006487 -0.93667179 7.1872907e-39
3.0817437 -0.88205528 -0.92232299 7.1890997e-39
3.0817204 -0.85845172 -0.92232305 7.0018246e-39
3.1099374 -0.85057753 -0.93284178 7.5517502e-39
3.1406887 -0.84266543 -0.93788397 7.4545295e-39
3.1756403 -0.8529138 -0.93142509 6.6340973e-39
3.0338967 -1.1699795 -0.8746711 8.2911467e-39
3.0092368 -1.1452472 -0.85860652 7.6497149e-39
3.0325 -1.1485482 -0.87969983 7.4635062e-39
3.0071871 -1.114629 -0.86599046 7.0936657e-39
3.0325718 -1.1188123 -0.8793273 6.9096318e-39
3.0338213 -1.0946749 -0.8746711 5.9901978e-39
3.0593715 -1.0901182 -0.891164 6.0795096e-39
3.0866141 -1.0826818 -0.90524727 5.7103599e-39
3.036093 -1.0743984 -0.86628985 6.0791606e-39
3.062948 -1.0686797 -0.87800676 5.9880174e-39
3.0897095 -1.0649759 -0.89386344 5.802187e-39
3.1177402 -1.0600213 -0.90507418 5.1593399e-39
3.0865669 -1.0354747 -0.90524727 8.0015277e-39
3.1216531 -1.0451275 -0.89071167 7.9907658e-39
3.1216054 -0.9974798 -0.89071167 1.4654437e-38
3.0927224 -0.96465725 -0.88247961 5.7064419e-39
3.1173961 -0.97763073 -0.90603173 9.3139152e-39
3.0895853 -0.94105667 -0.89386338 6.8181648e-39
3.0630424 -0.9059695 -0.87706691 7.1865676e-39
3.0874829 -0.91352123 -0.90145272 7.1847823e-39
3.063787 -0.87966228 -0.87424749 7.1862215e-39
3.0886352 -0.88036239 -0.89711595 7.3699009e-39
3.0910597 -0.85844243 -0.88817155 7.1858515e-39
3.11832 -0.85453981 -0.90220165 7.2762423e-39
3.1480925 -0.84466237 -0.91081792 6.7245132e-39
3.1214385 -0.83071285 -0.89071167 5.4337674e-39
3.0412951 -1.1825228 -0.84766489 8.8461211e-39
3.0137861 -1.1509839 -0.84199274 7.4653139e-39
3.0407467 -1.1439056 -0.84952736 6.5451526e-39
3.013746 -1.1107949 -0.84199274 6.5430157e-39
3.0407233 -1.120735 -0.84952736 6.3604012e-39
3.0406945 -1.0917717 -0.84952736 6.0802186e-39
3.0406713 -1.068601 -0.84952736 5.9865979e-39
3.0685947 -1.0608796 -0.85733104 5.7103501e-39
3.0974865 -1.0590671 -0.86540389 5.4348464e-39
3.1263783 -1.0570347 -0.87347662 4.8834453e-39
3.1263604 -1.0391668 -0.87347662 8.6551886e-39
3.0982027 -0.99710679 -0.86255789 1.2633701e-38
3.097398 -0.97055352 -0.86540389 5.8022164e-39
3.0973744 -0.94694984 -0.86540389 6.5419086e-39
3.0684426 -0.90888709 -0.85733104 6.910345e-39
3.0684133 -0.87965763 -0.85733104 7.2780401e-39
3.0972977 -0.87023789 -0.86540389 7.1855082e-39
3.097286 -0.85843617 -0.86540389 6.9089031e-39
3.1261697 -0.84857601 -0.87347662 7.0922027e-39
3.0988071 -0.82302904 -0.85971195 7.1761111e-39
3.1245809 -0.8307097 -0.87922162 6.5350451e-39
3.0484447 -1.2018245 -0.82158989 1.0048247e-38
3.0221357 -1.17107 -0.81153405 7.7401071e-39
3.046905 -1.1902407 -0.82717735 8.8493343e-39
3.0213583 -1.1509764 -0.81430304 7.1880039e-39
3.0213296 -1.1222699 -0.81430304 7.0933e-39
3.046824 -1.1091436 -0.82717735 6.5415653e-39
3.0243297 -1.0935605 -0.80322713 6.8167215e-39
3.0477221 -1.0906062 -0.82382488 6.1713591e-39
3.0483069 -1.0642489 -0.82158983 5.4344947e-39
3.0763049 -1.0608718 -0.82913697 4.9760235e-39
3.105263 -1.0531586 -0.83694422 5.1586197e-39
3.1073174 -1.0315198 -0.82935512 5.1575491e-39
3.1310737 -1.039162 -0.85624158 6.7165959e-39
3.0747101 -1.0082606 -0.83477575 1.1330686e-38
3.0227005 -0.97873646 -0.80876505 1.2265991e-38
3.0489769 -0.97011757 -0.8187961 7.9202062e-39
3.0746751 -0.97318542 -0.83477575 7.0969139e-39
3.1031036 -0.9685809 -0.84453356 5.8054198e-39
3.076956 -0.9410308 -0.82631755 6.5404933e-39
3.1036067 -0.95284456 -0.84263617 6.634456e-39
3.0504441 -0.90929306 -0.81320864 7.1862187e-39
3.0738425 -0.91180462 -0.83759516 6.8177977e-39
3.049654 -0.88322687 -0.81600237 7.5553571e-39
3.0730393 -0.87965304 -0.84041458 6.8181424e-39
3.1019673 -0.87023324 -0.84832811 7.0925727e-39
3.0496366 -0.8658489 -0.81600237 7.2787688e-39
3.0776479 -0.86211079 -0.82349813 7.3702568e-39
3.105844 -0.85547721 -0.83409834 7.1825963e-39
3.1324542 -0.84856975 -0.85049659 6.6319449e-39
3.1065958 -0.82892221 -0.83125234 7.5506347e-39
3.1308651 -0.83070344 -0.85624158 8.1863044e-39
2.926991 -1.3043828 -0.74293017 1.0597821e-38
2.9531658 -1.3048704 -0.74957448 1.0964451e-38
3.004853 -1.1748059 -0.76859754 8.7517605e-39
3.0312254 -1.1739317 -0.77830642 8.0156234e-39
3.0013263 -1.1501532 -0.78140378 7.8315741e-39
3.0334797 -1.1567056 -0.7699995 7.7400945e-39
3.0027075 -1.1304266 -0.7762813 7.6475485e-39
3.0308459 -1.1189797 -0.77949309 7.1869249e-39
3.0062685 -1.0894557 -0.76310915 7.1833502e-39
3.0297809 -1.0924067 -0.78329057 7.0003841e-39
3.0313704 -1.0667608 -0.77738345 5.8954756e-39
3.0564528 -1.0608618 -0.79178983 5.250102e-39
3.0824611 -1.049174 -0.80658168 4.2377508e-39
3.1114838 -1.0472515 -0.81417662 4.1469746e-39
3.0589783 -1.0396196 -0.78247738 5.0649681e-39
3.0875857 -1.0335797 -0.78778559 4.5143194e-39
3.1130285 -1.0354482 -0.80848467 3.5002067e-39
3.0558763 -0.9932813 -0.79365242 1.1723944e-38
3.0862782 -1.0111719 -0.79248458 8.4776091e-39
3.0302615 -0.96724635 -0.78107536 6.2617274e-39
3.0558414 -0.95852536 -0.79365242 6.0794913e-39
3.0325015 -0.93566698 -0.7727685 6.3575202e-39
3.0553167 -0.94307876 -0.79551494 6.0805717e-39
3.0317185 -0.90983188 -0.77553743 7.000747e-39
3.0557923 -0.90928775 -0.79365242 7.1858627e-39
3.0884774 -0.89717525 -0.78402638 7.8323139e-39
3.0301869 -0.8926096 -0.78107536 7.3695449e-39
3.0566816 -0.88206136 -0.79029989 7.3724022e-39
3.088454 -0.87379175 -0.78402638 8.1989244e-39
3.117533 -0.87021768 -0.79140896 7.9227005e-39
3.0557487 -0.86584282 -0.79365242 7.4653321e-39
3.0838163 -0.86210465 -0.80094284 7.372412e-39
3.1144021 -0.85251808 -0.80279273 7.4617223e-39
3.1143849 -0.83481544 -0.80279285 6.3553706e-39
2.9343193 -1.3265332 -0.71621388 1.0505638e-38
2.9620337 -1.3272175 -0.71722823 1.0681758e-38
2.93138 -1.3099179 -0.7269004 1.0411983e-38
2.9590669 -1.3085905 -0.72801036 1.0682072e-38
3.0108624 -1.1804897 -0.74664402 8.6624361e-39
3.0380404 -1.1739249 -0.75338566 7.5557271e-39
3.0375144 -1.152874 -0.75523168 7.556076e-39
3.011302 -1.1197969 -0.74481457 7.461372e-39
3.0374877 -1.1260813 -0.75523168 7.27768e-39
3.010777 -1.0951411 -0.74664402 6.6323218e-39
3.0384629 -1.0916327 -0.75153971 6.0798571e-39
3.0379312 -1.0648404 -0.75338566 5.2508139e-39
3.0651021 -1.0511986 -0.76012743 4.6054403e-39
3.0394113 -1.0303913 -0.74784774 4.4203414e-39
3.0650847 -1.0338206 -0.76012743 4.2381039e-39
3.091696 -1.0316271 -0.77274871 4.052991e-39
3.0655653 -1.0048569 -0.75826502 4.8809538e-39
3.0916784 -1.0140895 -0.77274871 4.8813223e-39
3.0381401 -0.97068322 -0.75227809 6.2649658e-39
3.0378048 -0.93853229 -0.75338566 6.9095967e-39
3.0377762 -0.90982592 -0.75338566 7.5535284e-39
3.0664794 -0.90058804 -0.75453991 7.276608e-39
3.0915616 -0.89717221 -0.77274871 7.9245096e-39
3.0362446 -0.89260352 -0.75892365 7.6457549e-39
3.066462 -0.88321006 -0.75453991 7.4638817e-39
3.0925701 -0.87768489 -0.7689895 7.8319132e-39
3.0935786 -0.85819769 -0.7652303 7.5560592e-39
3.1216645 -0.85054386 -0.77623051 7.2798506e-39
3.1528721 -0.84259337 -0.77581137 7.1807704e-39
3.1206107 -0.83480918 -0.78002506 7.3683945e-39
2.9679534 -1.3495675 -0.69566405 1.1605868e-38
2.938714 -1.3376077 -0.70018417 1.0872267e-38
2.9664624 -1.3328021 -0.70105511 1.1968855e-38
2.9415922 -1.2932894 -0.68949765 1.0505617e-38
2.9664454 -1.3160352 -0.70105511 1.1505025e-38
2.8937585 -1.2492344 -0.66711909 1.0044657e-38
2.9940844 -1.1754587 -0.70183051 7.9219956e-39
3.0177596 -1.1736549 -0.72139746 7.4631657e-39
3.0425777 -1.168179 -0.73677188 7.0929412e-39
3.0189378 -1.150894 -0.71700674 7.0014617e-39
2.9925406 -1.1190749 -0.70726931 6.3575342e-39
3.0153081 -1.1235862 -0.73017889 7.0003658e-39
2.9930158 -1.0983998 -0.70545638 5.5266763e-39
3.0188787 -1.091719 -0.71700674 5.525963e-39
3.0435109 -1.0916276 -0.73307991 5.8947273e-39
3.0212493 -1.060991 -0.70822531 4.0537168e-39
3.0439892 -1.0648344 -0.73123395 4.8812985e-39
3.0212207 -1.0325416 -0.70822531 4.3310142e-39
3.0442598 -1.032683 -0.73012632 4.7894812e-39
3.069663 -1.0280235 -0.74336493 2.9545621e-39
3.0211923 -1.0040921 -0.70822531 4.3321044e-39
3.0454404 -1.0016788 -0.72569597 4.9742382e-39
3.0696399 -1.0048528 -0.74336493 5.3458962e-39
3.0181563 -0.96995574 -0.7192021 6.2624519e-39
3.0187352 -0.9483335 -0.71700674 6.3568013e-39
3.0449412 -0.93524438 -0.72727829 6.9088989e-39
3.0453486 -0.90981835 -0.72569603 7.3691596e-39
3.0725918 -0.90058196 -0.73219001 7.5531977e-39
3.0718129 -0.88610107 -0.73498368 7.5546326e-39
3.1014121 -0.87845552 -0.73666024 7.5546102e-39
3.1330986 -0.87020212 -0.73448974 7.9223362e-39
3.0992367 -0.86208922 -0.74455458 7.646108e-39
3.1299677 -0.85250258 -0.74587351 7.6468129e-39
3.1575854 -0.84258866 -0.75857633 8.1027463e-39
2.970902 -1.3495646 -0.68488199 1.1881342e-38
2.9732451 -1.3339131 -0.67625636 1.2797176e-38
2.9493926 -1.3006674 -0.66100031 1.1147748e-38
2.9730771 -1.313234 -0.67679542 1.0223289e-38
3.0031269 -1.293859 -0.66919756 1.3352529e-38
2.9191363 -1.271165 -0.67296517 1.0046462e-38
2.9483964 -1.2785107 -0.66456246 1.1422911e-38
2.9737723 -1.2713157 -0.67409992 1.105303e-38
3.0031157 -1.2825819 -0.66919756 1.1509317e-38
3.0269985 -1.1818961 -0.68764389 5.0657178e-39
3.0000112 -1.1528987 -0.68007517 5.1568442e-39
3.0273459 -1.1539204 -0.68627179 4.8795216e-39
2.9736156 -1.1148242 -0.67409992 4.418898e-39
3.0007324 -1.1303438 -0.67735577 4.5121881e-39
2.9744372 -1.0940642 -0.67101926 3.960815e-39
2.9969745 -1.0908779 -0.69095284 4.5139607e-39
3.0242679 -1.0780579 -0.69724858 4.3299296e-39
2.9501266 -1.0606238 -0.65743816 3.3165315e-39
2.974297 -1.0589335 -0.67140442 3.6845672e-39
2.9969406 -1.0570468 -0.69095284 3.9604324e-39
2.950099 -1.0329264 -0.65743816 2.8548261e-39
2.973532 -1.0309892 -0.67409992 4.2352172e-39
2.9969182 -1.0344926 -0.69095284 4.1455453e-39
3.0242338 -1.0439185 -0.69724858 4.3299142e-39
2.9500768 -1.0107688 -0.65743816 3.1278327e-39
2.9742413 -1.0030437 -0.67140442 3.7767684e-39
2.9991155 -1.0006591 -0.68279463 3.9622191e-39
3.0241826 -0.99270934 -0.69724858 5.1593189e-39
2.9764192 -0.96950752 -0.66331792 3.5902332e-39
2.9998307 -0.97246569 -0.68007517 4.9724333e-39
3.0241599 -0.96994972 -0.69724858 5.9876727e-39
2.9763966 -0.94715154 -0.66331786 3.7757006e-39
3.0012956 -0.94991016 -0.67463636 4.7887679e-39
3.0267568 -0.94007504 -0.68764389 5.896905e-39
3.0544524 -0.92703307 -0.69246835 6.1727646e-39
3.0544353 -0.90980923 -0.69246835 6.4479025e-39
3.0554199 -0.88492924 -0.68877637 6.6319547e-39
3.080214 -0.88319629 -0.70425248 7.2773269e-39
3.1085062 -0.87961757 -0.71072167 7.3698854e-39
3.1362238 -0.88200086 -0.72310591 7.3698784e-39
3.108995 -0.85428494 -0.70884204 7.3695127e-39
3.137234 -0.85446227 -0.71931136 7.4631531e-39
3.2924757 -0.75795281 -0.74646717 1.1611238e-38
2.9819396 -1.3299921 -0.64444917 1.3808104e-38
2.9822841 -1.3062387 -0.64310139 1.2151821e-38
3.0075889 -1.2938545 -0.65288109 1.2522024e-38
3.0060902 -1.2825789 -0.65831989 1.0679567e-38
3.0059774 -1.1698083 -0.65831989 4.0548e-39
3.0353849 -1.1880518 -0.65700042 2.9484497e-39
3.007448 -1.1528912 -0.65288109 3.6871007e-39
2.9832044 -1.1204036 -0.63905811 4.1459279e-39
3.0074255 -1.130337 -0.65288109 4.1455621e-39
2.9530714 -1.0827786 -0.64675164 3.7796621e-39
2.9832828 -1.0940554 -0.63867301 3.4097992e-39
2.9555507 -1.057453 -0.63759172 3.6853057e-39
2.9559438 -1.0329207 -0.63606513 3.5912953e-39
2.9838462 -1.02539 -0.63636261 3.5927555e-39
2.9529994 -1.0107659 -0.64675164 3.7760523e-39
2.9829438 -1.0075063 -0.63959724 3.3157973e-39
3.0072958 -1.0006509 -0.65288109 3.2232331e-39
2.9818246 -0.96950209 -0.64355063 3.1317591e-39
2.9529383 -0.94983196 -0.64675164 3.2221611e-39
2.9793453 -0.94714856 -0.65253574 2.8566058e-39
3.0077388 -0.94802421 -0.65106809 2.7640444e-39
3.0346322 -0.93579972 -0.65882987 3.1324724e-39
3.0605102 -0.92702705 -0.67031658 3.4054748e-39
3.0361102 -0.91303861 -0.65334147 3.501971e-39
3.0615008 -0.90788841 -0.66662467 3.86572e-39
3.0619788 -0.88109517 -0.66477865 3.5916737e-39
3.0634704 -0.85812867 -0.65924072 4.1437587e-39
3.087831 -0.86001796 -0.67631495 4.9720956e-39
3.1141353 -0.85427982 -0.69004601 6.353186e-39
3.1486526 -0.85838485 -0.67757058 4.1448475e-39
3.0878024 -0.83105475 -0.67631501 6.9870479e-39
3.2979198 -0.7600103 -0.72656786 1.0772467e-38
3.3279884 -0.75911546 -0.74171388 1.1516881e-38
3.3301697 -0.74244779 -0.73367625 1.1045467e-38
2.9885709 -1.327191 -0.62018949 1.3899922e-38
3.0455198 -1.317013 -0.62041122 1.2980816e-38
2.9649937 -1.3154237 -0.60400558 1.2703192e-38
2.9900341 -1.3160115 -0.61479849 1.3715171e-38
3.0144441 -1.3073802 -0.62786245 1.3073034e-38
3.0455084 -1.3056332 -0.62041122 1.1416023e-38
3.042758 -1.1818802 -0.63001585 3.8675249e-39
3.0141382 -1.1500652 -0.62840635 4.2366648e-39
2.9893456 -1.1185344 -0.61659557 3.781104e-39
3.0178425 -1.1359652 -0.61480927 4.2377536e-39
2.9898105 -1.0924519 -0.61479843 3.5945323e-39
2.9632776 -1.0606107 -0.60934883 2.9506091e-39
2.9897716 -1.053329 -0.61479849 3.2243331e-39
2.9897492 -1.030973 -0.61479849 3.4994725e-39
2.9897211 -1.003028 -0.61479843 3.2246806e-39
3.0139804 -0.99218643 -0.62840635 3.1324766e-39
3.0153003 -0.97357804 -0.62351143 2.8562442e-39
3.0436661 -0.96424031 -0.62589961 2.6718656e-39
3.0117126 -0.95553821 -0.63656461 2.2130454e-39
3.0421424 -0.94148219 -0.63138795 3.0392104e-39
3.0696084 -0.93850052 -0.63708895 2.8573232e-39
3.0428643 -0.91303182 -0.62864381 3.316149e-39
3.0688198 -0.90692419 -0.63985795 3.4087006e-39
3.0695627 -0.8925702 -0.63708895 3.1328564e-39
3.0970221 -0.88317955 -0.64278996 3.4090593e-39
3.0947042 -0.85711479 -0.65117127 3.6849441e-39
3.1254454 -0.85621715 -0.64869463 3.7774929e-39
3.0664649 -0.8236779 -0.64816487 7.6266664e-39
3.2749846 -0.75994372 -0.68912357 1.1515453e-38
3.3038974 -0.75175238 -0.70467865 1.1785199e-38
3.3055177 -0.73937279 -0.69870883 1.0576213e-38
3.3358736 -0.73160952 -0.71277845 1.2056389e-38
2.9693882 -1.3264982 -0.58797586 1.0778981e-38
2.9974167 -1.3271821 -0.5878433 1.1231294e-38
3.0210087 -1.3276724 -0.60393161 1.2335125e-38
3.0485215 -1.31701 -0.60943449 1.1695126e-38
2.9708385 -1.3154179 -0.5826326 1.1139468e-38
2.9988797 -1.3160027 -0.58245224 1.1508595e-38
3.0245628 -1.3118808 -0.59087843 1.1231645e-38
3.0003207 -1.2824672 -0.57706118 1.0129271e-38
3.0230849 -1.1726104 -0.5957734 3.1321445e-39
2.9987009 -1.1371551 -0.58245224 4.1466285e-39
3.023068 -1.1556948 -0.5957734 4.1455537e-39
2.9972098 -1.1203896 -0.58784324 3.8704088e-39
2.9676836 -1.0827639 -0.59331912 3.7774817e-39
2.9981682 -1.0961696 -0.5842492 3.7771285e-39
2.9697468 -1.0590215 -0.58568579 3.2254051e-39
2.9971449 -1.0551846 -0.58784336 3.0417355e-39
2.9712839 -1.0301356 -0.57996094 3.0406383e-39
2.9941664 -1.0253797 -0.59862536 3.1324766e-39
2.9720006 -1.0162863 -0.57728934 3.0399264e-39
2.9970925 -1.0030206 -0.58784318 3.0413754e-39
3.0236452 -0.98935765 -0.593054 2.9491545e-39
2.996069 -0.96203583 -0.5914374 3.1317521e-39
3.0246217 -0.97432041 -0.58942807 3.0409956e-39
3.0236058 -0.94988781 -0.593054 2.856617e-39
3.0511422 -0.93578321 -0.59845769 3.0406299e-39
3.0511193 -0.91302359 -0.59845769 3.0413642e-39
3.0771463 -0.90404522 -0.60939926 3.4083698e-39
3.0774286 -0.8833763 -0.60829169 3.6842169e-39
3.1031284 -0.87738073 -0.62044001 4.2348613e-39
3.1316314 -0.87374866 -0.62613934 4.2348655e-39
3.1309979 -0.85738081 -0.6283949 4.5082238e-39
3.1642182 -0.85836923 -0.62065142 7.3561864e-39
3.2828059 -0.76504445 -0.66054338 1.1606919e-38
3.3120632 -0.75483871 -0.67482972 1.095544e-38
3.3120446 -0.73627174 -0.67482972 1.1040081e-38
3.3411453 -0.72785461 -0.6934883 1.2517714e-38
2.982506 -1.2932485 -0.53988653 1.1230201e-38
3.0042782 -1.3085454 -0.56268513 1.0588434e-38
3.0313978 -1.3051078 -0.56585985 9.1104397e-39
2.976639 -1.2710965 -0.56125957 9.5803917e-39
3.006212 -1.2768723 -0.55549705 9.4860507e-39
3.0312624 -1.169783 -0.56585985 3.22251e-39
3.0068123 -1.1399415 -0.55280149 3.9615296e-39
3.0312512 -1.158506 -0.56585985 4.0548028e-39
3.0060554 -1.1203808 -0.55549699 4.0540714e-39
3.0060275 -1.0924357 -0.55549699 3.7774929e-39
2.9800732 -1.0522846 -0.54790145 3.131427e-39
3.0045311 -1.0700812 -0.56088805 3.2250772e-39
2.9793234 -1.0328972 -0.55057311 3.2239534e-39
3.0059605 -1.0253679 -0.55549705 3.4112215e-39
2.9802773 -1.012585 -0.5470109 3.5909562e-39
3.005568 -1.0016149 -0.55684477 3.0413768e-39
3.0295947 -0.98935163 -0.57129866 3.4990829e-39
3.0073791 -0.96947658 -0.55010599 3.0402936e-39
3.031065 -0.97243452 -0.56585985 3.1321109e-39
3.0088196 -0.93594116 -0.54471499 3.5905709e-39
3.0310426 -0.94988042 -0.56585985 2.9488112e-39
3.0586467 -0.9357757 -0.57101578 3.039925e-39
3.0586238 -0.91301608 -0.57101578 3.3161532e-39
3.0816898 -0.90404069 -0.59278542 3.041374e-39
3.0586069 -0.89594638 -0.57101578 3.5001703e-39
3.0846956 -0.88107258 -0.58170956 3.5927275e-39
3.0876901 -0.84662181 -0.57063371 6.5235558e-39
3.112282 -0.86288995 -0.58691502 4.0490449e-39
3.1377878 -0.86205065 -0.60358405 3.4054818e-39
3.0600393 -0.82766604 -0.56552738 1.2538545e-38
3.2936022 -0.78138101 -0.6211223 1.1613048e-38
3.2903562 -0.76912373 -0.6329487 1.160152e-38
3.3202291 -0.75792503 -0.64498073 1.2612781e-38
3.318578 -0.73935968 -0.65095055 1.2334757e-38
3.0121372 -1.3048115 -0.53393286 1.0680262e-38
3.0398242 -1.3032199 -0.53503984 9.5743031e-39
3.065762 -1.2970779 -0.54631805 9.0203992e-39
3.0972247 -1.2944328 -0.53740609 9.4903443e-39
3.0664983 -1.2828524 -0.54357386 9.8623932e-39
3.0972133 -1.2829502 -0.53740609 1.0138277e-38
3.0394456 -1.1725941 -0.53594631 4.425393e-39
3.01296 -1.1445928 -0.53033888 3.8696941e-39
2.9881794 -1.1215197 -0.51851356 4.0551518e-39
3.0119529 -1.1203749 -0.53393286 4.0548084e-39
2.9881482 -1.0906569 -0.5185135 3.5941904e-39
2.9881184 -1.0605859 -0.51851362 3.2250464e-39
2.9880908 -1.0328887 -0.51851356 3.4090789e-39
2.9892364 -1.0096217 -0.51423895 3.0413768e-39
3.0133095 -1.0030044 -0.5285418 3.0410167e-39
3.0355439 -0.98934567 -0.54954338 2.8562737e-39
3.0132816 -0.97505969 -0.52854186 2.5814734e-39
3.0355327 -0.97806853 -0.54954338 2.9495343e-39
2.9865463 -0.94979835 -0.52385682 3.0392062e-39
3.0132482 -0.9415257 -0.52854186 2.9484413e-39
3.0384736 -0.94423437 -0.53866571 2.8562625e-39
3.0655496 -0.93463075 -0.54576921 3.3168679e-39
3.0661283 -0.91300857 -0.54357386 3.5012521e-39
3.0667071 -0.89138639 -0.5413785 3.6845588e-39
3.0930278 -0.88393474 -0.55125093 3.5934435e-39
3.1199367 -0.87736392 -0.5589776 3.7767768e-39
3.0937479 -0.84661579 -0.54848194 8.2849838e-39
3.119925 -0.86577863 -0.5589776 3.3140176e-39
3.2984536 -0.78137618 -0.60338289 1.1700575e-38
3.2984352 -0.76298541 -0.60338289 1.1601147e-38
3.3262131 -0.7558561 -0.62309152 1.2797531e-38
3.0209761 -1.2980958 -0.50158662 1.1049063e-38
3.0487466 -1.3013314 -0.5024069 1.0404047e-38
3.0740142 -1.2942247 -0.51613194 8.4711841e-39
3.101768 -1.2944282 -0.52079225 8.8359982e-39
3.018012 -1.2824495 -0.51236874 9.2984323e-39
3.0754924 -1.2714636 -0.51064354 9.7687571e-39
3.1002421 -1.2829472 -0.52633017 1.0965146e-38
3.0723994 -1.1804281 -0.52162033 3.682426e-39
3.0200837 -1.1427227 -0.50428218 3.8707745e-39
3.0505867 -1.1584866 -0.4951551 3.9636708e-39
2.9949965 -1.1196662 -0.49357837 3.962617e-39
3.0178499 -1.120369 -0.51236874 3.9633443e-39
2.9954576 -1.093815 -0.4917973 3.7778558e-39
2.9954245 -1.0605785 -0.49179724 3.2236185e-39
2.9953969 -1.0328811 -0.49179727 3.3158183e-39
2.9739096 -0.99652284 -0.47167015 2.7640598e-39
2.9953692 -1.0051839 -0.4917973 3.3150868e-39
3.0206702 -0.9918192 -0.50158674 2.7651346e-39
3.0489302 -0.98933232 -0.50059396 2.6714999e-39
3.0186782 -0.96573925 -0.50877476 3.0399348e-39
3.0481725 -0.97523665 -0.50331336 2.8558939e-39
3.0200288 -0.94040114 -0.50374305 3.3154259e-39
3.048136 -0.93858618 -0.50331336 3.498741e-39
3.0481162 -0.91885138 -0.50331336 3.3172252e-39
3.073633 -0.91300106 -0.51613194 3.4087188e-39
3.0736103 -0.89024138 -0.51613194 3.5923814e-39
3.1013546 -0.88105589 -0.52079225 3.5027053e-39
3.1275768 -0.87735629 -0.53104019 3.7771426e-39
3.1028461 -0.85808927 -0.51525432 6.987401e-39
3.1260369 -0.86577249 -0.53662759 3.9521731e-39
3.2716682 -0.78603047 -0.58003414 1.3192578e-38
3.3057396 -0.7905643 -0.5767737 1.1607635e-38
3.3049097 -0.76910913 -0.57973027 1.0401155e-38
3.3349283 -0.76409936 -0.59125268 1.0954696e-38
3.0029685 -1.2987674 -0.46508101 1.1235257e-38
3.029232 -1.2980876 -0.4713968 1.1325656e-38
3.0536966 -1.2938083 -0.48427743 1.0773194e-38
3.0785167 -1.2942202 -0.49966678 9.4835354e-39
3.0312805 -1.2824363 -0.46384934 1.0865029e-38
3.0551729 -1.2825298 -0.47883862 1.0220372e-38
3.0815017 -1.2771475 -0.48869002 8.8385107e-39
3.1112716 -1.2063857 -0.48571867 6.6370162e-39
3.0829 -1.1747278 -0.48320165 4.1469957e-39
3.1077225 -1.191079 -0.49864051 3.7767558e-39
3.0316308 -1.1408482 -0.46205238 3.9615156e-39
3.0565362 -1.1584806 -0.47339979 3.8714892e-39
3.0813823 -1.1576596 -0.48869002 3.9608037e-39
3.0289099 -1.1231524 -0.47193593 4.0530162e-39
3.0031278 -1.0924225 -0.46374524 3.7771496e-39
3.0027304 -1.0605712 -0.46508107 2.9488224e-39
3.0027027 -1.0328739 -0.46508104 3.1342913e-39
3.0030406 -1.0051763 -0.46374521 3.0406551e-39
3.029516 -0.99181032 -0.46924046 3.0406229e-39
3.0289056 -0.97169071 -0.4713968 3.2243359e-39
3.0548685 -0.97804922 -0.47883862 3.4987298e-39
3.005542 -0.94977933 -0.45439449 2.4914316e-39
3.0294652 -0.94150949 -0.46924034 3.2243205e-39
3.0294487 -0.92474246 -0.46924046 3.3172238e-39
3.0548065 -0.9160254 -0.47883862 3.1346248e-39
3.0811317 -0.90730363 -0.48869002 3.5001941e-39
3.0811148 -0.89023387 -0.48869002 3.6834952e-39
3.1083164 -0.8764559 -0.49531773 3.6856742e-39
3.1398008 -0.87734407 -0.48634014 4.5107419e-39
3.133677 -0.86576486 -0.50869012 7.447303e-39
3.2511642 -0.82050794 -0.5338257 1.612848e-38
3.2834413 -0.81435263 -0.53708631 1.2347362e-38
3.3098097 -0.81814653 -0.5619908 1.6503015e-38
3.3130193 -0.7936222 -0.5501644 1.0036334e-38
3.311378 -0.76910269 -0.55607766 1.0405122e-38
3.0357256 -1.3047879 -0.44767627 1.1968127e-38
3.0644147 -1.3028194 -0.44511792 1.1507882e-38
3.0626097 -1.2825224 -0.45164451 1.0771753e-38
3.0895045 -1.2752428 -0.45941865 9.2987966e-39
3.1184042 -1.2714465 -0.45987493 9.0189181e-39
3.1153121 -1.2082953 -0.47095081 5.7114837e-39
3.0639842 -1.1697502 -0.44620571 4.2384808e-39
3.0904179 -1.1879967 -0.45575973 3.1321431e-39
3.0370436 -1.1482947 -0.44228524 3.963696e-39
3.0115588 -1.1214962 -0.43302152 3.5012661e-39
3.0115309 -1.0937989 -0.43302152 3.6856644e-39
2.9855537 -1.0514288 -0.42929229 3.4973467e-39
3.0119166 -1.0621448 -0.43149477 3.3161532e-39
3.0354798 -1.0588723 -0.44767627 3.6827595e-39
3.0114701 -1.0328652 -0.43302146 3.4090789e-39
3.0110784 -1.0065532 -0.43435735 3.0395761e-39
3.0368872 -0.99180299 -0.44228524 3.0395635e-39
3.036876 -0.98062509 -0.44228524 3.223959e-39
3.0623052 -0.97804177 -0.45164451 3.2235862e-39
3.0123537 -0.94238663 -0.42945933 3.2250366e-39
3.0363438 -0.93963963 -0.44408232 3.2243079e-39
3.0368199 -0.92473513 -0.44228524 3.8671648e-39
3.0622461 -0.91883725 -0.45164454 3.5920114e-39
3.0901418 -0.91184652 -0.45575973 3.3172252e-39
3.0901182 -0.88832825 -0.45575973 3.7756894e-39
3.1170001 -0.8772127 -0.46356687 4.7851568e-39
3.1428568 -0.87734097 -0.47516513 5.3332775e-39
3.3227954 -0.86717582 -0.51468557 1.4190936e-38
3.3227832 -0.8549152 -0.51468557 1.4473622e-38
3.2559283 -0.82651603 -0.51642603 1.5210104e-38
3.2909265 -0.82547641 -0.50975591 9.6697105e-39
3.3211291 -0.8181352 -0.52059871 9.0236138e-39
3.2908993 -0.79815441 -0.50975591 1.0404058e-38
3.3207788 -0.79116231 -0.52178133 1.058951e-38
3.0995581 -1.3226488 -0.42282945 1.1417486e-38
3.0475199 -1.3047761 -0.40454796 1.13271e-38
3.0700691 -1.3050691 -0.42445037 1.1601511e-38
3.0995352 -1.2998891 -0.42282945 1.1599717e-38
3.0700407 -1.2768764 -0.42445037 1.1415315e-38
3.0972555 -1.2714418 -0.43106201 9.7597607e-39
3.1244619 -1.2714404 -0.43772316 8.6551928e-39
3.096482 -1.248683 -0.43380621 9.1175947e-39
3.1244016 -1.211157 -0.43772319 3.6838819e-39
3.0721731 -1.1781999 -0.41629213 3.5923884e-39
3.0994272 -1.1917809 -0.42282945 4.1430216e-39
3.0453956 -1.1464232 -0.41173595 4.0533735e-39
3.0188591 -1.1159495 -0.40630525 3.4998256e-39
3.018837 -1.0937916 -0.40630525 3.5934562e-39
3.0188038 -1.0605551 -0.40630525 3.0413726e-39
3.0187762 -1.0328578 -0.40630522 3.2261226e-39
2.9912932 -0.99650544 -0.40810335 3.58915e-39
3.0187595 -1.0162395 -0.40630525 2.94704e-39
3.0447571 -0.99924707 -0.41353297 3.0395663e-39
2.9912822 -0.98552197 -0.40810335 3.8617586e-39
3.0442414 -0.97502869 -0.41532999 3.407623e-39
3.018682 -0.93868726 -0.40630525 3.3168623e-39
3.0441916 -0.92472774 -0.41533011 3.4101397e-39
3.0705736 -0.91713732 -0.4211871 3.3186503e-39
3.0976417 -0.90728712 -0.42831784 3.7774831e-39
3.0971224 -0.88832128 -0.43014729 3.8660872e-39
3.124083 -0.89251566 -0.43772319 3.5016361e-39
3.3260295 -0.8671726 -0.50285929 1.4194175e-38
3.1778693 -0.85031891 -0.45697466 1.4101236e-38
3.2077901 -0.84652376 -0.46127766 1.207513e-38
3.2387741 -0.85838997 -0.46175057 1.2534989e-38
3.2994976 -0.85481375 -0.4785212 9.7615656e-39
3.3276281 -0.8487801 -0.49694613 8.5622895e-39
3.2992492 -0.82000369 -0.47930205 1.0405119e-38
3.3259804 -0.81813037 -0.50285929 1.003885e-38
3.2989073 -0.79814643 -0.48047334 1.0497659e-38
3.3259621 -0.79973954 -0.50285929 1.0680271e-38
3.0234201 -1.2932075 -0.39027551 1.1328178e-38
3.0504575 -1.2935951 -0.39376587 1.1785902e-38
3.1040378 -1.2998847 -0.40636432 1.1416765e-38
3.0263314 -1.2821257 -0.37958899 1.2243651e-38
3.0548692 -1.2824126 -0.37759277 1.18763e-38
3.0804579 -1.2825046 -0.38637862 1.1600415e-38
3.1055162 -1.2771235 -0.40087593 1.0864308e-38
3.133543 -1.26569 -0.40449554 8.7463039e-39
3.1600473 -1.2596397 -0.4137027 9.581161e-39
3.136549 -1.2427218 -0.39341968 9.585456e-39
3.1615636 -1.2480527 -0.40811521 9.773827e-39
3.1069486 -1.2088432 -0.39538753 3.3176316e-39
3.1335027 -1.2255009 -0.40449554 4.6076936e-39
3.0793686 -1.1847711 -0.39000449 3.5005781e-39
3.0532658 -1.1538674 -0.38298377 3.8704074e-39
3.026171 -1.1214817 -0.37958899 3.6845854e-39
3.0261431 -1.0937843 -0.37958899 3.4086879e-39
3.0256953 -1.0637134 -0.38111556 3.3165119e-39
3.0019567 -1.0367676 -0.36925697 3.774979e-39
3.0254965 -1.0317432 -0.38172632 3.3168763e-39
3.0267932 -1.0134618 -0.37691736 3.0410012e-39
3.0527451 -1.0015677 -0.38433152 2.9491643e-39
3.0230987 -0.9719196 -0.39027551 3.4990913e-39
3.0536761 -0.97390145 -0.38082737 3.3161546e-39
3.0259936 -0.94421941 -0.37958899 3.592017e-39
3.0530484 -0.93589693 -0.38298386 3.4094278e-39
3.0801084 -0.93291569 -0.38637862 3.8700753e-39
3.0500884 -0.92472184 -0.39376587 3.5934618e-39
3.0788958 -0.91036284 -0.39072964 3.776767e-39
3.1031525 -0.91486818 -0.40819374 3.3175769e-39
3.1045301 -0.89134854 -0.40307128 3.4072965e-39
3.244031 -0.87823796 -0.44260055 1.4376404e-38
3.2781818 -0.87459654 -0.43522772 8.6501944e-39
3.3102152 -0.89528006 -0.43947774 1.3090349e-38
3.2440131 -0.8603701 -0.44260055 9.3970949e-39
3.2771041 -0.85455477 -0.43909422 9.0247068e-39
3.3061657 -0.84974742 -0.45411903 9.5757268e-39
3.3069417 -0.82485324 -0.45119077 1.086358e-38
3.3378475 -0.82629222 -0.45949623 1.0772835e-38
3.1130376 -1.2941856 -0.37343401 1.1324566e-38
3.0350878 -1.2710379 -0.34752947 1.1602949e-38
3.0622237 -1.2656382 -0.35063753 1.067885e-38
3.1137712 -1.2771152 -0.37068981 1.0956868e-38
3.1414216 -1.2691268 -0.3756983 8.656667e-39
3.1144817 -1.2372853 -0.36794564 7.6385228e-39
3.1405854 -1.2408041 -0.37865186 8.6721317e-39
3.1154556 -1.2107313 -0.36428669 3.8625069e-39
3.1395605 -1.225495 -0.3823438 3.8661026e-39
3.0863101 -1.185516 -0.36462331 3.4090831e-39
3.034966 -1.14917 -0.34752944 3.9604478e-39
3.0601447 -1.1519977 -0.35782567 3.9622317e-39
3.0349383 -1.1214728 -0.34752944 3.6853071e-39
3.011673 -1.0953366 -0.33394203 3.2236114e-39
3.0334492 -1.0937772 -0.35287267 3.4086921e-39
2.9854913 -1.0749333 -0.33104107 3.4097768e-39
3.0116456 -1.0678779 -0.33394203 2.8573316e-39
3.0345104 -1.0591545 -0.34886524 3.5916667e-39
3.0087042 -1.0239468 -0.34453651 3.1335514e-39
3.0072391 -1.007473 -0.34983376 3.5005346e-39
3.0352359 -1.0019788 -0.34600273 3.0413656e-39
3.06195 -0.9917779 -0.35063753 3.5012367e-39
3.0318773 -0.98298967 -0.35821599 3.1353296e-39
3.0604587 -0.97501248 -0.35602859 2.6750872e-39
3.0351727 -0.93867087 -0.34600276 3.133578e-39
3.0604308 -0.9470675 -0.35602859 3.2257694e-39
3.0860577 -0.93290973 -0.36462328 3.1349947e-39
3.05966 -0.91353428 -0.35872412 3.410497e-39
3.0845478 -0.91035706 -0.37006211 3.2264673e-39
3.1156523 -0.90726912 -0.36245725 3.5938219e-39
3.1995046 -0.89706427 -0.37803116 1.5116441e-38
3.2566235 -0.90204924 -0.39664045 1.4379999e-38
3.1133871 -0.89304668 -0.37068981 3.6835148e-39
3.1422565 -0.89249754 -0.37126791 8.0130142e-39
3.2550404 -0.89013898 -0.40238544 1.106165e-38
3.281354 -0.87459338 -0.42362797 6.8955936e-39
3.3150079 -0.88313216 -0.4219082 9.2984393e-39
3.2550046 -0.8544032 -0.40238544 9.5753583e-39
3.2813299 -0.85054201 -0.42362797 1.0586656e-38
3.3149714 -0.84670281 -0.4219082 1.1416765e-38
3.256546 -0.8246218 -0.39664045 1.1232717e-38
3.284466 -0.81446171 -0.41202822 1.0587729e-38
3.3144171 -0.82646483 -0.4238604 1.141601e-38
3.3437805 -0.83037311 -0.43781459 1.1047993e-38
3.2844539 -0.80243605 -0.41202822 1.1692568e-38
3.0205514 -1.282047 -0.30215862 1.0596756e-38
3.0450239 -1.271028 -0.31119534 1.0226132e-38
3.0687118 -1.2667496 -0.32691696 1.0218966e-38
3.093827 -1.2655755 -0.33742914 1.0312944e-38
3.1215124 -1.2638311 -0.34233311 9.9437821e-39
3.1466663 -1.2637631 -0.35650003 8.1052687e-39
3.0710526 -1.2488625 -0.31829128 8.8417631e-39
3.0982721 -1.2486556 -0.32111269 6.2588449e-39
3.1234927 -1.2429661 -0.33501527 5.4305332e-39
3.1466472 -1.2446254 -0.35650003 7.5485118e-39
3.0972466 -1.2148254 -0.32473859 2.7615501e-39
3.1214707 -1.222105 -0.34233311 3.9640449e-39
3.068037 -1.1817977 -0.32907337 3.4083783e-39
3.0437331 -1.1491613 -0.31546998 4.0522819e-39
3.0650604 -1.1538557 -0.33985546 3.8697053e-39
3.0203867 -1.1172948 -0.30215862 3.5030682e-39
3.0422444 -1.1214656 -0.32081321 3.6856826e-39
3.0179465 -1.0916691 -0.31098729 4.3288744e-39
3.0451388 -1.0937655 -0.31012666 6.3586188e-39
3.0166068 -1.0623811 -0.31578001 6.9128814e-39
3.0443668 -1.0522205 -0.31279832 7.3716959e-39
3.0436168 -1.032833 -0.31546989 6.911438e-39
3.0708289 -1.025303 -0.31829128 8.7542478e-39
3.0431681 -1.0019706 -0.31699654 5.8962155e-39
3.0648985 -0.99177498 -0.33985546 3.3183056e-39
3.0435612 -0.97743857 -0.31546998 6.4508214e-39
3.0670903 -0.97221136 -0.3317689 4.2402661e-39
3.0431588 -0.94004774 -0.31680575 5.8983623e-39
3.0934944 -0.93290228 -0.33742914 3.686742e-39
3.0707283 -0.92470121 -0.31829128 6.2725118e-39
3.0949678 -0.91880453 -0.3319903 3.6892587e-39
3.1211596 -0.91105694 -0.34233311 3.6860203e-39
3.1483259 -0.90397406 -0.34911612 2.8591239e-39
3.2597656 -0.90204614 -0.3851504 1.2358877e-38
3.1231458 -0.89588183 -0.33501527 3.1342548e-39
3.1483145 -0.89249146 -0.34911612 7.1696399e-39
3.1764848 -0.88889271 -0.35224026 1.1438344e-38
3.234293 -0.88780367 -0.36451501 7.2755108e-39
3.2597537 -0.89013427 -0.3851504 7.8106961e-39
3.2908823 -0.88660944 -0.38882861 7.8254448e-39
3.2616029 -0.85439652 -0.37825632 9.9441268e-39
3.2892725 -0.86255968 -0.39462855 9.9416185e-39
3.2311032 -0.81109494 -0.37589893 1.104364e-38
3.261265 -0.83057302 -0.37940538 1.1139422e-38
3.0010014 -1.2672739 -0.27502811 6.0802256e-39
3.026346 -1.2820412 -0.28096965 3.4944642e-39
3.0511611 -1.2710221 -0.28875366 3.4094306e-39
3.0769613 -1.2600346 -0.29672718 2.8530255e-39
3.0769441 -1.2432677 -0.29672712 1.5666082e-39
3.1265001 -1.2486529 -0.32403854 4.2323502e-39
3.076916 -1.2153226 -0.29672712 1.5665928e-39
3.0525227 -1.1713103 -0.28341043 3.3183168e-39
3.0762997 -1.1884962 -0.29888359 3.4076286e-39
3.0510392 -1.1491541 -0.28875366 3.7771229e-39
3.029084 -1.1227778 -0.27037519 4.1441244e-39
3.051017 -1.1269963 -0.28875366 4.0540742e-39
3.0257957 -1.0939494 -0.28229398 5.5266945e-39
3.0261276 -1.0637445 -0.28096965 9.0304928e-39
3.0494781 -1.0494455 -0.29409692 9.2148784e-39
2.999819 -1.0422548 -0.27852887 8.4773302e-39
3.0280285 -1.0330803 -0.27390668 8.754629e-39
3.0509229 -1.0328257 -0.28875366 8.5709426e-39
3.0752518 -1.0252986 -0.30211818 8.017766e-39
3.0511851 -1.0029124 -0.28768501 8.2929137e-39
3.0508673 -0.97743124 -0.28875366 8.386194e-39
3.0766706 -0.96940726 -0.29672718 7.7393924e-39
3.0508287 -0.93865514 -0.28875366 7.8330258e-39
3.0736883 -0.93587625 -0.30750921 7.4667446e-39
3.1009312 -0.93289483 -0.31023502 6.5469477e-39
3.077605 -0.92096829 -0.29313314 6.6369951e-39
3.10092 -0.92161775 -0.31023502 4.3310548e-39
3.1291664 -0.91294545 -0.31306174 3.6838665e-39
3.1574125 -0.90396494 -0.31588855 3.8678948e-39
3.213383 -0.89705038 -0.32728177 2.578598e-39
3.1291494 -0.89587581 -0.31306174 4.0497694e-39
3.1558867 -0.89248389 -0.32142645 3.3161476e-39
3.2149017 -0.87366533 -0.32164294 4.4149337e-39
3.2402043 -0.88425726 -0.34288576 5.6113217e-39
3.266026 -0.87821597 -0.36217031 8.2835531e-39
3.2141101 -0.85320556 -0.32446229 6.9002375e-39
3.2410049 -0.85435849 -0.3398501 8.6512286e-39
3.2667878 -0.8543914 -0.35929781 9.6653917e-39
3.214855 -0.8268984 -0.32164294 1.0767755e-38
3.2404664 -0.83468932 -0.3417474 9.2015409e-39
3.0321295 -1.271052 -0.25978073 3.3169085e-39
3.0588813 -1.267849 -0.26051074 2.3952843e-39
3.0584421 -1.2460871 -0.26203743 2.1176058e-39
3.0838227 -1.2413979 -0.27156901 1.6598717e-39
3.0584061 -1.2100806 -0.26203743 2.0286556e-39
3.082819 -1.2209058 -0.27516299 1.7509813e-39
3.0580146 -1.1837685 -0.26337317 2.9484483e-39
3.0099692 -1.1402373 -0.24177037 3.2275351e-39
3.0329745 -1.1502328 -0.25624925 3.3165063e-39
3.0554285 -1.1546891 -0.27272391 3.5012619e-39
3.009953 -1.1239053 -0.24177037 3.7785803e-39
3.0329452 -1.1209434 -0.25624925 4.052984e-39
3.0568507 -1.1159116 -0.26738065 3.2268414e-39
3.0334024 -1.0953149 -0.25448352 6.1763841e-39
3.0602455 -1.1011362 -0.25491312 6.7219965e-39
3.0336614 -1.0645608 -0.25342408 9.0308515e-39
3.061168 -1.0494338 -0.25135094 8.754636e-39
3.0055633 -1.042249 -0.25752401 8.8446694e-39
3.0318987 -1.0403988 -0.25978073 8.7517577e-39
3.0588145 -1.0339258 -0.25990009 8.1106959e-39
3.0582013 -1.0051211 -0.26203743 7.000754e-39
3.058907 -0.9801929 -0.25936577 7.7401155e-39
3.0840473 -0.97498888 -0.26977196 8.2954389e-39
3.0585015 -0.94003236 -0.26070157 8.2932879e-39
3.0825338 -0.93586743 -0.27516299 8.1096225e-39
3.0586905 -0.90984201 -0.25990009 5.2537202e-39
3.0825226 -0.92468941 -0.27516299 6.9178798e-39
3.1105764 -0.91033107 -0.27488264 4.4217777e-39
3.1361687 -0.91104192 -0.2874493 4.0533441e-39
3.1649849 -0.90395737 -0.28819883 3.5002025e-39
3.1917763 -0.90046275 -0.29636535 2.8551835e-39
3.1917648 -0.88887745 -0.29636535 2.0272094e-39
3.2200496 -0.88145465 -0.30284685 1.8428266e-39
3.2451949 -0.89369369 -0.32467163 2.2090784e-39
3.1886797 -0.85991716 -0.30754024 3.2196458e-39
3.2195044 -0.85027719 -0.30472648 4.4153107e-39
3.251374 -0.84648019 -0.30190396 4.504303e-39
3.2179391 -0.8268953 -0.31036529 1.0036315e-38
3.0408177 -1.2673821 -0.22799733 4.7985168e-39
3.0678122 -1.264358 -0.22784066 2.3030803e-39
3.0946524 -1.2600169 -0.23203467 2.2080148e-39
3.0672123 -1.2488481 -0.22997792 2.2090868e-39
3.091687 -1.243253 -0.24281672 2.5789539e-39
3.0683458 -1.2133945 -0.22570333 2.5807532e-39
3.0909276 -1.2208977 -0.24551225 2.2134112e-39
3.042171 -1.1721904 -0.2227001 3.1310459e-39
3.0659814 -1.1868074 -0.23425257 2.6729488e-39
3.0171604 -1.1511183 -0.21551427 2.8584106e-39
3.0426393 -1.1575454 -0.22093436 3.225031e-39
3.0171278 -1.118454 -0.21551427 3.7789208e-39
3.0377703 -1.1172774 -0.23859178 3.7763845e-39
3.0125849 -1.090474 -0.21306835 6.5386983e-39
3.039676 -1.0916474 -0.23152882 7.3698967e-39
3.0199564 -1.0748988 -0.2050118 9.3981893e-39
3.0406237 -1.0733407 -0.22799733 8.8453785e-39
3.067024 -1.0605069 -0.22997792 8.5698734e-39
3.0669963 -1.0328097 -0.22997792 8.0174199e-39
3.0669742 -1.0106518 -0.22997792 6.2628218e-39
3.0929153 -0.99733603 -0.23742573 7.2812926e-39
3.0920074 -0.97386312 -0.24066037 7.6471786e-39
3.0669022 -0.9386391 -0.22997792 8.5680699e-39
3.0654187 -0.91648269 -0.23532121 6.6413238e-39
3.0913517 -0.90791363 -0.24281678 3.8707605e-39
3.1187494 -0.90280485 -0.24496908 3.7756978e-39
3.1725571 -0.9039498 -0.26050913 3.4991025e-39
3.1725457 -0.8924672 -0.26050907 2.5803846e-39
3.1988916 -0.88500851 -0.2702904 1.7502792e-39
3.2272437 -0.87949884 -0.27653238 2.5789511e-39
3.1978476 -0.85990798 -0.27401528 3.222873e-39
