# .PCD v0.7 - Point Cloud Data file format
VERSION 0.7
FIELDS x y z rgb
SIZE 4 4 4 4
TYPE F F F F
COUNT 1 1 1 1
WIDTH 1010
HEIGHT 1
VIEWPOINT 0 0 0 1 0 0 0
POINTS 1010
DATA ascii
2.3807395 -0.72808778 -1.2598239 8.7550045e-39
2.3803496 -0.7019015 -1.2611533 7.8326909e-39
2.4035847 -0.69751501 -1.2519939 8.5706077e-39
2.381598 -0.67778105 -1.2565002 8.2943725e-39
2.4013548 -0.6655764 -1.2600311 8.4787764e-39
2.4009717 -0.64891207 -1.2613707 8.7528437e-39
2.7401056 -0.9052276 -1.326291 1.4008292e-38
2.7673197 -0.90570182 -1.3253448 9.1237604e-39
2.7658474 -0.89462447 -1.330688 7.0090203e-39
2.3918791 -0.77907175 -1.2192763 9.2145618e-39
2.3673472 -0.75878978 -1.2330887 1.0415252e-38
2.3900774 -0.75881332 -1.2257905 9.954282e-39
2.3892858 -0.73083574 -1.2285823 8.9390314e-39
2.3867216 -0.7115429 -1.2378883 9.2138261e-39
2.4089499 -0.70104456 -1.2323878 8.7542814e-39
2.4086838 -0.66834664 -1.2332402 8.4784246e-39
2.4086645 -0.64890438 -1.2332402 9.4875319e-39
2.7478316 -0.90521985 -1.2980391 1.0970518e-38
2.7717032 -0.90569741 -1.309315 7.4674929e-39
2.7964895 -0.90261954 -1.3210247 7.0072252e-39
2.7746148 -0.89461565 -1.2986284 7.0954636e-39
2.398222 -0.75976998 -1.1960113 9.8609947e-39
2.3975642 -0.73806328 -1.1983378 9.0330291e-39
2.4169517 -0.73055345 -1.2032346 8.6635334e-39
2.4164107 -0.70236284 -1.2051098 8.3869423e-39
2.4163766 -0.66833901 -1.2051098 8.7550073e-39
2.426131 -0.64889705 -1.2072796 1.0040333e-38
2.4589703 -0.64906335 -1.2047181 1.1972096e-38
2.7095504 -0.90418166 -1.2446789 1.1978567e-38
2.7565162 -0.89788884 -1.2662556 6.7299363e-39
2.6588042 -0.88912779 -1.2444293 1.4281643e-38
2.6836932 -0.89650112 -1.2444276 1.3916448e-38
2.7131562 -0.88984126 -1.2551335 8.753173e-39
2.753608 -0.88690823 -1.2768501 7.1840663e-39
2.4054356 -0.76297867 -1.1696442 9.1201969e-39
2.425015 -0.75906062 -1.1738539 9.4925724e-39
2.4058352 -0.73805505 -1.1680932 9.3078224e-39
2.4241316 -0.73054624 -1.1769794 9.5847708e-39
2.4058084 -0.71152383 -1.1680932 8.2951306e-39
2.4241023 -0.70102948 -1.1769794 8.6631718e-39
2.4240694 -0.66833115 -1.1769794 9.1237982e-39
2.4430025 -0.65133888 -1.1835037 8.7542829e-39
2.4615741 -0.64906073 -1.1951963 1.1774422e-38
2.7388959 -0.90532601 -1.2321503 7.8337643e-39
2.7623107 -0.897883 -1.2450666 7.0025379e-39
2.7332456 -0.88006437 -1.2290252 6.5426471e-39
2.4134963 -0.76457864 -1.1401752 9.2127345e-39
2.4318497 -0.7558133 -1.1488491 9.4003851e-39
2.4318304 -0.73637116 -1.1488491 9.0312341e-39
2.4317963 -0.7023474 -1.148849 9.2152638e-39
2.4317622 -0.66832358 -1.1488491 9.1241486e-39
2.4456015 -0.64819282 -1.152325 9.2123813e-39
2.4706781 -0.63918006 -1.1618695 1.2524134e-38
2.7325015 -0.90256786 -1.2081345 7.2723228e-39
2.7006354 -0.8964842 -1.1824749 6.6283884e-39
2.7408571 -0.88108349 -1.1990408 6.8167229e-39
2.4508197 -0.76325285 -1.1228342 9.5847736e-39
2.4825342 -0.7773701 -1.1190208 9.490029e-39
2.4395232 -0.73636347 -1.1207187 8.8472044e-39
2.4394891 -0.70233977 -1.1207187 8.9390356e-39
2.439455 -0.66831583 -1.1207187 9.2163456e-39
2.4525418 -0.64399004 -1.1182657 8.8453939e-39
2.6812291 -0.9103384 -1.1625053 1.6213411e-38
2.7068624 -0.91146445 -1.1597588 1.1336087e-38
2.7072172 -0.88934124 -1.1583822 6.3597062e-39
2.730406 -0.87537062 -1.1683099 6.4500942e-39
2.7062294 -0.84295559 -1.161824 6.2671701e-39
2.7308664 -0.86097497 -1.1665742 6.2646379e-39
2.4679801 -0.76150203 -1.0925708 9.3996481e-39
2.4903362 -0.76749068 -1.0904551 9.2195756e-39
2.4544728 -0.73601002 -1.094483 8.7557206e-39
2.4471819 -0.70233202 -1.0925882 8.6628117e-39
2.4471478 -0.6683082 -1.0925883 9.0319543e-39
2.4902275 -0.6589036 -1.0904551 8.3880171e-39
2.4550457 -0.64397991 -1.0961136 8.8439519e-39
2.4902177 -0.64903206 -1.0904551 8.016722e-39
2.7147861 -0.9285838 -1.1308476 9.3056181e-39
2.6924417 -0.92094368 -1.1215433 1.06864e-38
2.7147701 -0.91252697 -1.1308476 8.9401062e-39
2.7147434 -0.88576543 -1.1308476 6.7256161e-39
2.6951733 -0.85193354 -1.1113029 6.2667623e-39
2.7137771 -0.86078906 -1.1342894 6.3582573e-39
2.7351382 -0.86097068 -1.1509533 6.6319883e-39
2.4760561 -0.76345283 -1.0630469 7.3706365e-39
2.495544 -0.7674855 -1.0714111 7.5589725e-39
2.4553328 -0.73310733 -1.0628951 7.8334154e-39
2.4548748 -0.70232439 -1.0644579 7.5575487e-39
2.4568391 -0.67013741 -1.0666345 8.1103568e-39
2.4954419 -0.66547948 -1.0714111 8.2028873e-39
2.5162363 -0.66404092 -1.0749772 7.7422693e-39
2.513597 -0.64912063 -1.0845734 1.0866464e-38
2.7008538 -0.93155181 -1.0908219 1.1141685e-38
2.749464 -0.94732708 -1.0988836 1.0594244e-38
2.6994429 -0.9209367 -1.0959421 9.3096328e-39
2.7218294 -0.91251993 -1.105034 8.7571653e-39
2.6996782 -0.87634706 -1.094918 7.4664167e-39
2.7204013 -0.89646441 -1.1101967 8.2043461e-39
2.699374 -0.85192937 -1.095942 6.0802424e-39
2.7260168 -0.86434501 -1.0895458 6.8181816e-39
2.463903 -0.75578129 -1.0316391 7.835216e-39
2.4465461 -0.73077846 -1.0191972 7.9266844e-39
2.4613194 -0.73634166 -1.0410159 7.4657188e-39
2.4439735 -0.70304394 -1.0285032 7.0969321e-39
2.4612756 -0.69259679 -1.0410159 7.5593312e-39
2.4452255 -0.68254131 -1.0238502 6.361172e-39
2.4660299 -0.67208415 -1.0319797 6.8196152e-39
2.503257 -0.66876215 -1.0428454 6.8149376e-39
2.5227969 -0.66403437 -1.0509865 6.6255297e-39
2.7289259 -0.94997883 -1.0792204 8.9505809e-39
2.6582093 -0.91164768 -1.0429221 8.8522378e-39
2.6830578 -0.91329074 -1.0648466 8.4805812e-39
2.7036273 -0.90500778 -1.0805814 7.1851859e-39
2.6642609 -0.88998663 -1.0425115 6.3561203e-39
2.6839519 -0.88170451 -1.0614616 4.9746404e-39
2.7036009 -0.87846649 -1.0805814 6.8185446e-39
2.658843 -0.85689843 -1.0404044 4.7905994e-39
2.6839254 -0.8553834 -1.0614614 5.988065e-39
2.4355319 -0.75393456 -0.98373806 6.9943206e-39
2.4516551 -0.75006878 -1.0005852 8.2011231e-39
2.4703236 -0.76549608 -1.0081971 6.1688648e-39
2.4516358 -0.73077339 -1.0005852 7.5561012e-39
2.451607 -0.70183033 -1.0005852 7.0936811e-39
2.4515877 -0.68253499 -1.0005852 7.279873e-39
2.4790242 -0.67482489 -1.0013222 7.7383204e-39
2.5110686 -0.66875434 -1.0142796 7.8312363e-39
2.5293577 -0.66402781 -1.0269959 7.8333453e-39
2.5529716 -0.66272718 -1.0240436 9.0236418e-39
2.6468582 -0.92938936 -1.0190996 9.6762181e-39
2.6566768 -0.91185081 -1.0205013 8.2947578e-39
2.6625719 -0.88408858 -1.0196016 5.9880328e-39
2.6613061 -0.85994589 -1.0205092 6.3579195e-39
2.6265399 -0.82936919 -1.0058398 6.4511858e-39
2.4380574 -0.75393206 -0.97450292 7.9223824e-39
2.4618495 -0.76453018 -0.9633612 8.6595747e-39
2.4412868 -0.73614788 -0.96262908 9.3088874e-39
2.4573596 -0.72835577 -0.97964668 9.4000124e-39
2.4430704 -0.71562976 -0.95603251 9.5833359e-39
2.4605143 -0.70182145 -0.96801418 8.9386713e-39
2.4612565 -0.6805957 -0.96522242 7.7412141e-39
2.4885128 -0.67041624 -0.97383088 7.1862243e-39
2.5188739 -0.66216552 -0.98571378 7.8297902e-39
2.5359185 -0.66402125 -1.0030053 8.199286e-39
2.5214601 -0.64406502 -0.97619188 9.3996158e-39
2.5372205 -0.65407133 -0.99820709 8.5695301e-39
2.6542382 -0.93352443 -0.99212891 6.9986086e-39
2.6536705 -0.91212261 -0.9941268 8.0167122e-39
2.6338234 -0.88756752 -0.97941917 5.8050877e-39
2.653641 -0.88278067 -0.99412674 4.8845663e-39
2.7006044 -0.87115937 -1.0005282 4.696215e-39
2.6676939 -0.86104625 -0.99497622 4.8838615e-39
2.4720435 -0.77899158 -0.92613715 6.1652382e-39
2.4882929 -0.78492033 -0.94255948 5.9887447e-39
2.4506948 -0.7634936 -0.92832685 8.7499823e-39
2.4699051 -0.76130629 -0.93389219 9.4003781e-39
2.4474204 -0.73614174 -0.94020069 8.8479148e-39
2.4709792 -0.7326836 -0.92985958 8.5713349e-39
2.4481192 -0.71323109 -0.93756205 8.5713265e-39
2.4694262 -0.70663637 -0.93544316 9.0319515e-39
2.4493554 -0.68690044 -0.93294448 8.7557164e-39
2.4697587 -0.67562544 -0.93411374 8.1096295e-39
2.4876575 -0.662435 -0.94443488 7.4642517e-39
2.5019398 -0.64254999 -0.94629294 8.8428309e-39
2.5253711 -0.64899695 -0.961909 8.0123962e-39
2.6212356 -0.93833119 -0.94223124 2.8544772e-39
2.6395152 -0.93463975 -0.95877796 4.4182016e-39
2.6394999 -0.91923243 -0.95877796 7.6493632e-39
2.6624126 -0.91280419 -0.96216136 6.7255894e-39
2.6404784 -0.88199711 -0.95506257 5.5274134e-39
2.6590993 -0.87759727 -0.97414839 5.1589756e-39
2.6400976 -0.83962715 -0.95630103 4.6083354e-39
2.6618156 -0.86206055 -0.96415925 5.0667912e-39
2.4745884 -0.77898908 -0.9168312 6.6287317e-39
2.497268 -0.78491133 -0.90974075 6.3528384e-39
2.4557459 -0.76348853 -0.90985644 9.5836834e-39
2.4774311 -0.75848484 -0.90636194 1.0230119e-38
2.4588668 -0.7275818 -0.89831245 9.5862001e-39
2.4762399 -0.73396474 -0.91062719 9.4940143e-39
2.45632 -0.70604211 -0.90754765 8.4791337e-39
2.4777846 -0.70318234 -0.90486634 7.8341174e-39
2.4548242 -0.68370348 -0.91293484 8.0167192e-39
2.4773443 -0.67165548 -0.90636194 7.7408344e-39
2.4958594 -0.65853828 -0.91442913 7.5553655e-39
2.5021267 -0.65045005 -0.91675401 7.5546565e-39
2.5338314 -0.64652061 -0.93096274 7.7372176e-39
2.6248167 -0.93493062 -0.92912477 4.5068267e-39
2.6073263 -0.91909778 -0.90583193 6.9103773e-39
2.6256921 -0.91454804 -0.92584807 6.7270468e-39
2.6455882 -0.91152269 -0.93648553 6.4497424e-39
2.607475 -0.89012587 -0.905182 5.9876811e-39
2.6279023 -0.88397342 -0.91765666 5.436308e-39
2.6475821 -0.87300241 -0.92905468 4.6086983e-39
2.6478519 -0.85282576 -0.92799318 4.8824083e-39
2.4847682 -0.77897888 -0.87960714 6.9960583e-39
2.5144303 -0.79276389 -0.88492072 5.6181727e-39
2.4847536 -0.76450729 -0.87960714 9.4010984e-39
2.4658194 -0.73475552 -0.87291563 9.3088916e-39
2.4657907 -0.70603257 -0.87291563 9.4940115e-39
2.4846814 -0.69214952 -0.87960714 8.4787778e-39
2.4846621 -0.67285413 -0.8796072 7.8330384e-39
2.50227 -0.6585319 -0.8909871 7.4631587e-39
2.4871876 -0.65355617 -0.87030113 7.555004e-39
2.5138514 -0.64472824 -0.88649523 7.369168e-39
2.5396929 -0.64898258 -0.90953839 6.6377266e-39
2.6004438 -0.93251824 -0.87797445 1.1523757e-38
2.6092896 -0.91549897 -0.8809486 6.7274125e-39
2.6114745 -0.88600814 -0.88169616 5.4366625e-39
2.6070192 -0.86433554 -0.88021743 4.8838432e-39
2.635488 -0.85339332 -0.88980532 4.6065375e-39
2.5194793 -0.79118478 -0.85887051 6.1702464e-39
2.5476625 -0.80691957 -0.88097262 4.7894994e-39
2.4927027 -0.76088154 -0.85052592 9.7698795e-39
2.4676101 -0.73042458 -0.84468812 8.2950942e-39
2.4388673 -0.69546872 -0.8234784 8.1081862e-39
2.4540861 -0.70061314 -0.83987635 9.0322977e-39
2.4741838 -0.68049276 -0.84213156 8.7550101e-39
2.4914451 -0.66963142 -0.85479116 7.8337559e-39
2.4927824 -0.64969152 -0.84982795 7.4646062e-39
2.5107126 -0.63908124 -0.8600437 7.9205509e-39
2.6044171 -0.96021348 -0.83701026 1.1982569e-38
2.6021264 -0.93729144 -0.8453024 9.7705872e-39
2.6017213 -0.91006941 -0.8466844 6.7270538e-39
2.6013162 -0.88284719 -0.84806645 5.5295672e-39
2.580725 -0.85797471 -0.83986872 4.9746166e-39
2.6069882 -0.84888297 -0.84994644 4.2391801e-39
2.6103072 -0.83302397 -0.85481155 4.2366521e-39
2.5261619 -0.79117811 -0.83443421 6.080227e-39
2.5606823 -0.80690658 -0.833363 4.8781203e-39
2.4835172 -0.75388658 -0.80826914 9.0312257e-39
2.4995151 -0.76545733 -0.82563233 9.4929241e-39
2.4463592 -0.72375488 -0.79618692 9.1227024e-39
2.4706211 -0.73511648 -0.81744939 8.8482777e-39
2.4438524 -0.7048949 -0.80528408 8.2933047e-39
2.4635823 -0.69426978 -0.80512792 8.0170765e-39
2.4413459 -0.68603504 -0.81438124 8.568828e-39
2.4745731 -0.67553943 -0.81541538 8.2947312e-39
2.4999218 -0.6631912 -0.82377112 8.3862024e-39
2.499907 -0.64871967 -0.82377118 7.8330244e-39
2.5163538 -0.63907558 -0.83941478 6.7266726e-39
2.6083853 -0.96020949 -0.82249904 1.1798545e-38
2.6083653 -0.94015068 -0.82249904 8.5716754e-39
2.5877712 -0.90605265 -0.81427866 7.27915e-39
2.6070225 -0.92009336 -0.82733613 7.3713498e-39
2.5879693 -0.88532621 -0.81347901 6.3589859e-39
2.6069875 -0.88499063 -0.82733613 5.6235663e-39
2.5685434 -0.8562566 -0.80479717 5.0667968e-39
2.5859692 -0.85299516 -0.82067627 4.6065431e-39
2.5685041 -0.81677037 -0.80479717 4.2392109e-39
2.5859439 -0.82812357 -0.82067621 4.5132559e-39
2.5076723 -0.77895606 -0.79585314 8.2958046e-39
2.5394831 -0.7986024 -0.80596739 6.2574156e-39
2.472666 -0.75382817 -0.78476506 8.8475505e-39
2.4518361 -0.72752184 -0.77617317 9.124143e-39
2.4669683 -0.73860395 -0.79290873 8.5680783e-39
2.4516737 -0.7075817 -0.77669299 8.6646138e-39
2.4689295 -0.69489777 -0.78557718 7.7422749e-39
2.4537752 -0.6765914 -0.76889545 8.8471777e-39
2.4827619 -0.67092758 -0.7879824 7.7408302e-39
2.5050116 -0.66318607 -0.80515915 7.8290405e-39
2.5075419 -0.64871204 -0.79585314 7.925213e-39
2.5556791 -0.94016391 -0.77253348 9.4021746e-39
2.5729654 -0.93851519 -0.78892726 8.7539171e-39
2.5913169 -0.95247602 -0.80148369 1.0326642e-38
2.5554352 -0.91159695 -0.77332079 7.6500807e-39
2.5732877 -0.91350693 -0.78765774 7.8341188e-39
2.5912871 -0.92263013 -0.80148369 8.2014594e-39
2.5741081 -0.8870998 -0.78456318 6.7266951e-39
2.5932078 -0.87537235 -0.79428649 5.3441193e-39
2.5742683 -0.85230231 -0.78384894 4.3303233e-39
2.5920854 -0.84635663 -0.79828489 4.1452118e-39
2.5536165 -0.81528616 -0.77961916 4.8824139e-39
2.5750289 -0.83157128 -0.78099239 4.7887735e-39
2.5911975 -0.83309263 -0.80148369 4.4221252e-39
2.4986994 -0.78259426 -0.75285786 6.908208e-39
2.5153165 -0.78859603 -0.76793516 6.7249014e-39
2.5344691 -0.80431628 -0.77377713 5.1590036e-39
2.4937606 -0.76152903 -0.76136279 8.1117889e-39
2.4769833 -0.72909296 -0.7562511 9.0319445e-39
2.4593987 -0.70252162 -0.74842685 9.6758706e-39
2.4752812 -0.69742495 -0.76236069 9.1248618e-39
2.4600043 -0.68601638 -0.74615252 9.4010718e-39
2.4849005 -0.66945755 -0.75867343 8.5705964e-39
2.5151765 -0.64870441 -0.7679351 8.0170611e-39
2.5451663 -0.64146882 -0.77197433 7.9191188e-39
2.5543251 -0.9397589 -0.74715632 8.4802113e-39
2.5790381 -0.93521857 -0.76670951 7.3760119e-39
2.5617838 -0.90832567 -0.75009549 7.6490003e-39
2.5790186 -0.91547549 -0.76670951 7.742635e-39
2.5617554 -0.88016665 -0.75009549 6.3575482e-39
2.578979 -0.87598932 -0.76670951 5.6185398e-39
2.5509088 -0.84768271 -0.74414796 5.5267085e-39
2.578959 -0.85624617 -0.76670945 4.607262e-39
2.5255203 -0.8127051 -0.7307111 5.7046426e-39
2.5469792 -0.82287544 -0.74705416 5.4377457e-39
2.5789394 -0.83650309 -0.76670951 5.3437466e-39
2.5037568 -0.78897214 -0.73438746 5.8058009e-39
2.520416 -0.79823858 -0.74932313 5.6131224e-39
2.4687822 -0.75674158 -0.71431249 8.4801636e-39
2.4839089 -0.76233935 -0.73104894 7.9270291e-39
2.4687586 -0.7331636 -0.71431249 8.7546374e-39
2.4832489 -0.72908676 -0.73334002 9.031569e-39
2.4667401 -0.70487201 -0.72159022 9.0312243e-39
2.4844735 -0.70058274 -0.72875786 9.4000096e-39
2.4662237 -0.68601018 -0.72340965 9.5829435e-39
2.4981754 -0.67235452 -0.73369157 9.1234087e-39
2.5253708 -0.66316575 -0.7307111 8.9368342e-39
2.5223033 -0.64966202 -0.74187833 8.5695146e-39
2.5570395 -0.64509827 -0.74752474 8.4769561e-39
2.6032515 -0.64074045 -0.75670105 9.760467e-39
2.544493 -0.5709998 -0.73626995 1.2439181e-38
2.6027479 -0.5744167 -0.75830048 1.2254428e-38
2.622545 -0.56905013 -0.76929128 1.2345889e-38
2.6040401 -0.5545181 -0.75350231 1.1691212e-38
2.622535 -0.55902076 -0.76929128 1.2522055e-38
2.592216 -1.0931505 -0.71909982 1.2072586e-38
2.5638156 -1.0688741 -0.71797866 1.2158676e-38
2.5908892 -1.068473 -0.7238608 1.1694068e-38
2.6124306 -1.0718385 -0.72471362 1.0766015e-38
2.5512924 -0.9598372 -0.71282798 1.0421709e-38
2.5585549 -0.94356811 -0.7199083 7.9241578e-39
2.5499616 -0.91123289 -0.71751636 7.1876732e-39
2.549613 -0.88328511 -0.71868849 6.4511872e-39
2.532347 -0.85289705 -0.70589513 5.8962113e-39
2.5492697 -0.86019784 -0.71986055 5.436294e-39
2.5126283 -0.82087761 -0.70206428 6.4493809e-39
2.528075 -0.8223502 -0.72140509 6.264275e-39
2.5121768 -0.79055941 -0.70360345 7.5575263e-39
2.5293233 -0.79822969 -0.71675211 8.0174241e-39
2.4712653 -0.75202352 -0.70521533 7.458512e-39
2.4925561 -0.76328075 -0.69943172 7.7422623e-39
2.4737341 -0.73315865 -0.69611818 8.7546318e-39
2.4740641 -0.70755941 -0.69481856 8.9397531e-39
2.4903183 -0.69740993 -0.70737422 9.0315844e-39
2.4749262 -0.68128592 -0.69156957 8.6624375e-39
2.5026045 -0.67229366 -0.70567942 9.1226856e-39
2.5304606 -0.66316062 -0.71209913 9.0301313e-39
2.5304511 -0.6535129 -0.71209913 9.1219654e-39
2.5572329 -0.64204806 -0.71837574 9.0297571e-39
2.5865541 -0.63906419 -0.73814368 8.2021699e-39
2.5715108 -0.62427551 -0.71348602 1.0679186e-38
2.5647075 -0.57665759 -0.71923512 1.2529948e-38
2.5890884 -0.56996065 -0.72862172 1.2708962e-38
2.5890741 -0.55515325 -0.72862184 1.1693022e-38
2.6092787 -0.54456431 -0.73430979 1.0950785e-38
2.6092687 -0.5346157 -0.73430979 1.1965588e-38
2.6330874 -0.52892214 -0.73059475 1.2153263e-38
2.5790787 -1.0870579 -0.68750513 1.1971392e-38
2.5980823 -1.1005483 -0.69767553 1.316707e-38
2.5797052 -1.0674685 -0.68514329 1.1320987e-38
2.5965326 -1.0701126 -0.7032299 9.7508289e-39
2.6150548 -1.0718359 -0.71511734 9.289457e-39
2.5629094 -1.0375943 -0.67063236 1.1230939e-38
2.503536 -0.96658951 -0.66002476 1.1332888e-38
2.5551388 -0.95983332 -0.69876277 9.6794944e-39
2.5027626 -0.94473821 -0.66277415 8.7553254e-39
2.5383799 -0.94776011 -0.68418109 7.8359265e-39
2.5557604 -0.94039053 -0.69641858 7.0021973e-39
2.511466 -0.91430926 -0.6611619 4.42217e-39
2.5396233 -0.91881585 -0.67952812 5.2519027e-39
2.5561178 -0.91317099 -0.69501203 6.2635631e-39
2.5173218 -0.88140875 -0.66616631 4.2381305e-39
2.5374689 -0.88505101 -0.6872831 5.7125417e-39
2.5550706 -0.89178568 -0.69876277 6.9096528e-39
2.5120592 -0.8519845 -0.67056125 4.8827951e-39
2.5357432 -0.85610956 -0.69348711 5.8047346e-39
2.4837656 -0.81331378 -0.65972954 5.2504804e-39
2.5028505 -0.82511616 -0.67465061 6.1738688e-39
2.4856102 -0.79209173 -0.65290666 4.4214386e-39
2.5065241 -0.79310381 -0.6768952 6.6341169e-39
2.4852045 -0.75955445 -0.65427125 4.7905728e-39
2.4991596 -0.76707447 -0.67529875 7.2805569e-39
2.4824414 -0.73314989 -0.66427815 7.0025407e-39
2.5020359 -0.719567 -0.66460693 7.4663831e-39
2.4811726 -0.70800132 -0.6688267 8.0163437e-39
2.5014577 -0.6984545 -0.6666435 7.0943846e-39
2.5118961 -0.67810643 -0.67052191 7.095109e-39
2.5388265 -0.66728699 -0.68152225 8.1088924e-39
2.5398991 -0.64936876 -0.67753398 7.1869347e-39
2.564672 -0.63737714 -0.68799531 7.1869347e-39
2.5956581 -0.62918353 -0.70481694 1.0123852e-38
2.5779212 -0.57529664 -0.68986708 1.2705355e-38
2.5955987 -0.56995416 -0.70481694 1.2894432e-38
2.5795627 -0.5557059 -0.68379366 1.3074127e-38
2.5979204 -0.5482344 -0.69624722 1.4273395e-38
2.6158397 -0.54455775 -0.71031922 1.3629481e-38
2.6192393 -0.53261602 -0.69784409 1.1690117e-38
2.6383784 -0.5289169 -0.71124649 1.1322769e-38
2.6052556 -1.1128806 -0.67149019 1.2891907e-38
2.5879102 -1.0911303 -0.65522587 1.2522049e-38
2.6052456 -1.103009 -0.67149019 1.3537647e-38
2.5874538 -1.0650121 -0.65680057 1.1966348e-38
2.5809751 -1.0428118 -0.65513629 1.224653e-38
2.5098064 -0.97133374 -0.63711369 8.5760167e-39
2.4888589 -0.9311986 -0.64153522 4.5139887e-39
2.5103383 -0.94652534 -0.63507718 4.1466439e-39
2.490505 -0.91862202 -0.63547045 3.963001e-39
2.5097435 -0.9083901 -0.63711369 3.6864057e-39
2.516176 -0.87855053 -0.63875425 3.7767838e-39
2.5161476 -0.85000503 -0.63875425 4.1455607e-39
2.4906094 -0.81566477 -0.63471234 3.8707731e-39
2.5096686 -0.83357054 -0.63711369 3.871129e-39
2.4880834 -0.79207081 -0.63076699 3.5942016e-39
2.4911771 -0.76143479 -0.63243806 3.686756e-39
2.4908388 -0.73432052 -0.6335752 3.9618982e-39
2.5095577 -0.72272646 -0.63711369 3.8715032e-39
2.4929864 -0.70484579 -0.62561518 3.9626198e-39
2.508697 -0.69739163 -0.64016849 3.8700543e-39
2.5185745 -0.67462391 -0.64187449 4.2374116e-39
2.5495522 -0.66796541 -0.64230412 4.0551574e-39
2.5676589 -0.65846652 -0.65187877 3.7793216e-39
2.5474138 -0.65028012 -0.6500591 4.4221574e-39
2.5703826 -0.63840282 -0.65132189 4.1451978e-39
2.5864508 -0.57920587 -0.65868998 1.2528153e-38
2.6099205 -0.56993985 -0.65244633 1.3994999e-38
2.5853961 -0.55765897 -0.66246903 1.2426632e-38
2.6072943 -0.54773146 -0.66196829 1.4637507e-38
2.6302781 -0.54951757 -0.65753978 1.5188502e-38
2.6271102 -0.53061843 -0.66905528 1.4083953e-38
2.5869274 -1.0871903 -0.62847763 1.3993579e-38
2.6182456 -1.0832529 -0.62388057 1.3900305e-38
2.590801 -1.0712149 -0.62941951 1.3256358e-38
2.6156206 -1.0618672 -0.63340253 1.1971731e-38
2.5964715 -1.0405169 -0.62373388 1.1878471e-38
2.4935136 -0.96338117 -0.60062289 1.005149e-38
2.5173202 -0.96657574 -0.60962045 6.8268136e-39
2.5172966 -0.94282353 -0.60962051 3.8711431e-39
2.5172632 -0.90957022 -0.60962045 3.6863847e-39
2.5189254 -0.8798337 -0.6110149 3.5934786e-39
2.5199473 -0.85220009 -0.60907245 3.5020074e-39
2.480217 -0.81196696 -0.60067278 3.7785775e-39
2.5171871 -0.83356303 -0.60962045 3.6867504e-39
2.4894307 -0.79147094 -0.60292095 3.7789432e-39
2.4986403 -0.76142734 -0.60514659 3.872208e-39
2.4945037 -0.73192936 -0.60415989 3.8704298e-39
2.518326 -0.71955073 -0.60503829 3.9629421e-39
2.4970894 -0.70295548 -0.61060488 4.0540742e-39
2.5189312 -0.69817311 -0.60274714 4.1476991e-39
2.4960773 -0.68598032 -0.61424375 4.0544259e-39
2.5261316 -0.68178791 -0.61426622 4.2392053e-39
2.5562363 -0.67157662 -0.61787581 4.2381179e-39
2.5559001 -0.65348744 -0.61903912 4.0548084e-39
2.5750127 -0.64023209 -0.62492049 4.2352298e-39
2.61448 -0.57240313 -0.63578296 1.3628023e-38
2.6151183 -0.56006306 -0.63340241 1.4913365e-38
2.6355269 -0.54951233 -0.63834733 1.5006627e-38
2.6348534 -0.53210294 -0.6407463 1.3992824e-38
2.6516063 -0.52890366 -0.66287577 1.3534366e-38
2.5614142 -1.0779812 -0.60042709 1.4176885e-38
2.6055634 -1.0894802 -0.59066731 1.2152175e-38
2.6234534 -1.0832478 -0.60483664 1.3533682e-38
2.6653957 -1.0905343 -0.61450511 1.3351069e-38
2.5821803 -1.0764595 -0.60030639 1.3993912e-38
2.6208348 -1.0684431 -0.61435866 1.2522751e-38
2.6439219 -1.071807 -0.60955846 1.2432704e-38
2.600352 -1.0454102 -0.60956252 1.1510771e-38
2.5280986 -0.97256315 -0.58286488 8.5752908e-39
2.5087614 -0.93117869 -0.56875795 3.6871091e-39
2.5243156 -0.94471669 -0.58396018 4.0541022e-39
2.5079165 -0.91546094 -0.57179034 3.2257596e-39
2.5243623 -0.90797961 -0.58365464 3.5941946e-39
2.5062358 -0.89345652 -0.57785511 3.4080153e-39
2.5247531 -0.88106006 -0.58212721 3.3172476e-39
2.5061886 -0.8463006 -0.57785511 3.9604562e-39
2.524734 -0.8620581 -0.58212721 3.8679117e-39
2.4999914 -0.82542247 -0.5764311 3.8700585e-39
2.487607 -0.79323667 -0.57358313 3.8697123e-39
2.5014749 -0.76469332 -0.57678705 3.7785859e-39
2.5040181 -0.7325241 -0.57737297 4.0540966e-39
2.5245917 -0.71954441 -0.58212721 4.1459153e-39
2.53108 -0.70233023 -0.58361042 4.2366676e-39
2.5446923 -0.68441147 -0.58431536 4.3281653e-39
2.5632348 -0.67156965 -0.59228432 4.2370431e-39
2.5830443 -0.65845114 -0.59561801 4.0537308e-39
2.597023 -0.64995551 -0.60133481 4.1451908e-39
2.6256232 -0.64889669 -0.5953148 3.9601101e-39
2.6203363 -0.56992942 -0.61435866 1.3080593e-38
2.6460485 -0.57437342 -0.59996217 1.2255881e-38
2.6024559 -0.56547755 -0.60011494 1.2527789e-38
2.6229303 -0.5600552 -0.60483664 1.2981919e-38
2.6433997 -0.54950446 -0.60955852 1.3348906e-38
2.6635215 -0.53892112 -0.61934221 1.1968857e-38
2.6648343 -0.52889043 -0.61450511 1.1229841e-38
2.6531465 -1.1115922 -0.57597154 1.1415349e-38
2.6081471 -1.0894775 -0.58121973 1.1874512e-38
2.631268 -1.0857078 -0.57627094 1.1600435e-38
2.6524656 -1.0867215 -0.57837057 1.0127484e-38
2.6700182 -1.0830076 -0.59757537 1.1598652e-38
2.6733124 -1.0704676 -0.58548272 1.2627554e-38
2.5137653 -0.95946735 -0.55056363 5.4323703e-39
2.5329885 -0.97131056 -0.55234289 7.9295584e-39
2.5142384 -0.93494576 -0.54874426 3.9626198e-39
2.5317187 -0.95468527 -0.55692512 4.4236036e-39
2.5137181 -0.91231143 -0.55056363 3.3172532e-39
2.5140479 -0.88671219 -0.54926407 3.1325018e-39
2.5310185 -0.88105369 -0.5592162 3.4984061e-39
2.511596 -0.85502917 -0.55011141 3.592401e-39
2.502974 -0.82283086 -0.54630882 3.5941904e-39
2.4962499 -0.79322803 -0.54197848 3.6860259e-39
2.5002024 -0.76366502 -0.54285067 3.7774985e-39
2.5106001 -0.73714012 -0.55232072 3.9622597e-39
2.5326152 -0.72333682 -0.55280113 3.9618897e-39
2.5386093 -0.70233089 -0.55607784 3.961531e-39
2.5521412 -0.6829679 -0.55707151 3.9618968e-39
2.5708225 -0.67001146 -0.56453252 4.1448489e-39
2.5907371 -0.65844345 -0.5674876 4.0533413e-39
2.6308408 -0.65876299 -0.57627088 4.4203329e-39
2.6128685 -0.64382315 -0.56232452 4.3202256e-39
2.6282272 -0.64889407 -0.58579284 2.9517231e-39
2.651377 -0.65395719 -0.58076966 2.7619256e-39
2.6294501 -0.5699203 -0.58103186 1.1613723e-38
2.6530533 -0.58099884 -0.57437211 1.17027e-38
2.6307421 -0.56004739 -0.57627088 1.0768495e-38
2.6512728 -0.54949659 -0.58076972 1.2428029e-38
2.6674898 -0.53891712 -0.60483098 1.1326006e-38
2.6512573 -0.53457373 -0.5807696 1.1783381e-38
2.6674798 -0.52888775 -0.60483098 1.0494076e-38
2.6210601 -1.0845674 -0.53398174 1.1324574e-38
2.6390772 -1.0832322 -0.54770511 1.0865007e-38
2.6586378 -1.0916897 -0.55581939 1.0679911e-38
2.6759679 -1.0804943 -0.57580853 9.7439821e-39
2.6416714 -1.0733581 -0.53818321 1.0127816e-38
2.6599872 -1.0630859 -0.55078137 8.8370576e-39
2.6772759 -1.065449 -0.57097149 1.2717909e-38
2.662262 -1.0419428 -0.54238462 1.2993816e-38
2.5242178 -0.96322942 -0.51235557 7.467137e-39
2.5382111 -0.97288883 -0.53325039 8.8515175e-39
2.5224538 -0.9405964 -0.51872361 3.7807327e-39
2.5398376 -0.92854953 -0.52714074 3.132499e-39
2.5225375 -0.9114452 -0.51831013 3.500906e-39
2.522397 -0.88400918 -0.51872361 3.0420886e-39
2.5223689 -0.85571563 -0.51872361 3.5927569e-39
2.5186114 -0.82809889 -0.51795655 3.6853015e-39
2.4880736 -0.79427832 -0.49985045 3.5023353e-39
2.5040679 -0.79166001 -0.51338375 3.594175e-39
2.5102184 -0.76108503 -0.51294297 3.7782089e-39
2.5232158 -0.73520499 -0.51518583 3.5012717e-39
2.5381324 -0.72713166 -0.53263938 3.8693312e-39
2.5247104 -0.7095297 -0.50962645 3.1310305e-39
2.5392952 -0.69934028 -0.52828634 3.1321249e-39
2.5592117 -0.6820035 -0.53121287 3.0392104e-39
2.5783105 -0.66890144 -0.53714627 3.4998396e-39
2.5990734 -0.66086543 -0.53701299 4.3292359e-39
2.6386528 -0.65875518 -0.54770511 3.4090649e-39
2.6167488 -0.64871651 -0.54815316 4.6893682e-39
2.6754866 -0.59908533 -0.57580853 1.2348084e-38
2.6595523 -0.58146614 -0.55061007 1.0500573e-38
2.6582792 -0.55778003 -0.55517966 1.1875937e-38
2.6807277 -0.54893321 -0.55646026 1.196921e-38
2.6468945 -1.0881602 -0.51913941 1.1050145e-38
2.6461272 -1.0648922 -0.52186 8.838882e-39
2.6685762 -1.0578543 -0.51935357 7.5459992e-39
2.6878431 -1.0503943 -0.53227496 1.0774266e-38
2.6688128 -1.0319877 -0.51839393 1.2537099e-38
2.5299358 -0.95945114 -0.49143213 5.5249051e-39
2.5499067 -0.97287714 -0.49048308 8.2086607e-39
2.5311611 -0.94058758 -0.48688352 3.8722094e-39
2.5311327 -0.91229397 -0.48688355 3.2257638e-39
2.5311043 -0.88400042 -0.48688355 3.4101453e-39
2.5289943 -0.8549962 -0.48649111 3.5020046e-39
2.5310526 -0.83212888 -0.48688355 3.4105054e-39
2.4935906 -0.79659575 -0.47968441 3.3190315e-39
2.5122912 -0.78385049 -0.48328403 3.8689668e-39
2.5200658 -0.76277477 -0.48478946 3.5930918e-39
2.5309534 -0.73310143 -0.48688355 3.2246876e-39
2.5312374 -0.7059865 -0.48574638 3.5016193e-39
2.5475395 -0.69418579 -0.49812013 3.3183266e-39
2.5667908 -0.68438941 -0.50350726 3.7767726e-39
2.5858269 -0.67757678 -0.50969356 4.0537e-39
2.6149318 -0.66750181 -0.51154143 3.8693284e-39
2.6257963 -0.65360469 -0.51508659 3.8696773e-39
2.6464548 -0.64887583 -0.51913929 6.798698e-39
2.6481445 -0.60280687 -0.51279134 1.2535715e-38
2.6644485 -0.6042009 -0.53278834 1.2994884e-38
2.6463954 -0.58964652 -0.51913929 1.0689634e-38
2.6670482 -0.57932675 -0.52319217 1.0127453e-38
2.6670327 -0.56440377 -0.52319205 1.2981206e-38
2.686024 -0.55394262 -0.53711206 1.2521665e-38
2.654701 -1.0832165 -0.49057359 1.1693002e-38
2.6728086 -1.0916754 -0.50399947 1.105267e-38
2.6566367 -1.0659393 -0.48343211 1.0406202e-38
2.6746523 -1.0604064 -0.49714512 8.6552209e-39
2.6944571 -1.0503877 -0.5080896 6.4382069e-39
2.6758983 -1.0319805 -0.49248406 8.1956594e-39
2.6572361 -1.0141131 -0.48105165 7.4695808e-39
2.541131 -0.95943999 -0.45049492 5.4359072e-39
2.561491 -0.97221845 -0.47339362 7.3774469e-39
2.5386243 -0.94058013 -0.45959207 3.8718479e-39
2.5365078 -0.91153717 -0.45922202 3.4090845e-39
2.5260451 -0.87963617 -0.45734939 3.5934744e-39
2.5009949 -0.84769297 -0.45279655 3.7782033e-39
2.5251226 -0.84983355 -0.45718431 3.6849399e-39
2.5291228 -0.82905138 -0.45791566 3.1339283e-39
2.4856 -0.80014867 -0.44067869 3.5052178e-39
2.5009437 -0.79658836 -0.45279649 3.7774845e-39
2.5190845 -0.78618407 -0.45845181 3.7771524e-39
2.519681 -0.76512015 -0.4561944 3.3179567e-39
2.5274675 -0.73460162 -0.45762131 3.134643e-39
2.5383885 -0.70480043 -0.45959207 3.5938275e-39
2.5383697 -0.685938 -0.45959207 3.7778642e-39
2.5756326 -0.68677413 -0.47118405 3.8696801e-39
2.5940976 -0.67756855 -0.47944903 3.5009116e-39
2.620404 -0.66493791 -0.48430037 3.6831421e-39
2.6763175 -0.66388083 -0.48960516 3.8696871e-39
2.6309636 -0.6535995 -0.49619138 2.6707824e-39
2.6516628 -0.64887065 -0.50009549 5.6941623e-39
2.6763074 -0.65393221 -0.48960516 5.9721799e-39
2.6953785 -0.64921224 -0.50325251 1.1892411e-38
2.6529155 -0.59951156 -0.49533454 1.1055921e-38
2.6756094 -0.61165118 -0.49200422 1.1703784e-38
2.6549432 -0.58117664 -0.48785305 1.0771033e-38
2.6722965 -0.5793215 -0.50399953 1.1322762e-38
2.6745694 -0.55569118 -0.49560291 1.1877375e-38
2.6913152 -0.55393732 -0.51776373 1.1969562e-38
2.683296 -1.0817164 -0.4656145 1.150859e-38
2.6624892 -1.0595169 -0.46200776 1.0221461e-38
2.6832762 -1.0618191 -0.4656145 9.6686511e-39
2.6631145 -1.0338503 -0.4596273 7.8265504e-39
2.6806271 -1.0369501 -0.47521079 7.0911293e-39
2.6367693 -1.0069407 -0.45098123 6.1691815e-39
2.6598399 -1.0141104 -0.47152972 6.1684374e-39
2.5649376 -0.96652812 -0.43549663 4.7916434e-39
2.5429573 -0.94412923 -0.43175668 3.8729241e-39
2.5407035 -0.91640353 -0.43225592 3.3175881e-39
2.513273 -0.87091005 -0.4079833 3.7800068e-39
2.5274503 -0.87932235 -0.42820171 3.3190511e-39
2.5132544 -0.85232657 -0.4079833 3.1324934e-39
2.5271733 -0.84936583 -0.42910466 3.1335682e-39
2.5271499 -0.82596225 -0.42910469 3.3186839e-39
2.4904671 -0.80014384 -0.42288083 3.778216e-39
2.5095983 -0.79100472 -0.42112851 3.2257554e-39
2.513171 -0.7687009 -0.4079833 3.5938177e-39
2.5270891 -0.76511264 -0.42910466 3.409425e-39
2.5270562 -0.73234749 -0.42910466 3.5938247e-39
2.5131152 -0.71295047 -0.4079833 3.2260988e-39
2.5374818 -0.70245397 -0.43088764 3.5927513e-39
2.5671682 -0.69099921 -0.42633221 3.4097908e-39
2.6228197 -0.68757474 -0.45027763 4.2373836e-39
2.5445893 -0.6859318 -0.43684918 3.3197587e-39
2.5844719 -0.68676531 -0.43886083 3.8700318e-39
2.5991924 -0.68238735 -0.46083704 4.0529854e-39
2.6281259 -0.67467582 -0.45609921 4.4203231e-39
2.6620979 -0.6686033 -0.46200773 4.1455439e-39
2.7085278 -0.66551471 -0.47513181 4.6911745e-39
2.659435 -0.60937661 -0.47152972 1.0791526e-38
2.6837001 -0.61081415 -0.46241578 9.9463254e-39
2.6616831 -0.57852572 -0.46319807 1.2061416e-38
2.6854329 -0.59423131 -0.45601827 1.1785907e-38
2.6827784 -0.56438804 -0.46561444 1.2520938e-38
2.7018991 -0.55559826 -0.47906721 1.160149e-38
2.6898568 -1.0817099 -0.44162387 1.1507864e-38
2.6520441 -1.0649476 -0.42061064 1.150933e-38
2.6703012 -1.0595092 -0.433442 1.0864678e-38
2.691144 -1.0568368 -0.43682572 1.0404414e-38
2.6696243 -1.0338438 -0.43582249 8.8406869e-39
2.6921728 -1.0359439 -0.43298724 8.6570061e-39
2.6381893 -1.0024147 -0.43313533 6.4457768e-39
2.55357 -0.95942754 -0.40500912 5.2522642e-39
2.5724561 -0.96652061 -0.40800336 4.7930867e-39
2.5429871 -0.94092482 -0.39862281 4.2381151e-39
2.520654 -0.89877784 -0.38109535 3.502687e-39
2.5431294 -0.91692978 -0.40101627 3.3179553e-39
2.5186691 -0.87462133 -0.38826549 3.962973e-39
2.5350323 -0.88836414 -0.40050998 3.7775125e-39
2.5002477 -0.84626245 -0.38728511 3.6845728e-39
2.5181563 -0.85232162 -0.39005792 3.5009102e-39
2.5329289 -0.84311914 -0.40803483 3.5009186e-39
2.5020452 -0.81858361 -0.38061091 3.6863805e-39
2.5173118 -0.82444727 -0.39304554 3.5037843e-39
2.5329101 -0.82439631 -0.40803483 3.6881643e-39
2.4982572 -0.7913534 -0.38583404 3.4104998e-39
2.5156405 -0.78728193 -0.39902067 3.7756922e-39
2.5007801 -0.77015007 -0.38506034 3.4090775e-39
2.5175769 -0.76312143 -0.39185056 3.2254079e-39
2.5349834 -0.75761563 -0.40020895 3.685649e-39
2.5204775 -0.72223485 -0.38109535 4.3303318e-39
2.5357006 -0.73367625 -0.39750001 3.7774873e-39
2.5405915 -0.70205301 -0.40110722 3.6860091e-39
2.5721805 -0.6909942 -0.40800336 3.685293e-39
2.627948 -0.68756962 -0.43152401 4.5128957e-39
2.5920486 -0.68675774 -0.41115519 4.2352284e-39
2.6131892 -0.68237334 -0.40965402 4.052635e-39
2.6358316 -0.67466807 -0.42792159 4.2362962e-39
2.6673062 -0.66859812 -0.44296396 4.3284975e-39
2.6920731 -0.67381364 -0.43202761 4.0508358e-39
2.7210236 -0.66930038 -0.44935527 4.1415839e-39
2.7535803 -0.66644329 -0.4572902 6.2570275e-39
2.7753961 -0.66487527 -0.460913 9.1250987e-39
2.7334154 -0.64407694 -0.44375437 1.3367991e-38
2.7753859 -0.65460378 -0.460913 1.3272195e-38
2.6707158 -0.60607487 -0.43026808 1.0220006e-38
2.6889582 -0.62075752 -0.44322318 1.0134315e-38
2.6711235 -0.57975018 -0.42868111 1.2706059e-38
2.6880469 -0.58428007 -0.44642195 1.2521664e-38
2.6724055 -0.56000572 -0.42392007 1.3072307e-38
2.6897733 -0.56106484 -0.44002441 1.2520558e-38
2.7085164 -0.55893475 -0.45488188 1.1877708e-38
2.6755326 -1.0831957 -0.41439816 1.1705252e-38
2.6559145 -1.0600463 -0.40643927 1.150969e-38
2.678978 -1.0568681 -0.40170223 1.1232731e-38
2.6571918 -1.0453533 -0.40171549 1.1232008e-38
2.678097 -1.0437068 -0.40487614 1.0679207e-38
2.6993701 -1.0347995 -0.4066661 9.4849661e-39
2.6372342 -0.99863565 -0.39870524 7.6450304e-39
2.6754637 -1.0140948 -0.41439816 7.2758906e-39
2.5622773 -0.95941883 -0.37316909 5.8054464e-39
2.5774684 -0.9665156 -0.38967457 5.0678786e-39
2.544548 -0.93828255 -0.36589536 3.7796593e-39
2.5255589 -0.90187019 -0.36317006 3.3197503e-39
2.5440364 -0.92049623 -0.36770126 3.4108656e-39
2.5094082 -0.88084966 -0.35391408 3.8718605e-39
2.5247188 -0.87864172 -0.36615756 3.7800208e-39
2.5070653 -0.8499459 -0.36236808 3.5019948e-39
2.5279698 -0.86160362 -0.35420743 3.7793076e-39
2.5075321 -0.83011025 -0.36058831 3.9608079e-39
2.5254824 -0.82560062 -0.36317 3.6863987e-39
2.4995143 -0.78836954 -0.35942668 3.5949149e-39
2.5074747 -0.77244979 -0.36058828 3.6849469e-39
2.5254209 -0.76404285 -0.36317 3.4112327e-39
2.5443652 -0.75573403 -0.36589533 3.7781977e-39
2.5229285 -0.7222324 -0.37213272 3.9636932e-39
2.5445671 -0.7327556 -0.36507443 3.7785817e-39
2.5563514 -0.70227879 -0.37589076 3.8693186e-39
2.5784459 -0.69098788 -0.38509235 3.5927275e-39
2.6170163 -0.6920172 -0.395695 3.8678766e-39
2.5632477 -0.68591315 -0.36862051 3.6856462e-39
2.5909104 -0.68411666 -0.37739763 3.1328381e-39
2.6201854 -0.67995435 -0.3840625 3.041004e-39
2.6422069 -0.67057592 -0.39827687 3.3154273e-39
2.675118 -0.66859031 -0.41439816 3.1317675e-39
2.6999362 -0.66385722 -0.4032388 3.1292396e-39
2.7215252 -0.66424447 -0.42361903 2.6682699e-39
2.6802866 -0.62909889 -0.3953543 1.0240103e-38
2.699127 -0.64197105 -0.40611768 8.5773703e-39
2.7230558 -0.64751112 -0.42857489 9.8630785e-39
2.6567509 -0.60460126 -0.40171549 9.8519634e-39
2.6776645 -0.61076868 -0.40487629 9.5732115e-39
2.6567411 -0.59480679 -0.40171549 1.1325279e-38
2.6773093 -0.58097798 -0.40606654 1.2704971e-38
2.7011585 -0.57431829 -0.39844066 1.2796431e-38
2.6789155 -0.55999923 -0.40011525 1.242836e-38
2.6958952 -0.55940056 -0.41763321 1.2244361e-38
2.7151303 -0.55892813 -0.43069649 1.1966667e-38
2.6859219 -1.056861 -0.37631035 1.1234533e-38
2.7042654 -1.0568237 -0.38884443 1.0771403e-38
2.687211 -1.0436977 -0.37154946 1.0773569e-38
2.7068701 -1.036924 -0.3792482 1.0404771e-38
2.658771 -1.0023941 -0.35787314 9.1208793e-39
2.6845775 -1.0140857 -0.38107142 8.9339601e-39
2.5874932 -0.96650553 -0.35301694 5.8050891e-39
2.5582972 -0.94061607 -0.33963549 3.5952708e-39
2.5334048 -0.90434009 -0.33448964 3.7789418e-39
2.5519419 -0.92423284 -0.33880556 3.1342899e-39
2.5124526 -0.88315308 -0.34279042 3.9644079e-39
2.5343628 -0.88203907 -0.33090457 4.1484488e-39
2.5136418 -0.85547483 -0.33834094 3.6860343e-39
2.5344965 -0.85230541 -0.33030707 3.7782089e-39
2.5162842 -0.8213371 -0.32855216 4.3303219e-39
2.5312009 -0.82443339 -0.34225723 4.1448629e-39
2.5115044 -0.78947133 -0.32885504 4.331038e-39
2.5172043 -0.76782721 -0.3249926 4.4239637e-39
2.5334709 -0.76071632 -0.33372131 3.962596e-39
2.5493088 -0.76040977 -0.34783551 3.5945239e-39
2.5339718 -0.73615897 -0.33180082 4.0541064e-39
2.5505142 -0.73076385 -0.34332058 3.7793048e-39
2.5339487 -0.71292967 -0.33180082 3.7800166e-39
2.5639603 -0.70419335 -0.34643596 3.8696801e-39
2.5872176 -0.69097912 -0.35301694 3.5001773e-39
2.6047022 -0.67948157 -0.35222292 3.590952e-39
2.6266656 -0.67078263 -0.36033222 3.5909464e-39
2.6489391 -0.6644935 -0.37363625 2.9481092e-39
2.686831 -0.66364282 -0.37154946 2.7615613e-39
2.7051847 -0.66385198 -0.38404629 2.5775008e-39
2.6297023 -0.65341365 -0.34916499 2.2112434e-39
2.6854982 -0.63304234 -0.37631044 8.0159415e-39
2.7064843 -0.65141487 -0.37924817 4.4170959e-39
2.6858003 -0.6093502 -0.37512028 9.945224e-39
2.7038226 -0.61411017 -0.38884443 1.0129974e-38
2.6870093 -0.58170873 -0.3705973 1.1417474e-38
2.7044463 -0.5817765 -0.38644537 1.215252e-38
2.705085 -0.56436574 -0.38404629 1.1970253e-38
2.6924288 -1.0535641 -0.35250565 1.0680292e-38
2.717392 -1.0617849 -0.34086311 1.0866468e-38
2.6752625 -1.0306436 -0.33558232 9.2073479e-39
2.692414 -1.0387567 -0.35250562 9.8494593e-39
2.6376746 -0.99107563 -0.32124698 8.1042037e-39
2.665159 -1.0090202 -0.34212035 9.394218e-39
2.5962648 -0.96649677 -0.32094148 5.9866049e-39
2.5664957 -0.94201356 -0.31446406 4.0530218e-39
2.540271 -0.90805 -0.30939412 5.9894789e-39
2.5593503 -0.92422545 -0.3117159 4.1452216e-39
2.526243 -0.88313931 -0.29236314 9.5836736e-39
2.5399368 -0.88017517 -0.31051448 7.6490227e-39
2.5617821 -0.8867771 -0.30268601 9.6762251e-39
2.5402153 -0.85229957 -0.30939418 7.9245138e-39
2.5245559 -0.81856114 -0.29829577 9.7676949e-39
2.5389717 -0.83371741 -0.31387556 7.4671244e-39
2.5138478 -0.79025626 -0.29835573 9.5843882e-39
2.5132134 -0.76305419 -0.29614508 8.7538975e-39
2.5376625 -0.75009292 -0.31835684 5.8104631e-39
2.52545 -0.73921919 -0.29473618 9.033713e-39
2.5400946 -0.731507 -0.30939412 6.3607978e-39
2.5268879 -0.71707606 -0.28939682 5.7100362e-39
2.5400763 -0.71292359 -0.30939424 3.6860301e-39
2.5654795 -0.70127934 -0.31249729 3.6842169e-39
2.5922348 -0.69572455 -0.3346881 3.499834e-39
2.5778551 -0.67764628 -0.3151747 3.3168679e-39
2.6047313 -0.66739374 -0.32679871 3.2250408e-39
2.6126566 -0.64280868 -0.32300168 2.5782336e-39
2.6335099 -0.64376211 -0.33520603 2.6686314e-39
2.6609838 -0.64135301 -0.34846091 3.4965858e-39
2.6907024 -0.62908852 -0.3572666 7.3569389e-39
2.6172371 -0.61971235 -0.31880313 4.3256374e-39
2.6357696 -0.61288726 -0.3268306 5.8911372e-39
2.6578774 -0.60847807 -0.34074664 7.9154908e-39
2.6906824 -0.60934538 -0.35726655 9.5767834e-39
2.636421 -0.58587295 -0.32434902 7.5452692e-39
2.6592851 -0.58150148 -0.33170944 8.098094e-39
2.6916964 -0.58170396 -0.35345781 1.0772095e-38
2.6722136 -0.56540781 -0.34502992 1.159894e-38
2.6195877 -1.0556983 -0.29284844 1.2533927e-38
2.6453674 -1.0489541 -0.29332897 1.3179258e-38
2.6778705 -1.0551271 -0.32613474 1.2073688e-38
2.6989386 -1.0535575 -0.32870081 1.1238842e-38
2.6227095 -1.0409768 -0.30033267 1.2167312e-38
2.6428127 -1.0393089 -0.30263498 1.2077237e-38
2.671104 -1.0303975 -0.30943206 8.1042219e-39
2.6402194 -0.99107307 -0.311941 6.9992967e-39
2.6691501 -1.0076289 -0.30730283 5.7996871e-39
2.5859113 -0.95939517 -0.28674605 4.6990834e-39
2.5731523 -0.9452821 -0.28533286 4.1491691e-39
2.531944 -0.90619785 -0.27159894 7.2791205e-39
2.5473258 -0.91617328 -0.2836265 6.1724255e-39
2.533138 -0.8831324 -0.26714951 9.4003599e-39
2.5480831 -0.87645036 -0.28071368 1.0412352e-38
2.5310793 -0.85238206 -0.27456531 9.7680564e-39
2.5488 -0.85848552 -0.27802482 9.859529e-39
2.5323498 -0.82501125 -0.2698192 8.9386559e-39
2.5463154 -0.82441825 -0.28698754 9.3056279e-39
2.5295885 -0.79269397 -0.2700499 8.3865569e-39
2.5200462 -0.7630353 -0.27115896 9.0297753e-39
2.5297568 -0.73494482 -0.27138996 8.6645801e-39
2.5257046 -0.71535987 -0.27097204 4.6036971e-39
2.5478344 -0.70981854 -0.28101239 3.9622359e-39
2.5778084 -0.69981527 -0.2845571 3.3175937e-39
2.583961 -0.67407995 -0.28563094 3.1321193e-39
2.6223314 -0.66279167 -0.30033273 2.8558911e-39
2.6192918 -0.64168316 -0.29620647 2.3034334e-39
2.5880408 -0.60100764 -0.2776489 4.3302827e-39
2.6135945 -0.61058432 -0.29762638 4.0544273e-39
2.6427255 -0.58862323 -0.30130559 4.5132432e-39
2.6659582 -0.57563281 -0.30728728 4.2388396e-39
2.6504908 -1.082716 -0.27471697 1.1063487e-38
2.6310267 -1.0601172 -0.26998842 6.911801e-39
2.6499519 -1.0528088 -0.27657816 4.2370305e-39
2.6529922 -1.0392988 -0.26541096 2.3052663e-39
2.6700354 -1.0342468 -0.27889064 1.4736965e-39
2.6327686 -0.99788237 -0.26339185 2.2105329e-39
2.6504152 -1.0071423 -0.27471697 2.0268577e-39
2.5871937 -0.96595252 -0.2532694 4.0555287e-39
2.6167784 -0.98166406 -0.27125737 3.2250436e-39
2.5582764 -0.9390046 -0.24366811 5.1590092e-39
2.5748074 -0.94761384 -0.25527897 4.6087123e-39
2.5392404 -0.90157765 -0.24490218 1.0046092e-38
2.5574422 -0.92197043 -0.2466556 4.6965681e-39
2.5398374 -0.89004493 -0.24267747 1.0044656e-38
2.55705 -0.88015807 -0.24793598 9.8588199e-39
2.5765893 -0.87740093 -0.24850655 1.0230488e-38
2.5367515 -0.84622598 -0.25380114 9.1244821e-39
2.5578685 -0.85785693 -0.24486315 1.0135771e-38
2.5391619 -0.82315928 -0.24490218 7.462814e-39
2.5278077 -0.79014683 -0.2408094 8.9418943e-39
2.5260208 -0.76282334 -0.23912045 8.8450281e-39
2.5236099 -0.7306813 -0.23888251 8.3894464e-39
2.5395389 -0.71337318 -0.24312241 3.867169e-39
2.5578368 -0.703614 -0.24441499 3.5934604e-39
2.5736325 -0.69836575 -0.25866526 3.1328521e-39
2.5596564 -0.68502867 -0.23769301 3.3168833e-39
2.5869038 -0.67240971 -0.25805712 2.7647745e-39
2.6147571 -0.66244882 -0.25220835 3.3136225e-39
2.6149814 -0.641743 -0.26509812 2.4871072e-39
2.6226804 -0.61160189 -0.26387534 4.0544231e-39
2.6285734 -0.59097809 -0.27724466 4.4224853e-39
2.649483 -0.58393037 -0.27657816 4.3313757e-39
2.6714337 -0.580594 -0.27211845 4.8780783e-39
2.6474297 -0.56656653 -0.28402296 5.0617619e-39
2.6403978 -1.0505334 -0.23568623 3.3169169e-39
2.6580918 -1.0489414 -0.24679896 2.5811203e-39
2.677058 -1.0763646 -0.25336486 5.7212158e-39
2.6021669 -1.0442598 -0.22761457 9.1385203e-39
2.6201494 -1.0424803 -0.23387955 3.2207696e-39
2.6593449 -1.0296447 -0.24214597 1.7531449e-39
2.6772757 -1.03748 -0.25242719 1.4758433e-39
2.6201019 -0.99497575 -0.23387955 3.0381328e-39
2.5932944 -0.97150415 -0.22378007 3.9611695e-39
2.5506279 -0.93231863 -0.20337386 5.6178322e-39
2.5639999 -0.94364476 -0.22275524 4.8831314e-39
2.5477672 -0.91079485 -0.21375588 7.646129e-39
2.5477395 -0.88311768 -0.21375594 9.6758748e-39
2.5472269 -0.85728627 -0.21553572 9.9510128e-39
2.5671766 -0.85227269 -0.21080506 9.2184742e-39
2.5474358 -0.82284349 -0.21464582 6.1728038e-39
2.530612 -0.7897771 -0.20780785 8.9386601e-39
2.5386369 -0.76445293 -0.20986368 9.4921926e-39
2.5407007 -0.73317242 -0.20861918 8.9404622e-39
2.5462403 -0.7035687 -0.21289481 3.4998228e-39
2.56376 -0.7036081 -0.22275527 3.2264799e-39
2.5463197 -0.68015391 -0.21820539 3.8668144e-39
2.5651665 -0.6803773 -0.21752706 3.2250394e-39
2.5955205 -0.66927803 -0.22893928 3.0399264e-39
2.6172633 -0.66244632 -0.24304394 2.3052369e-39
2.6008272 -0.63754076 -0.23102599 2.3038005e-39
2.617254 -0.65294546 -0.24304394 2.4867891e-39
2.6011181 -0.61749911 -0.22988883 3.8686039e-39
2.6320486 -0.60714668 -0.23616304 4.0533595e-39
2.680428 -0.60002714 -0.23929967 4.5125356e-39
2.6559384 -0.59228528 -0.25300297 4.4228525e-39
2.6923721 -0.58875465 -0.25244644 4.6054599e-39
2.7167025 -0.58957624 -0.26204729 4.0573238e-39
2.6395316 -1.0510101 -0.21358235 7.1977612e-39
2.6631815 -1.0489364 -0.22818696 1.8449972e-39
2.647965 -1.0409515 -0.20798063 1.7517072e-39
2.6657102 -1.0328542 -0.21888098 2.1190561e-39
2.68343 -1.0374738 -0.22992288 2.0279171e-39
2.6411629 -1.0048795 -0.20744917 2.9473763e-39
2.6043718 -0.97582203 -0.19529204 4.4239413e-39
2.5558202 -0.93292838 -0.18438946 5.1589938e-39
2.572181 -0.95447695 -0.19287977 4.608348e-39
2.5562847 -0.91078633 -0.18260969 8.3833227e-39
2.5550404 -0.88311052 -0.18705918 9.400713e-39
2.5559239 -0.85427928 -0.18372208 8.664234e-39
2.5696275 -0.85227025 -0.20184241 9.8555661e-39
2.5561969 -0.82314229 -0.18260969 7.0039854e-39
2.5726707 -0.83136076 -0.19063912 4.8806147e-39
2.5439692 -0.7916683 -0.18171687 1.0320866e-38
2.5424104 -0.76365149 -0.18162912 9.8609779e-39
2.5459323 -0.73258001 -0.18190454 8.6649501e-39
2.5492043 -0.70261776 -0.18292584 3.7781893e-39
2.5694883 -0.71289414 -0.20184241 4.1466215e-39
2.5719092 -0.68269354 -0.19287977 3.5941764e-39
2.6008244 -0.66687256 -0.19790046 3.4083502e-39
2.6092246 -0.63871127 -0.20032309 2.4874813e-39
2.6100304 -0.61513245 -0.1972907 3.8682424e-39
2.6345315 -0.60715747 -0.20812972 4.1459055e-39
2.665273 -0.59549183 -0.21888098 4.6976443e-39
2.6855469 -0.59030092 -0.22054607 4.8788182e-39
2.6733661 -1.05375 -0.19096296 4.613757e-39
2.6495776 -1.0271255 -0.17675956 2.3038244e-39
2.6716485 -1.0328484 -0.19716698 2.3952801e-39
2.6419287 -1.0022976 -0.1793655 3.0406565e-39
2.6148922 -0.97301984 -0.16641447 4.9763934e-39
2.5611703 -0.92923284 -0.16481182 4.8863586e-39
2.5795245 -0.94517779 -0.16599181 5.3444627e-39
2.6013534 -0.94758725 -0.15820755 4.6987471e-39
2.564074 -0.91262364 -0.15413308 8.29039e-39
2.5807142 -0.90955818 -0.16151047 1.0042117e-38
2.5635567 -0.88194877 -0.15591285 1.041272e-38
2.5784755 -0.87641996 -0.16957688 9.9524477e-39
2.5635302 -0.85542488 -0.15591285 9.4979533e-39
2.5823786 -0.85783255 -0.1552366 7.5543005e-39
2.5634978 -0.82313502 -0.15591285 7.7368813e-39
2.5769529 -0.82438761 -0.17495449 9.1298673e-39
2.5516889 -0.78843492 -0.15631954 1.0688198e-38
2.5842595 -0.77792162 -0.14806652 8.7535542e-39
2.5511963 -0.76055765 -0.15517578 1.032016e-38
2.5493429 -0.73269498 -0.15616405 9.8613339e-39
2.5829828 -0.72681826 -0.15254787 5.9930621e-39
2.5609536 -0.71242923 -0.16481182 4.2355745e-39
2.5811176 -0.70010632 -0.15926984 4.329938e-39
2.5804899 -0.68500787 -0.16151053 4.3299478e-39
2.6018989 -0.66890645 -0.16829103 3.7771313e-39
2.6162446 -0.64010233 -0.16745549 2.7640612e-39
2.6166692 -0.6198414 -0.17303161 3.5920058e-39
2.6434758 -0.60740674 -0.17948523 3.6874524e-39
2.690685 -0.60001689 -0.20179251 4.8798776e-39
2.6741803 -0.59548295 -0.18630995 4.1480705e-39
2.6919575 -0.59029448 -0.19710408 6.347798e-39
2.6503634 -1.0309173 -0.15584888 4.0562532e-39
2.6263685 -0.99000615 -0.13891728 4.1441286e-39
2.642669 -1.0060376 -0.15139981 3.0402964e-39
2.6229513 -0.97045809 -0.14105202 5.2518957e-39
2.6069095 -0.94758171 -0.13789019 5.160056e-39
2.5694242 -0.90892804 -0.13455543 8.5677014e-39
2.5912597 -0.91543245 -0.1229711 5.4334213e-39
2.5690355 -0.88540292 -0.13589025 1.1057362e-38
2.5904889 -0.88012463 -0.12565984 7.8304993e-39
2.5700197 -0.85541844 -0.13218237 8.2929362e-39
2.5892406 -0.85689646 -0.13014118 8.7513766e-39
2.5703127 -0.82405072 -0.13099588 7.831937e-39
2.5916591 -0.82437301 -0.12117857 4.3231389e-39
2.5711167 -0.79347342 -0.12794481 7.463523e-39
2.5879405 -0.78256375 -0.13462257 1.0504893e-38
2.5707388 -0.76316077 -0.12921606 7.3713316e-39
2.5903637 -0.75468606 -0.1256599 6.7248622e-39
2.5682774 -0.73548615 -0.13811502 9.2195616e-39
2.5903404 -0.73145676 -0.1256599 5.5284798e-39
2.6048329 -0.72290826 -0.14466265 4.2366662e-39
2.5894938 -0.70203376 -0.12864739 4.3303093e-39
2.6060536 -0.70886487 -0.14014773 4.3310268e-39
2.5890684 -0.68499929 -0.13014124 4.6047452e-39
2.6101463 -0.67052573 -0.13944681 4.1455523e-39
2.6212697 -0.64243865 -0.14188577 3.5001941e-39
2.6192784 -0.61867088 -0.1454791 3.1331941e-39
2.6467464 -0.60894239 -0.15399216 4.0544273e-39
2.6818244 -0.60512298 -0.15839194 4.1469943e-39
2.67927 -0.59547788 -0.16769797 4.6015152e-39
2.657038 -1.0260838 -0.12420198 2.6722594e-39
2.6307199 -0.98764402 -0.12299726 4.7855351e-39
2.6520667 -1.0056324 -0.1170332 3.6845952e-39
2.6288633 -0.96718746 -0.11370543 4.9763962e-39
2.6274984 -0.94131082 -0.11059819 4.8834761e-39
2.5950043 -0.90180075 -0.10922842 4.6083199e-39
