# .PCD v0.7 - Point Cloud Data file format
VERSION 0.7
FIELDS x y z rgb
SIZE 4 4 4 4
TYPE F F F F
COUNT 1 1 1 1
WIDTH 1026
HEIGHT 1
VIEWPOINT 0 0 0 1 0 0 0
POINTS 1026
DATA ascii
5.120575 -3.0645781 -1.1281815 3.6878252e-40
5.4187498 -3.0993562 -1.0814409 7.3756504e-40
5.4184875 -3.0757816 -1.0904875 3.6878252e-40
5.3948393 -3.1076148 -1.0876435 4.6097815e-40
5.3966026 -3.0828969 -1.0939621 3.6878252e-40
5.3679471 -3.139966 -1.0826454 2.7658689e-40
5.373847 -3.1146019 -1.0917784 2.7658689e-40
5.3529191 -3.144372 -1.0826454 3.6878252e-40
5.3278213 -3.1260161 -1.0814409 2.7658689e-40
5.3183088 -3.1051536 -1.0904875 3.6878252e-40
5.2672534 -3.0183177 -1.112005 3.6878252e-40
5.2406058 -2.9993846 -1.116226 3.6878252e-40
5.2254167 -3.0562353 -1.1023451 3.6878252e-40
5.2303638 -3.0291333 -1.112005 2.7658689e-40
5.1984258 -3.0647943 -1.1055523 2.7658689e-40
5.2040143 -3.036859 -1.112005 3.6878252e-40
5.17869 -3.0710108 -1.1076903 2.7658689e-40
5.1513152 -3.0523102 -1.112005 2.7658689e-40
5.122716 -3.0343874 -1.1184015 3.6878252e-40
5.1043673 -3.0400593 -1.1198519 2.7658689e-40
5.0896158 -3.0147989 -1.1152335 2.7658689e-40
5.4300632 -3.0413337 -1.0627475 9.219563e-40
5.4346523 -3.0912271 -1.0642117 3.6878252e-40
5.416081 -3.070719 -1.0618215 3.6878252e-40
5.4092336 -3.0463834 -1.0574921 7.3756504e-40
5.394146 -3.1027567 -1.0624888 4.6097815e-40
5.3930173 -3.0769572 -1.0592154 8.2976067e-40
5.3662763 -3.1342683 -1.0518923 3.6878252e-40
5.3721623 -3.108856 -1.0607659 2.7658689e-40
5.3512487 -3.1386743 -1.0518923 3.6878252e-40
5.3261366 -3.1202705 -1.0504284 5.5317378e-40
5.3171763 -3.1012909 -1.0696394 3.6878252e-40
5.276206 -3.0359666 -1.0756185 2.7658689e-40
5.2663746 -3.0153205 -1.0958285 3.6878252e-40
5.2391286 -2.9943461 -1.089031 3.6878252e-40
5.2223206 -3.052124 -1.0774003 2.7658689e-40
5.2273378 -3.0253193 -1.088639 2.7658689e-40
5.2231817 -2.9990218 -1.089031 3.6878252e-40
5.1990051 -3.0590317 -1.0777566 3.6878252e-40
5.1747088 -3.0657251 -1.0756186 2.7658689e-40
5.1498508 -3.0473151 -1.0850443 3.6878252e-40
5.1393108 -3.0504053 -1.0850443 3.6878252e-40
5.116868 -3.0301926 -1.089031 2.7658689e-40
5.1062365 -3.0333097 -1.089031 2.7658689e-40
5.4258275 -3.0086999 -1.045096 7.3756504e-40
5.4119768 -3.0661547 -1.0331554 3.6878252e-40
5.4186492 -3.0404506 -1.0417265 8.2976067e-40
5.3927689 -3.0962772 -1.0282764 2.7658689e-40
5.3972616 -3.0725667 -1.0435795 2.7658689e-40
5.3646059 -3.1285703 -1.0211391 3.6878252e-40
5.3704777 -3.1031098 -1.0297533 2.7658689e-40
5.3516188 -3.1337531 -1.0279732 2.7658689e-40
5.3349762 -3.1129987 -1.027169 3.6878252e-40
5.3151941 -3.0945311 -1.0331554 2.7658689e-40
5.3047991 -3.0706589 -1.0259608 3.6878252e-40
5.2850714 -3.0538113 -1.0453542 2.7658689e-40
5.2640157 -3.0330877 -1.0435467 3.6878252e-40
5.2468553 -3.0138106 -1.0598809 9.219563e-40
5.2271643 -3.059572 -1.0461197 5.5317378e-40
5.2327046 -3.0175979 -1.0580834 4.6097815e-40
5.2020254 -3.0775514 -1.0423255 2.7658689e-40
5.1677756 -3.0685716 -1.0466937 2.7658689e-40
5.1313467 -3.0466647 -1.0548482 2.7658689e-40
5.1170597 -3.0525894 -1.0634756 3.6878252e-40
5.1044641 -3.0272636 -1.056397 1.8439126e-40
5.4485312 -2.9973543 -1.0029521 6.4536941e-40
5.4254799 -2.9979789 -1.0164236 3.6878252e-40
5.414257 -3.0840337 -0.99874079 4.6097815e-40
5.4207487 -3.0583396 -1.0070955 3.6878252e-40
5.3940511 -3.0899587 -0.99874073 2.7658689e-40
5.3624587 -3.0998156 -1.0016943 4.6097815e-40
5.3590569 -3.0743303 -0.9966715 2.7658689e-40
5.3410091 -3.10551 -0.99874079 7.3756504e-40
5.323966 -3.0867159 -1.0070955 2.7658689e-40
5.3137784 -3.0897028 -1.0070955 2.7658689e-40
5.288249 -3.0712819 -1.0049399 2.7658689e-40
5.2839193 -3.0498834 -1.0241531 3.6878252e-40
5.2553549 -3.0458043 -1.0187711 2.7658689e-40
5.226913 -3.0534403 -1.0173705 2.7658689e-40
5.2195287 -3.0116966 -1.009554 3.6878252e-40
5.2004623 -3.0722203 -1.0135525 3.6878252e-40
5.1706872 -3.077105 -1.0132815 2.7658689e-40
5.1416869 -3.0691857 -1.0183227 2.7658689e-40
5.103591 -3.0456891 -1.009554 2.7658689e-40
5.1035776 -3.0242403 -1.04008 2.7658689e-40
5.4473791 -2.9934258 -0.98175091 4.6097815e-40
5.4266591 -2.9995015 -0.98175085 3.6878252e-40
5.4088626 -3.0555327 -0.97582346 3.6878252e-40
5.4155092 -3.0297401 -0.98391891 4.6097815e-40
5.40275 -3.0822077 -0.97289699 2.7658689e-40
5.3833933 -3.0630002 -0.97582346 2.7658689e-40
5.3538761 -3.0478106 -0.98391891 3.6878252e-40
5.3331294 -3.0258574 -0.97645062 2.7658689e-40
5.3323226 -3.1297855 -0.98013502 3.6878252e-40
5.342412 -3.1009388 -0.97806579 3.6878252e-40
5.3328323 -3.0792224 -0.98277289 3.6878252e-40
5.3227172 -3.0556777 -0.97761256 3.6878252e-40
5.3126459 -3.0858402 -0.98624748 4.6097815e-40
5.2457299 -3.0287697 -0.99543875 3.6878252e-40
5.2394366 -3.0015199 -0.98798537 2.7658689e-40
5.2179403 -3.035573 -0.98875713 3.6878252e-40
5.2288966 -3.0046103 -0.98798537 3.6878252e-40
5.1963625 -3.0614986 -0.98359478 2.7658689e-40
5.1675458 -3.0686734 -0.985636 2.7658689e-40
5.137939 -3.0597281 -0.99223161 1.8439126e-40
5.1234989 -3.0355127 -0.98798537 1.8439126e-40
5.1096411 -3.0402989 -0.99158019 2.7658689e-40
5.0911732 -3.021311 -1.0074459 2.7658689e-40
5.4429989 -2.9688108 -0.95852727 3.6878252e-40
5.4237828 -3.0199127 -0.94713223 6.4536941e-40
5.427762 -2.9832387 -0.95528024 3.6878252e-40
5.4071636 -3.0497386 -0.94455147 3.6878252e-40
5.4076328 -3.0257051 -0.95238751 3.6878252e-40
5.382988 -3.0562274 -0.9415732 2.7658689e-40
5.3732786 -3.0378926 -0.96289796 2.7658689e-40
5.3522773 -3.0423579 -0.95448953 2.7658689e-40
5.3316898 -3.0209475 -0.94994926 2.7658689e-40
5.3213468 -3.0510039 -0.95238745 3.6878252e-40
5.2388506 -2.999522 -0.9772011 2.7658689e-40
5.2222629 -3.035851 -0.95875674 2.7658689e-40
5.2280178 -3.0016131 -0.97180891 3.6878252e-40
5.1972952 -3.0614181 -0.95524943 2.7658689e-40
5.1660223 -3.0653958 -0.95582187 2.7658689e-40
5.1399107 -3.0657971 -0.95933068 2.7658689e-40
5.1244855 -3.0816991 -0.94994926 3.6878252e-40
5.1071033 -3.0381501 -0.9772011 1.8439126e-40
5.443697 -2.9634511 -0.93290573 3.6878252e-40
5.4229264 -3.0169919 -0.9313665 4.6097815e-40
5.4211121 -2.9827242 -0.92796147 4.6097815e-40
5.4009376 -3.0473695 -0.92370349 3.6878252e-40
5.4030237 -3.0204477 -0.91954225 5.5317378e-40
5.3778734 -3.0536072 -0.92109746 2.7658689e-40
5.3758454 -3.0276237 -0.91560078 3.6878252e-40
5.3538742 -3.0351226 -0.92085606 2.7658689e-40
5.332984 -3.0157688 -0.92609805 1.8439126e-40
5.3232484 -3.0448072 -0.92435956 2.7658689e-40
5.2370214 -3.0184169 -0.93129498 4.6097815e-40
5.2252445 -2.966681 -0.93129998 3.6878252e-40
5.2229605 -3.0420558 -0.92938483 3.6878252e-40
5.1958551 -3.0565081 -0.92874813 4.6097815e-40
5.1647749 -3.0656209 -0.92874813 2.7658689e-40
5.1351161 -3.065995 -0.9313488 2.7658689e-40
5.1157317 -3.0633633 -0.93397957 2.7658689e-40
5.0989041 -3.0297046 -0.92327952 2.7658689e-40
5.4393101 -2.9537289 -0.90456843 4.6097815e-40
5.4191275 -2.9763134 -0.89948714 3.6878252e-40
5.4006691 -3.0171731 -0.89983511 2.7658689e-40
5.395864 -2.990401 -0.89164627 2.7658689e-40
5.380125 -3.0231967 -0.89983511 2.7658689e-40
5.3686066 -2.9988499 -0.89391774 2.7658689e-40
5.334898 -2.9982274 -0.90031403 2.7658689e-40
5.2355695 -3.0134649 -0.90456843 2.7658689e-40
5.2243586 -2.9636579 -0.91498303 3.6878252e-40
5.2240477 -3.0390658 -0.89779335 3.6878252e-40
5.2247958 -2.990624 -0.9124952 2.7658689e-40
5.194128 -3.0506158 -0.89694643 2.7658689e-40
5.1644144 -3.0595944 -0.89827156 1.8439126e-40
5.1310873 -3.0440989 -0.90456843 1.8439126e-40
5.1085653 -3.0236173 -0.90710306 2.7658689e-40
5.439724 -2.9468472 -0.87096936 4.6097815e-40
5.4193487 -2.9754014 -0.86597168 3.6878252e-40
5.3944244 -2.985491 -0.86514479 5.5317378e-40
5.3653975 -2.985646 -0.86757535 2.7658689e-40
5.3382149 -2.9837134 -0.87330872 2.7658689e-40
5.3176036 -2.9558182 -0.87475008 2.7658689e-40
5.2970052 -2.9357917 -0.88234901 2.7658689e-40
5.2414827 -3.0172727 -0.86617053 3.6878252e-40
5.2338715 -2.9825382 -0.88553447 2.7658689e-40
5.2234807 -3.0356112 -0.86514485 3.6878252e-40
5.2054973 -3.0667841 -0.86199743 3.6878252e-40
5.1826158 -3.0497253 -0.87574542 3.6878252e-40
5.1630464 -3.0533302 -0.86514479 2.7658689e-40
5.129519 -3.0415089 -0.87292516 1.8439126e-40
5.4654293 -2.9331651 -0.8404246 3.6878252e-40
5.4410501 -2.9403131 -0.8404246 4.6097815e-40
5.4165821 -2.9585474 -0.83887827 3.6878252e-40
5.3919411 -2.9634335 -0.83981591 3.6878252e-40
5.358541 -2.9710481 -0.83997935 2.7658689e-40
5.3305311 -2.9735773 -0.84470087 2.7658689e-40
5.3158464 -2.9498241 -0.84239715 2.7658689e-40
5.3052225 -2.9801371 -0.8404246 2.7658689e-40
5.3016958 -2.9536114 -0.84059978 2.7658689e-40
5.2424526 -3.0014083 -0.83819181 2.7658689e-40
5.2220411 -3.0307012 -0.83864343 2.7658689e-40
5.2039747 -3.0628598 -0.8402757 3.6878252e-40
5.1874113 -3.0404985 -0.83687669 2.7658689e-40
5.1818132 -3.0697098 -0.84202749 3.6878252e-40
5.1577501 -3.0493374 -0.83758342 2.7658689e-40
5.128046 -3.0425549 -0.83971208 2.7658689e-40
5.1047573 -3.0106299 -0.83700502 2.7658689e-40
5.4976816 -2.9675817 -0.79473037 2.7658689e-40
5.4760575 -2.9505367 -0.81037527 3.6878252e-40
5.4424644 -2.9429083 -0.81142765 3.6878252e-40
5.4120841 -2.948246 -0.81126672 3.6878252e-40
5.3924809 -2.9718044 -0.81312799 3.6878252e-40
5.3642783 -2.975872 -0.8110851 2.7658689e-40
5.3351154 -2.9659953 -0.81369805 2.7658689e-40
5.3143816 -2.944829 -0.81543636 2.7658689e-40
5.3049774 -2.9236054 -0.83339798 3.6878252e-40
5.292716 -2.9490113 -0.80465204 2.7658689e-40
5.2887344 -2.9272733 -0.827959 2.7658689e-40
5.2505569 -2.9613724 -0.80465204 2.7658689e-40
5.2621255 -2.9079087 -0.83536375 3.6878252e-40
5.2410145 -2.9984031 -0.81126672 3.6878252e-40
5.241189 -2.9684587 -0.82622069 2.7658689e-40
5.223947 -3.0485451 -0.79823387 2.7658689e-40
5.224247 -3.0254331 -0.81567556 4.6097815e-40
5.2003593 -3.0568707 -0.80524081 3.6878252e-40
5.1895208 -3.0349038 -0.81214201 3.6878252e-40
5.1584406 -3.0440166 -0.81214201 2.7658689e-40
5.1261511 -3.0272629 -0.81369805 1.8439126e-40
5.1002674 -3.0083299 -0.81903118 1.8439126e-40
5.0817189 -2.9890642 -0.83339798 2.7658689e-40
5.4726992 -2.9454782 -0.78034037 3.6878252e-40
5.4448767 -2.9480381 -0.78182387 3.6878252e-40
5.4140768 -2.9868078 -0.76845419 2.7658689e-40
5.4149766 -2.9519069 -0.78469664 3.6878252e-40
5.4020648 -3.0134814 -0.75691956 2.7658689e-40
5.3938894 -2.9940484 -0.77502322 2.7658689e-40
5.358737 -2.9788916 -0.78034037 2.7658689e-40
5.3292503 -2.9746752 -0.7823534 1.8439126e-40
5.3213415 -3.0129402 -0.76319891 1.8439126e-40
5.3000278 -2.9915521 -0.77969384 1.8439126e-40
5.26546 -2.979965 -0.78162616 2.7658689e-40
5.2431006 -2.995996 -0.78476113 2.7658689e-40
5.2243271 -3.043499 -0.77370942 3.6878252e-40
5.2292342 -3.0168607 -0.78034043 2.7658689e-40
5.2051139 -3.0477226 -0.76670241 3.6878252e-40
5.1845322 -3.0306787 -0.78387392 2.7658689e-40
5.1675444 -3.0590901 -0.76845419 2.7658689e-40
5.156795 -3.0384049 -0.78185475 2.7658689e-40
5.1308122 -3.0457182 -0.78034037 2.7658689e-40
5.115272 -3.0502741 -0.78034043 1.8439126e-40
5.4839835 -2.9589097 -0.73166752 3.6878252e-40
5.4727941 -2.9394071 -0.75030547 4.6097815e-40
5.4450712 -2.9471798 -0.74853867 3.6878252e-40
5.4185843 -2.9793534 -0.73797381 2.7658689e-40
5.4194584 -2.9557557 -0.75383902 3.6878252e-40
5.4105539 -3.0047004 -0.72564757 3.6878252e-40
5.3921051 -2.987963 -0.74217802 3.6878252e-40
5.3643317 -2.9946961 -0.73517102 2.7658689e-40
5.3626213 -2.9729533 -0.75648922 2.7658689e-40
5.338347 -3.0024559 -0.73587173 2.7658689e-40
5.3341308 -2.9813068 -0.75648922 2.7658689e-40
5.3239589 -3.0300896 -0.72564757 1.8439126e-40
5.3120961 -3.0118444 -0.7442801 1.8439126e-40
5.2899561 -2.9937255 -0.75383902 2.7658689e-40
5.2785401 -3.019145 -0.73166752 1.8439126e-40
5.2744155 -2.998282 -0.75383902 3.6878252e-40
5.2457123 -3.0027437 -0.75067014 3.6878252e-40
5.2226143 -3.037657 -0.74217802 3.6878252e-40
5.2275066 -3.0109687 -0.74853873 2.7658689e-40
5.1969337 -3.0451865 -0.74217802 2.7658689e-40
5.1661172 -3.0542219 -0.74217802 2.7658689e-40
5.1290846 -3.0398262 -0.74853867 1.8439126e-40
5.1025782 -3.0349705 -0.75171912 1.8439126e-40
5.4834127 -2.9569623 -0.72115707 3.6878252e-40
5.4612269 -2.9276021 -0.71873724 2.7658689e-40
5.4423237 -2.9690094 -0.72115707 3.6878252e-40
5.4463034 -2.9404202 -0.71673709 3.6878252e-40
5.4201751 -2.9997821 -0.71522355 2.7658689e-40
5.4234915 -2.9732621 -0.71485078 2.7658689e-40
5.3995166 -3.0047903 -0.71001154 3.6878252e-40
5.3689537 -3.0137513 -0.71001154 2.7658689e-40
5.3373532 -3.0462635 -0.69895267 2.7658689e-40
5.3434849 -3.0212188 -0.71001154 2.7658689e-40
5.32725 -3.0492258 -0.69895267 2.7658689e-40
5.3156099 -3.0299158 -0.71261758 3.6878252e-40
5.2898579 -3.0364175 -0.70740557 5.5317378e-40
5.2728329 -3.0187035 -0.72115707 2.7658689e-40
5.24681 -3.0250645 -0.71485078 3.6878252e-40
5.2367153 -3.0040033 -0.72733766 3.6878252e-40
5.2211866 -3.0327888 -0.71590185 2.7658689e-40
5.1955066 -3.0403183 -0.71590185 3.6878252e-40
5.16469 -3.0493536 -0.71590185 2.7658689e-40
5.1273575 -3.0339341 -0.71673709 2.7658689e-40
5.1031542 -3.0313373 -0.72131145 2.7658689e-40
5.0772333 -2.9948316 -0.71837753 1.8439126e-40
5.0545468 -2.9751439 -0.72461802 2.7658689e-40
5.4541063 -2.9074464 -0.69610107 2.7658689e-40
5.4557877 -2.8805859 -0.70220107 3.6878252e-40
5.4446058 -2.9615731 -0.68752354 2.7658689e-40
5.4522638 -2.9333403 -0.69023573 2.7658689e-40
5.4256926 -2.9902995 -0.67613357 3.6878252e-40
5.4224634 -2.9697568 -0.69593191 3.6878252e-40
5.4007778 -3.0230916 -0.67621017 2.7658689e-40
5.4058838 -2.9982047 -0.68655759 3.6878252e-40
5.3764181 -3.0298178 -0.67414266 2.7658689e-40
5.3678212 -3.0098886 -0.68916357 1.8439126e-40
5.3453941 -3.0630455 -0.66747814 2.7658689e-40
5.3497009 -3.0384836 -0.67827761 1.8439126e-40
5.3375416 -3.0198154 -0.69437557 1.8439126e-40
5.3250785 -3.0679705 -0.66235262 2.7658689e-40
5.3163047 -3.0493152 -0.68344635 3.6878252e-40
5.3050413 -3.0738454 -0.66235262 2.7658689e-40
5.2898679 -3.056442 -0.68034518 2.7658689e-40
5.2718692 -3.0599163 -0.67138594 2.7658689e-40
5.2554741 -3.0417798 -0.68395156 2.7658689e-40
5.2389722 -3.0236969 -0.69663262 2.7658689e-40
5.2294388 -3.0473161 -0.6735276 3.6878252e-40
5.2200451 -3.0288939 -0.69488084 2.7658689e-40
5.1940789 -3.03545 -0.68962562 2.7658689e-40
5.164618 -3.0443521 -0.69093943 2.7658689e-40
5.14117 -3.0234852 -0.68493545 3.6878252e-40
5.1259174 -3.0290239 -0.69023573 2.7658689e-40
5.0993166 -3.0202763 -0.69591272 2.7658689e-40
5.0757689 -2.9898362 -0.69141674 2.7658689e-40
5.0655222 -2.9939253 -0.69680893 2.7658689e-40
5.4691439 -2.9463427 -0.64758372 2.7658689e-40
5.4658284 -2.9193814 -0.66700053 3.6878252e-40
5.4473405 -2.9792333 -0.65267956 2.7658689e-40
5.4491701 -2.9543138 -0.65809423 3.6878252e-40
5.4508243 -2.9284298 -0.66373438 3.6878252e-40
5.4269652 -2.9852073 -0.65267956 2.7658689e-40
5.395164 -3.0189135 -0.64726508 3.6878252e-40
5.4014959 -2.9926748 -0.65267956 4.6097815e-40
5.374958 -3.0248382 -0.64726502 2.7658689e-40
5.3516035 -3.0599198 -0.63672888 1.8439126e-40
5.3499808 -3.0332012 -0.65243387 2.7658689e-40
5.3260069 -3.0687699 -0.64071578 2.7658689e-40
5.2938395 -3.072747 -0.64056909 4.6097815e-40
5.2845912 -3.0534132 -0.65760261 2.7658689e-40
5.2679124 -3.0866981 -0.63746274 2.7658689e-40
5.254282 -3.0623 -0.65760261 3.6878252e-40
5.2433972 -3.0942132 -0.63331449 3.6878252e-40
5.2338881 -3.0675855 -0.65415674 2.7658689e-40
5.2135906 -3.0498652 -0.66310358 3.6878252e-40
5.2076945 -3.0717993 -0.63692755 2.7658689e-40
5.1996298 -3.0525601 -0.65615427 2.7658689e-40
5.1826649 -3.0345666 -0.66860467 3.6878252e-40
5.1627622 -3.0380232 -0.65678042 2.7658689e-40
5.140594 -3.0215213 -0.67433488 2.7658689e-40
5.1244779 -3.0241139 -0.66373432 2.7658689e-40
5.097414 -3.00665 -0.66937453 2.7658689e-40
5.0748901 -2.9868391 -0.67524028 3.6878252e-40
5.0622234 -2.9619496 -0.67022806 2.7658689e-40
5.0389519 -2.9413226 -0.67622215 2.7658689e-40
5.4680018 -2.9424481 -0.62656277 3.6878252e-40
5.4594574 -2.9195004 -0.63193268 3.6878252e-40
5.4480472 -2.9722095 -0.61880159 3.6878252e-40
5.4477429 -2.9494455 -0.63181806 3.6878252e-40
5.4490967 -2.9225378 -0.63193268 3.6878252e-40
5.4338923 -3.0013192 -0.61625248 3.6878252e-40
5.4035826 -3.010206 -0.61625248 2.7658689e-40
5.37183 -3.0418878 -0.60084635 2.7658689e-40
5.3746061 -3.0189617 -0.61754465 2.7658689e-40
5.3550072 -3.0936873 -0.59113139 3.6878252e-40
5.3559403 -3.054719 -0.61113334 2.7658689e-40
5.3402224 -3.0980222 -0.59113139 3.6878252e-40
5.3289394 -3.0771835 -0.60977989 2.7658689e-40
5.320509 -3.1038022 -0.59113139 2.7658689e-40
5.2969923 -3.0807896 -0.60931188 3.6878252e-40
5.2719064 -3.0966642 -0.60615706 3.6878252e-40
5.2613692 -3.1211417 -0.59113139 2.7658689e-40
5.2420893 -3.1015065 -0.60699427 3.6878252e-40
5.2139816 -3.0898185 -0.60904717 3.6878252e-40
5.1967492 -3.0718884 -0.62142128 3.6878252e-40
5.1813293 -3.0530322 -0.63183159 3.6878252e-40
5.1914949 -3.0947616 -0.60084635 3.6878252e-40
5.1813135 -3.0753741 -0.61625254 3.6878252e-40
5.1637836 -3.0560791 -0.62140757 2.7658689e-40
5.1501355 -3.0377603 -0.63707328 2.7658689e-40
5.1307321 -3.0400655 -0.62025648 1.8439126e-40
5.1233263 -3.0201855 -0.64253324 2.7658689e-40
5.0941377 -3.0159988 -0.63194257 2.7658689e-40
5.0737185 -2.9828429 -0.65367162 1.8439126e-40
5.466289 -2.9366059 -0.59503138 3.6878252e-40
5.443943 -2.9676452 -0.59013563 2.7658689e-40
5.4483128 -2.9418764 -0.59503138 3.6878252e-40
5.4473696 -2.9166458 -0.60013103 7.3756504e-40
5.4283905 -2.997524 -0.58937496 3.6878252e-40
5.4283786 -2.9711599 -0.58492362 3.6878252e-40
5.4004941 -3.0283272 -0.57521874 2.7658689e-40
5.4048648 -3.0038872 -0.58671671 2.7658689e-40
5.3807354 -3.035152 -0.5803442 2.7658689e-40
5.3608336 -3.1096964 -0.56313771 3.6878252e-40
5.3557367 -3.090091 -0.57432258 2.7658689e-40
5.3616686 -3.056392 -0.5772441 2.7658689e-40
5.3474321 -3.112283 -0.55646706 3.6878252e-40
5.333322 -3.0963926 -0.5729779 2.7658689e-40
5.3134995 -3.1017985 -0.57096082 2.7658689e-40
5.2950935 -3.0837286 -0.57565254 2.7658689e-40
5.2795758 -3.1102233 -0.56339681 4.6097815e-40
5.2705803 -3.0921428 -0.58175349 3.6878252e-40
5.2541404 -3.1183908 -0.56692672 2.7658689e-40
5.2357435 -3.1021523 -0.58073664 4.6097815e-40
5.2105193 -3.1053381 -0.57497835 3.6878252e-40
5.1802235 -3.0934255 -0.5777815 2.7658689e-40
5.1647549 -3.0750291 -0.59040874 2.7658689e-40
5.1487579 -3.0765998 -0.57490242 2.7658689e-40
5.1436906 -3.0567269 -0.59534758 1.8439126e-40
5.1197462 -3.0387399 -0.59765899 2.7658689e-40
5.1061921 -3.0400705 -0.58452088 2.7658689e-40
5.0890212 -3.0221388 -0.60225117 2.7658689e-40
5.0665255 -3.0113089 -0.60356086 2.7658689e-40
5.465147 -2.9327114 -0.57401043 3.6878252e-40
5.4391813 -2.9392672 -0.56875521 2.7658689e-40
5.4459295 -2.9117358 -0.57362968 3.6878252e-40
5.4282775 -2.9915254 -0.55939615 2.7658689e-40
5.4272461 -2.9672973 -0.56407559 4.6097815e-40
5.4073396 -3.0219889 -0.55369157 2.7658689e-40
5.4108782 -2.9976668 -0.56456494 3.6878252e-40
5.3808198 -3.0338898 -0.55397612 4.6097815e-40
5.3612857 -3.1052015 -0.54145801 4.6097815e-40
5.3632755 -3.0586228 -0.55023211 2.7658689e-40
5.345912 -3.1322191 -0.53201193 3.6878252e-40
5.3371096 -3.1132965 -0.54646105 2.7658689e-40
5.3265157 -3.1379061 -0.53201193 3.6878252e-40
5.3074098 -3.1206625 -0.53979033 5.5317378e-40
5.2986045 -3.1021075 -0.55079019 3.6878252e-40
5.2778912 -3.1286459 -0.53645498 3.6878252e-40
5.2762899 -3.1081429 -0.54826891 2.7658689e-40
5.2583327 -3.1343803 -0.53645498 3.6878252e-40
5.2467198 -3.1168127 -0.54826891 3.6878252e-40
5.2293339 -3.1214027 -0.54574758 3.6878252e-40
5.2042737 -3.1052418 -0.55023211 2.7658689e-40
5.1791811 -3.1008487 -0.55249512 3.6878252e-40
5.1512804 -3.096755 -0.55215389 2.7658689e-40
5.1269932 -3.0563791 -0.5692876 1.8439126e-40
5.1185803 -3.1058269 -0.54959112 2.7658689e-40
5.1066179 -3.0623531 -0.5692876 1.8439126e-40
5.0953488 -3.0411348 -0.57401043 2.7658689e-40
5.0822449 -3.0929809 -0.55939615 2.7658689e-40
5.0668097 -3.0964668 -0.55422741 2.7658689e-40
5.4591475 -2.9751945 -0.52321482 3.6878252e-40
5.4462056 -2.956495 -0.5380156 3.6878252e-40
5.4434609 -2.9348402 -0.55298948 3.6878252e-40
5.4277658 -3.0100188 -0.52396351 3.6878252e-40
5.4323664 -2.985424 -0.53502911 3.6878252e-40
5.409924 -3.0215163 -0.5281477 3.6878252e-40
5.383831 -3.0915449 -0.50643688 3.6878252e-40
5.3807421 -3.0719376 -0.52053434 3.6878252e-40
5.389657 -3.0460651 -0.52626431 3.6878252e-40
5.3665199 -3.1216848 -0.5096848 3.6878252e-40
5.3650885 -3.10006 -0.52144593 3.6878252e-40
5.3659573 -3.0762722 -0.52053434 4.6097815e-40
5.3457837 -3.1306548 -0.51174009 3.6878252e-40
5.3157396 -3.1370726 -0.51216561 5.5317378e-40
5.2878761 -3.1446714 -0.50933045 4.6097815e-40
5.2724581 -3.1282256 -0.52644897 9.219563e-40
5.2474666 -3.1335397 -0.51644301 3.6878252e-40
5.2181077 -3.1196213 -0.52053434 2.7658689e-40
5.1979241 -3.101989 -0.52481163 3.6878252e-40
5.1792221 -3.1072161 -0.52354068 2.7658689e-40
5.1508503 -3.1059971 -0.52813298 2.7658689e-40
5.1174669 -3.1020288 -0.52908897 1.8439126e-40
5.0844884 -3.1101503 -0.52140075 2.7658689e-40
5.0811219 -3.0891502 -0.53872114 2.7658689e-40
5.0662479 -3.0945513 -0.54388988 2.7658689e-40
5.4699759 -2.9432337 -0.50674361 3.6878252e-40
5.4540954 -2.9729319 -0.50460732 3.6878252e-40
5.4545527 -2.9472313 -0.50413764 4.6097815e-40
5.4287386 -3.0040612 -0.49577314 3.6878252e-40
5.4330473 -2.9797273 -0.50770855 2.7658689e-40
5.428659 -2.9532504 -0.49631965 3.6878252e-40
5.4077921 -3.0583246 -0.49229547 2.7658689e-40
5.414022 -3.0220852 -0.49458119 3.6878252e-40
5.3909712 -3.0848496 -0.48356605 2.7658689e-40
5.389503 -3.0653102 -0.50036371 3.6878252e-40
5.3674622 -3.1159177 -0.48239616 2.7658689e-40
5.3726931 -3.0897772 -0.48142183 3.6878252e-40
5.3648615 -3.072535 -0.50036371 2.7658689e-40
5.3451171 -3.1272559 -0.48157036 2.7658689e-40
5.3209476 -3.1463139 -0.47952673 2.7658689e-40
5.2870102 -3.1442928 -0.48157033 3.6878252e-40
5.2616444 -3.146544 -0.48041153 2.7658689e-40
5.2386374 -3.1305921 -0.48892635 2.7658689e-40
5.2262774 -3.1337128 -0.48642486 3.6878252e-40
5.2066073 -3.1169057 -0.49027842 2.7658689e-40
5.1964769 -3.1188612 -0.48523578 2.7658689e-40
5.1736312 -3.1032655 -0.49575979 2.7658689e-40
5.147965 -3.1026294 -0.49563628 2.7658689e-40
5.1157961 -3.0963309 -0.49833584 1.8439126e-40
5.0960374 -3.1031551 -0.50346142 1.8439126e-40
5.0764904 -3.0827084 -0.49995542 1.8439126e-40
5.0642824 -3.0878479 -0.50770855 2.7658689e-40
5.0517159 -3.0637689 -0.49631965 2.7658689e-40
5.456059 -2.9646606 -0.46635842 3.6878252e-40
5.4484682 -2.9453452 -0.48589563 5.5317378e-40
5.4288216 -2.9987774 -0.46963298 3.6878252e-40
5.4334669 -2.9718041 -0.46894285 2.7658689e-40
5.4026442 -3.0553696 -0.47010782 5.5317378e-40
5.4085021 -3.014832 -0.46589345 3.6878252e-40
5.3906298 -3.1051321 -0.46254984 3.6878252e-40
5.3892627 -3.079886 -0.45640683 3.6878252e-40
5.3919659 -3.0554569 -0.4549799 2.7658689e-40
5.3930864 -3.0314696 -0.4587186 4.6097815e-40
5.3703179 -3.1152606 -0.45164058 3.6878252e-40
5.3713341 -3.0851424 -0.45640677 3.6878252e-40
5.3444552 -3.1238716 -0.45147619 4.6097815e-40
5.3193407 -3.1408341 -0.44995064 4.6097815e-40
5.2914119 -3.151422 -0.44956717 3.6878252e-40
5.2553344 -3.145205 -0.45225161 3.6878252e-40
5.2343807 -3.1469505 -0.44270352 3.6878252e-40
5.2188883 -3.1302421 -0.45840797 2.7658689e-40
5.1951075 -3.1141899 -0.46002254 2.7658689e-40
5.1697655 -3.0979691 -0.4638027 2.7658689e-40
5.1460948 -3.1046536 -0.46253166 2.7658689e-40
5.1144638 -3.0975878 -0.46797898 2.7658689e-40
5.0940886 -3.0965078 -0.46758276 1.8439126e-40
5.0764618 -3.076997 -0.47152722 2.7658689e-40
5.0628786 -3.0830595 -0.48186475 3.6878252e-40
5.0503001 -3.0589404 -0.47025964 2.7658689e-40
5.4781346 -2.9777188 -0.43682963 2.7658689e-40
5.4754229 -2.955863 -0.45085219 5.5317378e-40
5.4525313 -2.9831631 -0.42657858 5.5317378e-40
5.4547353 -2.9601462 -0.44199142 4.6097815e-40
5.4325051 -2.9975786 -0.43437991 3.6878252e-40
5.4347296 -2.9667544 -0.44568342 4.6097815e-40
5.4085484 -3.0671854 -0.42138568 2.7658689e-40
5.4070239 -3.0459688 -0.42976665 2.7658689e-40
5.4108539 -3.0112805 -0.43626425 2.7658689e-40
5.3877096 -3.0737262 -0.42352989 3.6878252e-40
5.3862162 -3.0540988 -0.43985194 3.6878252e-40
5.3722963 -3.1179779 -0.42055407 3.6878252e-40
5.3697038 -3.0795808 -0.42638868 2.7658689e-40
5.346663 -3.1268675 -0.42034933 6.4536941e-40
5.3196883 -3.139585 -0.41963282 4.6097815e-40
5.2908158 -3.1480503 -0.41963282 3.6878252e-40
5.2537179 -3.1396923 -0.42249897 2.7658689e-40
5.2333026 -3.1432734 -0.42285722 2.7658689e-40
5.2132373 -3.1254566 -0.42638868 2.7658689e-40
5.1934638 -3.1085839 -0.42976665 3.6878252e-40
5.1681089 -3.0923173 -0.43329817 2.7658689e-40
5.1432648 -3.0996015 -0.43329817 2.7658689e-40
5.1147499 -3.1000652 -0.43448913 2.7658689e-40
5.0874085 -3.0922785 -0.43682963 1.8439126e-40
5.0606327 -3.0753982 -0.44051468 1.8439126e-40
5.4717331 -2.9744391 -0.41120204 3.6878252e-40
5.4653211 -3.0434935 -0.38636458 3.6878252e-40
5.4626036 -3.0225708 -0.3944681 2.7658689e-40
5.4590521 -2.9896834 -0.4078244 2.7658689e-40
5.4555416 -3.0463607 -0.38636458 9.219563e-40
5.4448071 -3.0288036 -0.39951074 6.4536941e-40
5.426486 -3.0104249 -0.40279359 3.6878252e-40
5.4071898 -3.0625508 -0.39637062 3.6878252e-40
5.4086661 -3.0393999 -0.39951074 3.6878252e-40
5.4106026 -3.0059938 -0.40615702 2.7658689e-40
5.3892808 -3.0915518 -0.39308774 4.6097815e-40
5.3934989 -3.0665646 -0.39637062 4.6097815e-40
5.373064 -3.1107631 -0.3910895 4.6097815e-40
5.3469563 -3.1256459 -0.39009038 5.5317378e-40
5.3180838 -3.1341114 -0.39009038 5.5317378e-40
5.2892108 -3.1425767 -0.39009038 5.5317378e-40
5.2551799 -3.1405094 -0.39176399 4.6097815e-40
5.2291265 -3.1380093 -0.39060697 3.6878252e-40
5.2083468 -3.1208508 -0.39637062 4.6097815e-40
5.1839347 -3.1052904 -0.39951074 3.6878252e-40
5.1649795 -3.0877798 -0.40618297 3.6878252e-40
5.1625242 -3.1125824 -0.40455338 2.7658689e-40
5.138689 -3.0945132 -0.40134105 3.6878252e-40
5.1112776 -3.0909729 -0.4044627 2.7658689e-40
5.0806589 -3.0878122 -0.40479505 1.8439126e-40
5.0696125 -3.0686054 -0.41983962 1.8439126e-40
5.048564 -3.0716569 -0.40433335 1.8439126e-40
5.4719834 -3.0593171 -0.35339513 5.5317378e-40
5.472383 -3.037396 -0.36635256 4.6097815e-40
5.4760189 -3.0135646 -0.36925486 5.5317378e-40
5.4684443 -2.9940307 -0.38245732 5.5317378e-40
5.4525871 -3.0650039 -0.35339516 6.4536941e-40
5.4449472 -3.0464468 -0.37135559 7.3756504e-40
5.4331908 -3.0706909 -0.35339513 7.3756504e-40
5.4141836 -3.0547118 -0.36760333 7.3756504e-40
5.3860006 -3.0627232 -0.36635256 8.2976067e-40
5.3702106 -3.1094942 -0.3595261 6.4536941e-40
5.366714 -3.0693846 -0.37135553 1.0141519e-39
5.3538337 -3.1384859 -0.34787735 5.5317378e-40
5.3454185 -3.1204004 -0.36177886 1.2907388e-39
5.3164787 -3.128638 -0.36054787 5.5317378e-40
5.2876062 -3.1371033 -0.36054787 6.4536941e-40
5.2587337 -3.1455686 -0.3605479 4.6097815e-40
5.2215152 -3.1345005 -0.36207789 5.5317378e-40
5.2007403 -3.1190543 -0.37635854 4.6097815e-40
5.1901455 -3.1191406 -0.36134949 6.4536941e-40
5.1730642 -3.1028972 -0.37177616 1.0141519e-39
5.1554041 -3.1065531 -0.36421219 5.5317378e-40
5.1361961 -3.0902174 -0.37635642 8.2976067e-40
5.1151066 -3.0955825 -0.37228915 4.6097815e-40
5.0852647 -3.0937543 -0.37363771 2.7658689e-40
5.0665998 -3.1018765 -0.37332818 1.8439126e-40
5.4853659 -3.0920596 -0.30880445 5.5317378e-40
5.4771028 -3.0647151 -0.33229601 5.5317378e-40
5.4778156 -3.0317771 -0.34634045 6.4536941e-40
5.451952 -3.1018562 -0.30880445 7.3756504e-40
5.4541025 -3.0678287 -0.33271784 8.2976067e-40
5.4376321 -3.106055 -0.30880445 1.9361082e-39
5.4273596 -3.0743465 -0.33141539 7.3756504e-40
5.4042001 -3.0523543 -0.34133744 7.3756504e-40
5.390626 -3.0781794 -0.32858726 5.5317378e-40
5.3865433 -3.0573297 -0.34033686 6.4536941e-40
5.3660316 -3.127048 -0.30880445 6.4536941e-40
5.3698463 -3.099788 -0.33185324 7.3756504e-40
5.3448167 -3.1342506 -0.31368861 5.5317378e-40
5.3437467 -3.1146989 -0.33100542 7.3756504e-40
5.3118272 -3.1437266 -0.31271178 7.3756504e-40
5.316144 -3.1230397 -0.33223638 6.4536941e-40
5.2946959 -3.1489458 -0.31368858 1.1985432e-39
5.2847795 -3.1325543 -0.333819 5.5317378e-40
5.2571287 -3.140095 -0.33100542 4.6097815e-40
5.220849 -3.1337967 -0.33299208 5.5317378e-40
5.1864777 -3.1156864 -0.33883592 7.3756504e-40
5.1685457 -3.0966125 -0.3339563 1.5673257e-39
5.1493254 -3.1040742 -0.34303308 8.2976067e-40
5.1380172 -3.0817046 -0.33670056 5.5317378e-40
5.1134491 -3.0899305 -0.34178463 5.5317378e-40
5.0848389 -3.0903692 -0.34271318 2.7658689e-40
5.0573502 -3.0825286 -0.34457025 1.8439126e-40
5.0454755 -3.0611227 -0.34747699 2.7658689e-40
5.4848351 -3.0902498 -0.29903623 6.4536941e-40
5.476346 -3.0678959 -0.29161549 5.5317378e-40
5.4630876 -3.1150351 -0.27975789 1.2907388e-39
5.4559822 -3.0979228 -0.29512897 1.1985432e-39
5.4649844 -3.0737038 -0.30392483 6.4536941e-40
5.4366431 -3.1230814 -0.28121179 8.2976067e-40
5.4273777 -3.106441 -0.29578009 6.4536941e-40
5.4116383 -3.0690238 -0.31370249 5.5317378e-40
5.4026265 -3.1104221 -0.27949983 6.4536941e-40
5.3936186 -3.0807455 -0.30416054 5.5317378e-40
5.3715615 -3.1420331 -0.28056556 6.4536941e-40
5.3698759 -3.1224811 -0.29171008 7.3756504e-40
5.3716607 -3.0896597 -0.30262113 5.5317378e-40
5.3512125 -3.148649 -0.28379652 7.3756504e-40
5.338275 -3.1325657 -0.29578009 6.4536941e-40
5.330337 -3.1534698 -0.27733475 5.5317378e-40
5.3125386 -3.1390815 -0.29066354 7.3756504e-40
5.283823 -3.1472206 -0.28926796 4.6097815e-40
5.2842627 -3.1257 -0.2990011 6.4536941e-40
5.2555237 -3.1346216 -0.30146295 5.5317378e-40
5.2234635 -3.1367493 -0.30224353 7.3756504e-40
5.1951804 -3.129993 -0.30129853 5.5317378e-40
5.1776485 -3.1127386 -0.31131935 1.3829344e-39
5.1624365 -3.1151855 -0.30131331 1.751717e-39
5.1476455 -3.0983438 -0.31210482 1.0141519e-39
5.1269751 -3.0808504 -0.3163642 4.6097815e-40
5.1173449 -3.1045222 -0.29865775 4.6097815e-40
5.1128964 -3.0843644 -0.31331372 5.5317378e-40
5.0854425 -3.0862894 -0.31320608 3.6878252e-40
5.0559578 -3.0777802 -0.31894261 2.7658689e-40
5.4805856 -3.1045418 -0.25310338 7.3756504e-40
5.4779391 -3.08441 -0.25996336 8.2976067e-40
5.4755435 -3.0651591 -0.27684423 5.5317378e-40
5.4600739 -3.1324465 -0.25112745 1.0141519e-39
5.4646845 -3.1104574 -0.25933439 6.4536941e-40
5.4661865 -3.0688934 -0.28176799 5.5317378e-40
5.4431038 -3.1372287 -0.25016576 6.4536941e-40
5.4315114 -3.1213679 -0.26521906 6.4536941e-40
5.4110308 -3.1246104 -0.25148788 7.3756504e-40
5.4003277 -3.1084759 -0.26647547 5.5317378e-40
5.3738413 -3.1381142 -0.2644113 7.3756504e-40
5.3680453 -3.1162374 -0.25800973 1.1063476e-39
5.379034 -3.0924647 -0.27192047 7.3756504e-40
5.3436251 -3.1461611 -0.26037282 6.4536941e-40
5.343224 -3.1235149 -0.25800973 1.1063476e-39
5.322793 -3.1511309 -0.25471884 7.3756504e-40
5.3048606 -3.1364667 -0.26647547 7.3756504e-40
5.2908664 -3.1591918 -0.24825709 5.5317378e-40
5.2861557 -3.1410332 -0.26191702 6.4536941e-40
5.2833266 -3.1225073 -0.28176799 5.5317378e-40
5.2539191 -3.129148 -0.2719205 5.5317378e-40
5.2229218 -3.1333802 -0.2724016 8.2976067e-40
5.1896496 -3.1334133 -0.27331343 1.0141519e-39
5.167028 -3.1327562 -0.27400988 6.4536941e-40
5.146409 -3.1148517 -0.27629825 9.219563e-40
5.117413 -3.1001899 -0.27722651 5.5317378e-40
5.0779152 -3.0789859 -0.28760222 2.7658689e-40
5.0402822 -3.0527656 -0.29837376 2.7658689e-40
5.0202985 -3.0320818 -0.29305169 1.8439126e-40
4.9980412 -3.0136244 -0.29548287 1.8439126e-40
5.4795322 -3.1009502 -0.23371826 6.4536941e-40
5.4587679 -3.1279922 -0.22708523 7.3756504e-40
5.4650598 -3.1042182 -0.22887205 1.1063476e-39
5.4408317 -3.1355724 -0.22690421 7.3756504e-40
5.4176912 -3.1387453 -0.22067398 6.4536941e-40
5.4069953 -3.1225433 -0.23533364 6.4536941e-40
5.3856535 -3.1055717 -0.23065867 7.3756504e-40
5.3617864 -3.1125691 -0.23065878 5.5317378e-40
5.3703446 -3.0895638 -0.24483991 8.2976067e-40
5.3465447 -3.1385765 -0.22693348 7.3756504e-40
5.3380518 -3.1200194 -0.23310077 1.0141519e-39
5.3172626 -3.1675458 -0.21746834 7.3756504e-40
5.3194814 -3.147145 -0.23008361 7.3756504e-40
5.289813 -3.1556001 -0.22887205 6.4536941e-40
5.2806387 -3.1363614 -0.23065872 5.5317378e-40
5.2562413 -3.1415493 -0.22089049 5.5317378e-40
5.2475023 -3.1250854 -0.24237801 4.6097815e-40
5.2181249 -3.1215231 -0.24340428 6.4536941e-40
5.1848073 -3.1215539 -0.24424042 6.4536941e-40
5.1659498 -3.1290793 -0.25416359 1.5673257e-39
5.1512976 -3.1073787 -0.24628018 5.5317378e-40
5.1340451 -3.0884652 -0.24318862 7.3756504e-40
5.1146059 -3.0951796 -0.24823126 4.6097815e-40
5.0713124 -3.0711188 -0.25967926 2.7658689e-40
5.0409827 -3.0458002 -0.2647768 2.7658689e-40
5.0194492 -3.0291851 -0.27741569 2.7658689e-40
5.0014644 -3.0062766 -0.26395148 2.7658689e-40
4.9846048 -2.9883406 -0.28211445 2.7658689e-40
5.4665995 -3.1198907 -0.19823465 7.3756504e-40
5.4392581 -3.1302342 -0.1980775 6.4536941e-40
5.4131651 -3.1349125 -0.19502895 6.4536941e-40
5.3959432 -3.1199331 -0.20625597 6.4536941e-40
5.3762703 -3.1246791 -0.20117906 7.3756504e-40
5.3551559 -3.1076345 -0.19646995 1.5673257e-39
5.366735 -3.086164 -0.22268303 5.5317378e-40
5.343667 -3.1346099 -0.20302525 7.3756504e-40
5.3391562 -3.1119983 -0.19484188 1.751717e-39
5.3162179 -3.1639824 -0.19823459 5.5317378e-40
5.3213882 -3.1404917 -0.1997944 7.3756504e-40
5.3001804 -3.1689608 -0.19960846 5.5317378e-40
5.2784977 -3.1520925 -0.19494806 5.5317378e-40
5.2692881 -3.1557677 -0.19979428 8.2976067e-40
5.2475786 -3.141469 -0.20786613 5.5317378e-40
5.2206335 -3.1270192 -0.21283555 7.3756504e-40
5.1853461 -3.1202874 -0.21411596 6.4536941e-40
5.1537724 -3.1234658 -0.20851706 5.5317378e-40
5.1483088 -3.1032217 -0.22126512 4.6097815e-40
5.1332235 -3.0856624 -0.22806066 4.6097815e-40
5.1268492 -3.1085072 -0.2162621 5.5317378e-40
5.1057067 -3.0922084 -0.2204967 8.2976067e-40
5.0718861 -3.0675955 -0.23087168 3.6878252e-40
5.0506678 -3.0597372 -0.22155771 2.7658689e-40
5.0359306 -3.0410416 -0.23376426 2.7658689e-40
5.0171843 -3.0214596 -0.2357197 2.7658689e-40
5.0185304 -3.0440638 -0.22342673 1.8439126e-40
5.0016198 -3.0249746 -0.23050772 3.6878252e-40
4.9952817 -3.0042121 -0.24468225 2.7658689e-40
5.4656219 -3.1236331 -0.17019325 8.2976067e-40
5.4376912 -3.1248903 -0.16923493 6.4536941e-40
5.4113426 -3.1372163 -0.16545808 7.3756504e-40
5.3854837 -3.1403162 -0.16647558 1.0141519e-39
5.3621731 -3.1217084 -0.1658704 7.3756504e-40
5.3543596 -3.1049197 -0.18181764 6.4536941e-40
5.3456321 -3.1482632 -0.16297267 7.3756504e-40
5.3468237 -3.1278336 -0.17394759 7.3756504e-40
5.3240495 -3.1558809 -0.16938402 7.3756504e-40
5.2958531 -3.1641481 -0.16938396 7.3756504e-40
5.286654 -3.1448255 -0.17071679 1.0141519e-39
5.2677088 -3.1503801 -0.1707167 1.2907388e-39
5.2484612 -3.1326935 -0.16553722 5.5317378e-40
5.2394805 -3.1155493 -0.1832931 5.5317378e-40
5.2196441 -3.1404872 -0.16228114 5.5317378e-40
5.220232 -3.1211927 -0.1832931 6.4536941e-40
5.1880817 -3.1232877 -0.18377942 5.5317378e-40
5.1524782 -3.1190531 -0.18470153 5.5317378e-40
5.1219587 -3.1039014 -0.18624398 8.2976067e-40
5.1014619 -3.0868578 -0.18771948 8.2976067e-40
5.0916052 -3.0897477 -0.18771948 3.6878252e-40
5.0749097 -3.072588 -0.19943021 3.6878252e-40
5.0495539 -3.0559387 -0.20105562 2.7658689e-40
5.0275102 -3.0372708 -0.20275168 2.7658689e-40
5.0055809 -3.0196185 -0.20965973 2.7658689e-40
4.9832015 -3.0010576 -0.21139911 2.7658689e-40
4.9598536 -2.9806676 -0.20791058 2.7658689e-40
5.4587655 -3.1105778 -0.14053331 7.3756504e-40
5.4508486 -3.0908337 -0.14163904 5.5317378e-40
5.4362354 -3.1218677 -0.13503993 6.4536941e-40
5.4366393 -3.0949998 -0.14163904 5.5317378e-40
5.4103317 -3.1332366 -0.13735488 8.2976067e-40
5.3822451 -3.1413438 -0.13398069 1.2907388e-39
5.3506789 -3.1422684 -0.14053334 8.2976067e-40
5.3223019 -3.1523058 -0.13851906 9.219563e-40
5.2961316 -3.1599553 -0.13722666 7.3756504e-40
5.2761283 -3.1440113 -0.1513316 2.3048907e-39
5.272007 -3.1640451 -0.134122 7.3756504e-40
5.2566562 -3.1477706 -0.14163895 6.4536941e-40
5.2412124 -3.1315432 -0.14925687 5.5317378e-40
5.237184 -3.1515293 -0.1319465 6.4536941e-40
5.2174559 -3.1374433 -0.14396586 5.5317378e-40
5.1994896 -3.1424658 -0.14274469 6.4536941e-40
5.1826701 -3.1267569 -0.15621255 5.5317378e-40
5.1508613 -3.1135375 -0.15493204 6.4536941e-40
5.1278729 -3.1189466 -0.14831659 4.6097815e-40
5.114171 -3.1014869 -0.16289662 4.6097815e-40
5.0902357 -3.0850763 -0.16250625 1.0141519e-39
5.0692778 -3.0681021 -0.16892567 4.6097815e-40
5.0447826 -3.0551693 -0.17005922 3.6878252e-40
5.015161 -3.032572 -0.16140164 3.6878252e-40
5.0035992 -3.0128589 -0.17317577 2.7658689e-40
4.9886222 -2.9941812 -0.18512288 2.7658689e-40
4.9574904 -2.9610467 -0.19486426 2.7658689e-40
5.5078816 -3.1607778 -0.092356361 7.3756504e-40
5.4951897 -3.1352575 -0.10527249 7.3756504e-40
5.474359 -3.1396499 -0.096746974 5.5317378e-40
5.4659171 -3.1141729 -0.11607271 4.6097815e-40
5.4546432 -3.1455576 -0.097378507 4.6097815e-40
5.4378877 -3.1303525 -0.10289176 8.2976067e-40
5.408453 -3.129673 -0.10936966 6.4536941e-40
5.3828287 -3.1437819 -0.10258964 6.4536941e-40
5.3489113 -3.1387036 -0.10968999 9.219563e-40
5.3219361 -3.1553314 -0.10602644 1.2907388e-39
5.2947087 -3.1602929 -0.10899159 1.5673257e-39
5.2625899 -3.1620975 -0.11072094 7.3756504e-40
5.2358031 -3.1682103 -0.10206571 7.3756504e-40
5.231658 -3.1502242 -0.11740766 6.4536941e-40
5.2074442 -3.1342373 -0.11344004 5.5317378e-40
5.1978974 -3.1370363 -0.1134401 6.4536941e-40
5.1807976 -3.1203713 -0.12174632 8.2976067e-40
5.1530142 -3.1126924 -0.12617382 9.219563e-40
5.1275578 -3.1148794 -0.12764338 5.5317378e-40
5.1150751 -3.0924978 -0.11953717 6.4536941e-40
5.0991392 -3.0985124 -0.12620789 3.6878252e-40
5.0822949 -3.0823317 -0.13729301 3.6878252e-40
5.0681729 -3.0643342 -0.14858939 3.6878252e-40
5.0400176 -3.0544207 -0.13917324 2.7658689e-40
5.0156002 -3.051456 -0.12929831 2.7658689e-40
5.0042152 -3.032661 -0.14589535 1.8439126e-40
4.9928451 -3.0139146 -0.16275176 2.7658689e-40
5.4913373 -3.1498871 -0.066868834 6.4536941e-40
5.4939032 -3.1308699 -0.081590571 7.3756504e-40
5.4770455 -3.1521862 -0.057468157 8.2976067e-40
5.4712725 -3.1359806 -0.074012414 7.3756504e-40
5.4539137 -3.1402123 -0.069749631 5.5317378e-40
5.4338617 -3.1258357 -0.074575432 7.3756504e-40
5.4060497 -3.1168201 -0.081552342 7.3756504e-40
5.3768272 -3.1373785 -0.075207792 9.219563e-40
5.3495741 -3.1461186 -0.076002009 7.3756504e-40
5.3193622 -3.1500216 -0.076624006 6.4536941e-40
5.2902813 -3.1625154 -0.074023768 1.1063476e-39
5.2592301 -3.1587992 -0.081315875 6.4536941e-40
5.2347584 -3.1646466 -0.082831956 6.4536941e-40
5.2156057 -3.1481051 -0.083483621 5.5317378e-40
5.1963053 -3.1316071 -0.084135368 5.5317378e-40
5.1769209 -3.1160593 -0.094665691 6.4536941e-40
5.15096 -3.1089134 -0.095167436 8.2976067e-40
5.1256714 -3.1084447 -0.092912324 5.5317378e-40
5.1075592 -3.0910103 -0.10119274 7.3756504e-40
5.0934877 -3.0937266 -0.094188549 5.5317378e-40
5.0740805 -3.0786526 -0.10703708 3.6878252e-40
5.0434599 -3.0606248 -0.109308 2.7658689e-40
5.0153809 -3.0595121 -0.10835648 2.7658689e-40
5.480618 -3.1473558 -0.038666777 1.1985432e-39
5.4643283 -3.1328704 -0.048435934 9.219563e-40
5.4559383 -3.1112971 -0.034487188 1.0141519e-39
5.4487267 -3.1368096 -0.045278344 1.0141519e-39
5.4314079 -3.1197696 -0.040850423 1.1063476e-39
5.4047594 -3.115087 -0.049080167 1.0141519e-39
5.3875642 -3.1539481 -0.041331351 5.5317378e-40
5.375155 -3.1304948 -0.04734844 7.3756504e-40
5.3478317 -3.1641679 -0.034226798 8.2976067e-40
5.3459964 -3.1460009 -0.046759102 1.0141519e-39
5.3293157 -3.1695967 -0.034226798 5.5317378e-40
5.3153458 -3.1549876 -0.046759102 1.0141519e-39
5.2885451 -3.1622965 -0.044032037 9.219563e-40
5.2532625 -3.1579556 -0.047770884 9.219563e-40
5.2329302 -3.1584103 -0.049172875 1.0141519e-39
5.2142897 -3.1436155 -0.05925234 5.5317378e-40
5.2037296 -3.1215684 -0.045062575 5.5317378e-40
5.1949787 -3.1270821 -0.059714887 5.5317378e-40
5.1753159 -3.1105859 -0.06512323 7.3756504e-40
5.1515732 -3.107688 -0.065354034 6.4536941e-40
5.1217642 -3.1040995 -0.065623641 6.4536941e-40
5.0909882 -3.0888224 -0.066171721 6.4536941e-40
5.0658655 -3.0749736 -0.076781191 4.6097815e-40
5.0394621 -3.0584307 -0.077412106 3.6878252e-40
5.0130944 -3.0429094 -0.083168596 3.6878252e-40
4.9907432 -3.0241315 -0.083870195 3.6878252e-40
5.4630423 -3.1284828 -0.024754049 5.5317378e-40
5.4508266 -3.0973856 -0.010647222 6.4536941e-40
5.453784 -3.1311972 -0.024754049 2.0283039e-39
5.4350133 -3.1133511 -0.014204481 5.5317378e-40
5.407372 -3.1193378 -0.015402465 6.4536941e-40
5.3838344 -3.1498003 -0.0152813 9.219563e-40
5.3742557 -3.1278687 -0.015404909 6.4536941e-40
5.3502102 -3.1594205 -0.014097189 6.4536941e-40
5.352807 -3.1396141 -0.024942368 8.2976067e-40
5.3274636 -3.1667089 -0.017175833 8.2976067e-40
5.3101811 -3.1497116 -0.013011356 6.4536941e-40
5.2869897 -3.1569912 -0.015397576 6.4536941e-40
5.2519064 -3.1507843 -0.015479933 6.4536941e-40
5.2313628 -3.153065 -0.020322224 7.3756504e-40
5.2124467 -3.1373303 -0.025328351 7.3756504e-40
5.1931219 -3.1207483 -0.025526075 7.3756504e-40
5.1762509 -3.1048629 -0.038042665 6.4536941e-40
5.1477246 -3.0979095 -0.035763036 5.5317378e-40
5.1204166 -3.0995033 -0.04081573 5.5317378e-40
5.1083722 -3.0756726 -0.026147561 2.2126951e-39
5.091938 -3.0830076 -0.038655117 1.0141519e-39
5.0665493 -3.0681779 -0.044003949 4.6097815e-40
5.0378051 -3.052779 -0.046907637 2.7658689e-40
4.9967761 -3.0166428 -0.055442031 2.7658689e-40
4.9702034 -2.9995797 -0.058511764 2.7658689e-40
4.9546638 -2.9798181 -0.064252466 2.7658689e-40
5.4457073 -3.0834475 0.013336916 5.5317378e-40
5.4376879 -3.0634894 0.013441817 6.4536941e-40
5.4286451 -3.0931683 0.013330657 6.4536941e-40
5.4004879 -3.101424 0.013330598 8.2976067e-40
5.3726988 -3.1225579 0.013259547 1.1063476e-39
5.3499737 -3.1543279 0.011558237 6.4536941e-40
5.3412318 -3.134686 0.016418533 9.219563e-40
5.3134193 -3.1434808 0.013236887 7.3756504e-40
5.2869005 -3.1484931 0.011897931 1.1985432e-39
5.2529793 -3.139761 0.014298461 6.4536941e-40
5.2203398 -3.1291654 0.0037492821 6.4536941e-40
5.2008114 -3.1116142 0.0086626159 8.2976067e-40
5.1920605 -3.1171284 -0.0059896936 4.6097815e-40
5.1743784 -3.0984771 -0.0035764233 5.5317378e-40
5.143887 -3.0881076 -0.0060712034 1.5673257e-39
5.1231098 -3.0907273 -0.0011231373 7.3756504e-40
5.1060176 -3.0736787 -0.012806185 2.0283039e-39
5.0740776 -3.0603902 -0.016269404 8.2976067e-40
5.0373144 -3.039001 -0.018156175 3.6878252e-40
4.9977574 -3.0106349 -0.027013835 2.7658689e-40
4.9653916 -2.9957469 -0.032451794 2.7658689e-40
4.9532366 -2.9749496 -0.03797625 2.7658689e-40
5.427083 -3.0837483 0.038981866 7.3756504e-40
5.4171624 -3.063657 0.04251942 1.1063476e-39
5.3960366 -3.0924475 0.040985368 1.1985432e-39
5.3697782 -3.1140971 0.041982803 1.0141519e-39
5.339849 -3.1299703 0.04187135 8.2976067e-40
5.3118639 -3.1381755 0.041871406 9.219563e-40
5.2840843 -3.1356754 0.042029459 9.219563e-40
5.2562943 -3.1336615 0.039783232 6.4536941e-40
5.2371798 -3.1164274 0.04251942 1.1985432e-39
5.2190237 -3.124676 0.027980648 6.4536941e-40
5.206512 -3.104538 0.03552521 6.4536941e-40
5.173655 -3.0895174 0.023546921 7.3756504e-40
5.1411581 -3.0804441 0.023684748 9.219563e-40
5.1220312 -3.0870504 0.018723158 6.4536941e-40
5.1013083 -3.0696909 0.013876569 5.5317378e-40
5.0781841 -3.0530989 0.013986459 5.5317378e-40
5.0593352 -3.0341914 0.01410134 6.4536941e-40
5.0338378 -3.0279429 0.0064849136 4.6097815e-40
4.9933329 -3.0311716 0.0039653103 2.7658689e-40
4.9939399 -3.0050986 0.0060662115 2.7658689e-40
4.9758668 -3.0108135 0.0039986828 2.7658689e-40
4.97473 -2.9898629 -0.016815815 2.7658689e-40
4.9520946 -2.971055 -0.016955324 2.7658689e-40
5.4091368 -3.0625973 0.05948149 7.3756504e-40
5.4079208 -3.0400808 0.062387865 8.2976067e-40
5.3888941 -3.0674875 0.064673774 6.4536941e-40
5.3623509 -3.104516 0.069654509 9.219563e-40
5.3684821 -3.0730546 0.066750906 5.5317378e-40
5.3400502 -3.1116786 0.072204448 7.3756504e-40
5.3117762 -3.1176953 0.069938347 9.219563e-40
5.2840576 -3.1222785 0.070972361 7.3756504e-40
5.2642565 -3.1260061 0.066229783 6.4536941e-40
5.2411261 -3.112345 0.057058312 6.4536941e-40
5.231041 -3.0909588 0.06727197 6.4536941e-40
5.2175169 -3.097872 0.052619603 1.5673257e-39
5.2006207 -3.0780694 0.059611656 5.5317378e-40
5.17521 -3.079386 0.05317403 7.3756504e-40
5.1469498 -3.0732555 0.050973397 7.3756504e-40
5.1284719 -3.0536735 0.053900696 6.4536941e-40
5.1143465 -3.0598283 0.043894649 9.219563e-40
5.0911884 -3.0426912 0.046763703 5.5317378e-40
5.0795527 -3.0486393 0.034157094 4.6097815e-40
5.0611744 -3.0281966 0.041216582 1.0141519e-39
5.0301361 -3.0175841 0.038088672 3.6878252e-40
4.9981303 -2.9994326 0.028119557 2.7658689e-40
4.9826527 -2.9791508 0.024880162 4.6097815e-40
4.9718986 -2.9802063 0.035304185 3.6878252e-40
5.3932271 -3.1047177 0.089595512 5.5317378e-40
5.3865066 -3.064357 0.083712853 6.4536941e-40
5.3616381 -3.0926166 0.090271942 6.4536941e-40
5.3674293 -3.0694628 0.086135976 7.3756504e-40
5.3403602 -3.0983715 0.092676155 7.3756504e-40
5.3287482 -3.077879 0.10067481 6.4536941e-40
5.3103313 -3.060832 0.10146069 2.489282e-39
5.3099446 -3.1077731 0.090271942 1.1985432e-39
5.2912378 -3.0664306 0.10146075 6.4536941e-40
5.2864475 -3.1146622 0.090271942 5.5317378e-40
5.2634916 -3.1009119 0.081289679 6.4536941e-40
5.2627745 -3.0754309 0.098204717 1.0141519e-39
5.2540188 -3.1036892 0.081289679 9.219563e-40
5.2392612 -3.0836351 0.091692485 8.2976067e-40
5.2047048 -3.0697565 0.082668036 7.3756504e-40
5.1712694 -3.0631218 0.081726313 6.4536941e-40
5.1371636 -3.0470989 0.073912732 9.219563e-40
5.1197081 -3.0273962 0.081221811 7.3756504e-40
5.1040106 -3.0347042 0.067774743 1.751717e-39
5.0858335 -3.0141466 0.075110406 6.4536941e-40
5.060895 -3.0140545 0.066411801 8.2976067e-40
5.0285821 -3.0091488 0.062054563 5.5317378e-40
4.9938269 -2.9972279 0.045348786 3.6878252e-40
5.31005 -3.0354178 0.11213155 9.219563e-40
5.2847624 -3.027858 0.11270594 1.1063476e-39
5.2570372 -3.0387321 0.11752395 1.1985432e-39
5.2317967 -3.0553045 0.11347964 1.0141519e-39
5.1995096 -3.0497732 0.10955446 5.5317378e-40
5.1741061 -3.028214 0.11393686 5.5317378e-40
5.1756387 -3.0543621 0.10306999 8.2976067e-40
5.1550913 -3.0358024 0.10393082 5.5317378e-40
5.1540227 -3.0105712 0.11483946 5.5317378e-40
5.1458559 -3.0405238 0.093924768 1.6595213e-39
5.1253662 -3.0223553 0.098030604 8.2976067e-40
5.1090207 -3.0012107 0.10561494 5.5317378e-40
5.0896978 -3.0089221 0.09544678 5.5317378e-40
5.0677524 -3.0168905 0.087820657 5.5317378e-40
5.3100853 -2.9587266 0.14509538 6.4536941e-40
5.2909126 -2.9919536 0.12394285 6.4536941e-40
5.2862411 -2.9431126 0.13611947 6.4536941e-40
5.2691808 -2.99752 0.12794523 6.4536941e-40
5.2710238 -2.9715321 0.13837187 6.4536941e-40
5.2492361 -3.0251966 0.14077803 1.1063476e-39
5.2409296 -3.0025821 0.14395495 7.3756504e-40
5.2509456 -2.9760661 0.14509538 5.5317378e-40
5.2232528 -3.032665 0.14152223 5.5317378e-40
5.1893177 -3.0197279 0.13394889 6.4536941e-40
5.1723661 -3.0001202 0.14005274 5.5317378e-40
5.1584034 -3.0072577 0.12492474 7.3756504e-40
5.1400752 -2.9875026 0.12849335 7.3756504e-40
5.1144042 -2.988014 0.12291782 7.3756504e-40
5.0935621 -3.0036974 0.1157831 7.3756504e-40
5.3165464 -2.9515564 0.1713172 7.3756504e-40
5.3099804 -2.9320605 0.15645579 6.4536941e-40
5.2872658 -2.9387202 0.15645579 9.219563e-40
5.2588573 -2.9912858 0.17397296 6.4536941e-40
5.2661862 -2.967201 0.16694681 5.5317378e-40
5.2655373 -2.9461141 0.1513717 8.2976067e-40
5.2494507 -3.0187445 0.17253205 5.5317378e-40
5.250165 -2.9978607 0.15396093 2.9502602e-39
5.2501235 -2.9732633 0.16022331 2.1204995e-39
5.2235889 -3.0263271 0.17253205 5.5317378e-40
5.200726 -3.0103433 0.16396698 7.3756504e-40
5.1782522 -2.9928141 0.16778728 6.4536941e-40
5.1606398 -2.974824 0.16153987 4.6097815e-40
5.1605921 -2.99647 0.17535125 1.1985432e-39
5.1427984 -2.9716234 0.15491565 6.4536941e-40
5.1207886 -2.9649265 0.14747992 7.3756504e-40
5.1043973 -2.9440098 0.14872399 4.6097815e-40
5.30762 -2.9503179 0.19047917 6.4536941e-40
5.3156385 -2.9237528 0.18950236 6.4536941e-40
5.3066659 -2.973242 0.19398506 4.6097815e-40
5.2926979 -2.954186 0.1930005 7.3756504e-40
5.2840314 -2.9355772 0.1767921 9.219563e-40
5.2728329 -3.0051007 0.20627084 7.3756504e-40
5.2675495 -2.9847109 0.19398512 7.3756504e-40
