# .PCD v0.7 - Point Cloud Data file format
VERSION 0.7
FIELDS x y z rgb
SIZE 4 4 4 4
TYPE F F F F
COUNT 1 1 1 1
WIDTH 660
HEIGHT 1
VIEWPOINT 0 0 0 1 0 0 0
POINTS 660
DATA ascii
1.4135219 -0.19969542 -1.1134275 7.3734966e-39
1.4203794 -0.19458348 -1.1188293 7.1894515e-39
1.4029366 -0.30581284 -1.0945967 1.3913258e-38
1.3873756 -0.27720264 -1.0869036 8.5760573e-39
1.3962737 -0.29292414 -1.0884504 1.0696554e-38
1.3780664 -0.25299603 -1.0803355 8.2061804e-39
1.3724322 -0.22315998 -1.0776362 8.3895038e-39
1.3798726 -0.2045529 -1.0800167 8.7600912e-39
1.4071245 -0.19642812 -1.0974693 8.1099924e-39
1.4276607 -0.1889578 -1.1067791 1.0683159e-38
1.3905362 -0.27613682 -1.0607712 8.668976e-39
1.4039487 -0.29301548 -1.0635846 1.1064243e-38
1.3802552 -0.25365308 -1.0577754 8.7608073e-39
1.3759371 -0.22288205 -1.0564617 8.6664523e-39
1.3787155 -0.20069818 -1.0557547 8.3913003e-39
1.400439 -0.27392295 -1.0362236 9.1310416e-39
1.412788 -0.29040387 -1.0368797 1.1157158e-38
1.3892599 -0.25274298 -1.0303736 9.5909393e-39
1.3884474 -0.22380069 -1.029034 9.4980192e-39
1.389599 -0.19470322 -1.0287187 1.0049741e-38
1.3888334 -0.17441468 -1.0219603 8.8490218e-39
1.4069396 -0.27590212 -1.0113331 9.4994808e-39
1.4182322 -0.28760809 -1.0043696 1.1710709e-38
1.399076 -0.253117 -1.00165 1.0421429e-38
1.4201925 -0.26851377 -0.99686438 9.8700583e-39
1.4052013 -0.22638297 -1.0060573 9.8664402e-39
1.4194386 -0.21779449 -0.99975103 8.115791e-39
1.4086988 -0.19366333 -1.007483 1.0511431e-38
1.4177939 -0.19853748 -1.0060492 1.023449e-38
1.4066257 -0.17305757 -1.0092373 1.0972412e-38
1.4228193 -0.16396567 -1.0033349 1.0969161e-38
1.4304605 -0.14873944 -1.0040481 1.124065e-38
1.4285189 -0.28651562 -0.97817272 1.1986203e-38
1.4166863 -0.25216773 -0.97401285 9.7756977e-39
1.4254698 -0.26851377 -0.97665775 9.7782243e-39
1.4182563 -0.22998358 -0.97261846 9.406904e-39
1.4246578 -0.22307299 -0.97976649 9.7756879e-39
1.4145554 -0.20306642 -0.98678935 9.0352208e-39
1.426952 -0.19629006 -0.9764868 9.2203337e-39
1.434011 -0.16556178 -0.98202538 1.1339743e-38
1.4456674 -0.14163956 -0.97978842 1.3086756e-38
1.4557196 -0.13580304 -0.98351109 1.3173178e-38
1.4347689 -0.28378648 -0.94896537 1.2446096e-38
1.4237369 -0.25100508 -0.94239926 1.051507e-38
1.4334396 -0.26680893 -0.9461416 1.0516154e-38
1.4243361 -0.22848536 -0.94204891 9.2217981e-39
1.4330087 -0.21679999 -0.9477911 9.129587e-39
1.4289589 -0.20187891 -0.93163806 9.5916386e-39
1.4332373 -0.19617915 -0.94979334 8.6667942e-39
1.4363885 -0.16746746 -0.95004529 9.6795028e-39
1.4410599 -0.14272369 -0.94994158 1.1061343e-38
1.4603292 -0.13377614 -0.96586084 1.124428e-38
1.4440958 -0.27814534 -0.92116797 1.2354621e-38
1.4321034 -0.24860308 -0.91651976 1.0146284e-38
1.4416951 -0.26152954 -0.91875178 1.0331044e-38
1.4267647 -0.22405599 -0.91296268 8.6697005e-39
1.4375321 -0.2386789 -0.93047112 9.9615407e-39
1.4255766 -0.19496496 -0.91273195 8.2065461e-39
1.4288443 -0.16575669 -0.91347712 8.9430181e-39
1.4375321 -0.15514129 -0.93047112 9.588019e-39
1.4364607 -0.14844038 -0.90291345 1.096734e-38
1.4429516 -0.13925797 -0.92080116 1.096734e-38
1.4537832 -0.27556112 -0.89357239 1.4284192e-38
1.4358896 -0.24309111 -0.89586633 1.042215e-38
1.4489015 -0.25773245 -0.88968915 1.0975686e-38
1.4341036 -0.22514129 -0.89808786 9.5005415e-39
1.4488401 -0.22674493 -0.88717103 1.0052999e-38
1.4321492 -0.19526456 -0.89686519 8.3902213e-39
1.4488401 -0.1969101 -0.88717109 9.9607854e-39
1.4332851 -0.1645714 -0.89109606 9.6809503e-39
1.4504404 -0.16962999 -0.88368243 1.1527034e-38
1.4406025 -0.14573008 -0.88397622 1.0601092e-38
1.44879 -0.13209634 -0.89132148 1.1060243e-38
1.4567263 -0.11992659 -0.8886351 1.2898018e-38
1.4454629 -0.2731303 -0.86844385 1.6580787e-38
1.4808029 -0.27231196 -0.85580784 1.6398544e-38
1.4605817 -0.25693032 -0.86131829 1.2079843e-38
1.4492139 -0.21969175 -0.85408151 7.9303404e-39
1.4551227 -0.23072295 -0.86311555 9.0388403e-39
1.4509643 -0.20583731 -0.84737915 7.377863e-39
1.4552826 -0.19555397 -0.86250323 8.3909332e-39
1.4617382 -0.16579543 -0.86336613 9.7735047e-39
1.4462131 -0.13656515 -0.86557138 1.2447535e-38
1.4656353 -0.13623185 -0.8612327 1.2722677e-38
1.4658175 -0.11992659 -0.85382468 1.520908e-38
1.4990417 -0.27188441 -0.84928942 1.5659551e-38
1.4815236 -0.24497835 -0.83405197 1.1804716e-38
1.4941032 -0.26046127 -0.84628046 1.2999979e-38
1.4540901 -0.21523854 -0.83541054 9.129971e-39
1.4672431 -0.22699492 -0.83346862 1.116079e-38
1.453867 -0.1972995 -0.8270309 8.1143505e-39
1.4619582 -0.19213653 -0.83694315 8.2980061e-39
1.4589663 -0.17812845 -0.81673956 7.3753169e-39
1.4664003 -0.16625044 -0.83497131 8.2961942e-39
1.4797935 -0.14125137 -0.83955503 1.0416334e-38
1.4973917 -0.13054778 -0.83894473 1.2259164e-38
1.4766622 -0.11441835 -0.84000272 1.5483879e-38
1.5014346 -0.11395719 -0.83485061 1.4747373e-38
1.4898156 -0.24993134 -0.80722672 1.3091459e-38
1.5012009 -0.26390383 -0.80936241 1.4004353e-38
1.474638 -0.22437668 -0.80560726 1.1620688e-38
1.4594979 -0.19359736 -0.79941356 9.6842111e-39
1.4703263 -0.20884404 -0.80490118 1.0699088e-38
1.4606581 -0.17298716 -0.79601514 7.4668063e-39
1.4740942 -0.16002706 -0.8077879 8.4802127e-39
1.487564 -0.14698623 -0.80765879 9.0333809e-39
1.506686 -0.13154331 -0.81298429 1.1337195e-38
1.5266854 -0.12337614 -0.80676055 1.2716156e-38
1.5132143 -0.11357981 -0.82668191 1.4289269e-38
1.5288953 -0.11035117 -0.81473744 1.4471141e-38
1.4732198 -0.25531745 -0.76216274 1.4460981e-38
1.4830561 -0.25015926 -0.77515429 1.1614166e-38
1.4739699 -0.21672294 -0.75929028 1.0235569e-38
1.4804167 -0.22738047 -0.77633762 1.0788752e-38
1.4675294 -0.19192421 -0.76831937 9.6842125e-39
1.4769857 -0.20685506 -0.77940232 1.023666e-38
1.4643469 -0.16801973 -0.7673052 8.5746028e-39
1.4763575 -0.15663303 -0.78180784 8.940472e-39
1.4909036 -0.14217269 -0.77616137 9.4014459e-39
1.5173591 -0.12687247 -0.78442812 1.1242835e-38
1.539611 -0.11012691 -0.79148859 1.4194191e-38
1.4964248 -0.25087821 -0.74697977 1.3363687e-38
1.514876 -0.26147157 -0.75700015 1.4277669e-38
1.4767081 -0.22194707 -0.7415157 9.7753067e-39
1.4860325 -0.23768441 -0.7447623 1.0143745e-38
1.4722059 -0.19597982 -0.74068081 9.4065438e-39
1.4713376 -0.16499992 -0.73976773 9.4058054e-39
1.4933606 -0.14101805 -0.74711192 9.4021802e-39
1.5200732 -0.12494862 -0.75292993 1.0874417e-38
1.5295037 -0.11664954 -0.7643097 1.1794202e-38
1.5515345 -0.11087959 -0.76092899 1.2256264e-38
1.5190307 -0.27231196 -0.7094329 1.5660226e-38
1.5248635 -0.27363303 -0.71875805 1.5105989e-38
1.5093168 -0.25388354 -0.71839786 1.4659139e-38
1.5225587 -0.26451194 -0.72758311 1.4922696e-38
1.4858791 -0.22043395 -0.71368986 1.032777e-38
1.4943049 -0.23615739 -0.71660519 1.2451532e-38
1.4791324 -0.19448428 -0.71210343 1.0329216e-38
1.481492 -0.16620421 -0.71191841 1.0235939e-38
1.5000385 -0.13855191 -0.71780181 9.9560728e-39
1.5277154 -0.12301955 -0.72894442 1.0875846e-38
1.5403632 -0.11664954 -0.72272825 1.1242108e-38
1.560298 -0.11010899 -0.73544043 1.2073656e-38
1.5225986 -0.27231196 -0.69577122 1.630309e-38
1.5362495 -0.2742936 -0.69099092 1.5937187e-38
1.5142874 -0.25543591 -0.69087893 1.3921575e-38
1.5340827 -0.26755229 -0.68345767 1.6027959e-38
1.4918581 -0.22020113 -0.68387038 1.1897996e-38
1.5008591 -0.23602693 -0.6879912 1.2634131e-38
1.4846468 -0.19478589 -0.68057483 1.0144826e-38
1.4888221 -0.165723 -0.68247575 1.0327776e-38
1.505932 -0.13694963 -0.68880945 1.0601448e-38
1.5310096 -0.12161467 -0.69522446 1.0416317e-38
1.5433863 -0.11432415 -0.69532329 1.0965886e-38
1.5569931 -0.1112367 -0.70258439 1.2072928e-38
1.546121 -0.27495414 -0.66902196 1.6397095e-38
1.5744292 -0.28781164 -0.67011899 1.6950249e-38
1.5177763 -0.25387782 -0.66092724 1.3002896e-38
1.5379239 -0.26755229 -0.66874915 1.5848625e-38
1.4980853 -0.21886945 -0.65507936 1.2449016e-38
1.5085351 -0.23488174 -0.65859973 1.1622133e-38
1.4885466 -0.19432442 -0.65044636 1.1068602e-38
1.4926248 -0.16531378 -0.65224349 9.9593491e-39
1.5039773 -0.14844038 -0.64439172 9.4061711e-39
1.51333 -0.13691024 -0.66101569 1.0509974e-38
1.5363874 -0.12161467 -0.67463255 1.0601074e-38
1.5188496 -0.11692843 -0.65076393 1.1242831e-38
1.5445771 -0.11609174 -0.67493379 1.1243907e-38
1.5722669 -0.11189725 -0.68367493 1.2534264e-38
1.5419674 -0.27231196 -0.62160796 1.4110327e-38
1.5526892 -0.28086549 -0.63900113 1.6124482e-38
1.5261078 -0.25537321 -0.63201886 1.3649722e-38
1.505404 -0.21996672 -0.62507755 1.1896927e-38
1.5156019 -0.23602693 -0.63154089 1.2358257e-38
1.5007612 -0.19494091 -0.62393844 1.2176032e-38
1.5009496 -0.1664681 -0.6248408 9.0384788e-39
1.4484541 -0.13677797 -0.59975648 8.7589926e-39
1.4599618 -0.13036086 -0.61109793 9.1266877e-39
1.5054777 -0.13656515 -0.63864684 9.587317e-39
1.5154026 -0.13747524 -0.64285713 9.5869456e-39
1.4493182 -0.11683119 -0.596448 1.0409847e-38
1.4664073 -0.10494569 -0.61295569 1.1701633e-38
1.545751 -0.27722684 -0.60224974 1.4659873e-38
1.553399 -0.29013786 -0.60949486 1.7318324e-38
1.5314126 -0.25421733 -0.6031006 1.3190187e-38
1.5142757 -0.22314718 -0.59836304 1.189584e-38
1.5242296 -0.2386789 -0.5985046 1.263918e-38
1.5046237 -0.19448881 -0.59395307 1.1438106e-38
1.4232224 -0.15050642 -0.56181628 8.2097887e-39
1.5089059 -0.17194678 -0.59880644 9.0402907e-39
1.521968 -0.16409174 -0.60716456 8.7586535e-39
1.4253188 -0.14536147 -0.5715974 8.5778524e-39
1.4391321 -0.13183415 -0.57866037 1.0871917e-38
1.4475794 -0.11109804 -0.57686061 1.206287e-38
1.4635005 -0.095465891 -0.58495688 1.2151805e-38
1.4726385 -0.083715595 -0.58749086 1.2980456e-38
1.5779839 -0.30236787 -0.57867819 1.6675869e-38
1.5901667 -0.30927432 -0.58149767 1.7039943e-38
1.5468894 -0.28270489 -0.5747292 1.4931024e-38
1.564045 -0.29187521 -0.56873131 1.2080192e-38
1.5361624 -0.25693759 -0.57392019 1.3466052e-38
1.521113 -0.22301142 -0.56822515 1.1343033e-38
1.5302608 -0.2386789 -0.57541126 1.2916848e-38
1.5172632 -0.19564007 -0.56763142 1.2359702e-38
1.5325224 -0.18497616 -0.56675124 1.1619259e-38
1.4280841 -0.15483303 -0.54122233 9.4032942e-39
1.513903 -0.17735779 -0.57868308 1.0155998e-38
1.5295069 -0.17900918 -0.57829791 1.3367737e-38
1.4320421 -0.13516317 -0.54387599 1.4001875e-38
1.4403747 -0.12649542 -0.5475859 1.5840002e-38
1.4491869 -0.10612179 -0.54770297 1.3626947e-38
1.4652536 -0.091596328 -0.563133 1.3169913e-38
1.4715841 -0.08433149 -0.56659544 1.2152165e-38
1.5856115 -0.30492598 -0.54947209 1.3925565e-38
1.5965034 -0.31410027 -0.55860502 1.4929222e-38
1.5553211 -0.27735373 -0.54673141 1.3280952e-38
1.5753319 -0.28942999 -0.54661936 1.3742641e-38
1.5409491 -0.25651565 -0.54503769 1.2084193e-38
1.5307963 -0.21598074 -0.5417012 1.0420337e-38
1.5386422 -0.23130794 -0.54331827 1.1528858e-38
1.5305949 -0.20043194 -0.54084253 1.1161515e-38
1.5385536 -0.18945138 -0.54365796 1.0513263e-38
1.4307463 -0.16133928 -0.512703 1.3734691e-38
1.4371018 -0.13793762 -0.51370847 1.6395348e-38
1.4495142 -0.12379744 -0.51813138 1.6114781e-38
1.5821038 -0.12443424 -0.54179603 1.6020032e-38
1.4579229 -0.11070377 -0.52348512 1.6298801e-38
1.6013896 -0.1142485 -0.55463767 1.5928195e-38
1.6424665 -0.10805137 -0.5652625 1.3815264e-38
1.668295 -0.10096047 -0.5764538 1.2893685e-38
1.6180968 -0.33181098 -0.52402121 1.2063556e-38
1.592334 -0.30390275 -0.52373123 1.448524e-38
1.6042656 -0.31634328 -0.52614391 1.5213767e-38
1.5647525 -0.27411419 -0.51325685 1.2637734e-38
1.5792743 -0.29064745 -0.5217241 1.2545188e-38
1.5520369 -0.25458789 -0.51676434 1.2913963e-38
1.5377464 -0.22156532 -0.51201087 1.0515779e-38
1.5460926 -0.23697408 -0.51479131 1.1070402e-38
1.5382981 -0.20113672 -0.51297659 1.0239201e-38
1.4383758 -0.16289687 -0.48414832 1.5115093e-38
1.4444908 -0.14093302 -0.48829359 1.6488964e-38
1.4564984 -0.12940918 -0.49088463 1.5470479e-38
1.5710205 -0.13313028 -0.51036304 1.3531861e-38
1.5860097 -0.12744869 -0.52115965 1.3167744e-38
1.4590867 -0.11860184 -0.50364035 1.6205867e-38
1.6113994 -0.11405704 -0.52879971 1.0777873e-38
1.6415211 -0.10748991 -0.53326595 1.1985407e-38
1.6738629 -0.10584293 -0.55189621 9.5861819e-39
1.7004679 -0.097418353 -0.55242413 9.1208723e-39
1.6209096 -0.33297247 -0.50533664 1.1324885e-38
1.5997031 -0.30390275 -0.49551523 1.4943339e-38
1.6140035 -0.31897959 -0.49913195 1.4567673e-38
1.575603 -0.27366346 -0.48377103 1.3284891e-38
1.5871789 -0.28928071 -0.49004361 1.3651523e-38
1.5610853 -0.25483376 -0.48825175 1.208456e-38
1.5459875 -0.21375413 -0.48353383 1.0055536e-38
1.5536312 -0.22972846 -0.48592457 1.1900524e-38
1.4460207 -0.18424366 -0.44761109 9.3136237e-39
1.5489882 -0.20781651 -0.47204399 1.0415675e-38
1.5525546 -0.20628677 -0.49004847 9.4087131e-39
1.4447232 -0.16375047 -0.45475632 1.4097323e-38
1.4540821 -0.14018533 -0.46230945 1.3996434e-38
1.4644237 -0.13492844 -0.45550174 1.344216e-38
1.5740787 -0.13313028 -0.49865305 1.1879518e-38
1.5921609 -0.13657181 -0.48985621 1.1880235e-38
1.6174004 -0.12675701 -0.49842075 9.1255639e-39
1.6472744 -0.12300366 -0.49540675 6.7309886e-39
1.6211554 -0.1151792 -0.50703365 9.4964918e-39
1.6471604 -0.11170643 -0.51299202 9.3027679e-39
1.677151 -0.11151315 -0.51556134 7.4653209e-39
1.6363986 -0.33180916 -0.4856028 1.0127076e-38
1.6536635 -0.3325431 -0.47753856 1.0963339e-38
1.6874452 -0.33879876 -0.47614455 1.1424681e-38
1.6055207 -0.30083302 -0.47323942 1.3652614e-38
1.6263332 -0.31636766 -0.47377616 1.3837347e-38
1.5564901 -0.2731303 -0.44331935 1.1624264e-38
1.5783368 -0.27742332 -0.46029937 1.2177121e-38
1.5945847 -0.29241103 -0.46366629 1.2823208e-38
1.5247445 -0.24720919 -0.43427762 8.4813337e-39
1.5487704 -0.25420091 -0.44418582 1.0795212e-38
1.5648708 -0.25615171 -0.46188447 1.1253719e-38
1.5152164 -0.22778054 -0.43276998 8.7647716e-39
1.5410542 -0.2294642 -0.44503987 9.1357387e-39
1.5608116 -0.22650596 -0.46238893 9.0413809e-39
1.4518753 -0.19032638 -0.42217579 9.2189128e-39
1.454405 -0.1639622 -0.42579797 1.5106763e-38
1.5285925 -0.151611 -0.43537357 1.3902075e-38
1.4633487 -0.14438532 -0.43191633 1.381025e-38
1.4680768 -0.14055045 -0.44151428 1.3808794e-38
1.5418854 -0.14512415 -0.44119802 1.2892935e-38
1.572445 -0.13533138 -0.45662764 8.4729806e-39
1.5936188 -0.12646881 -0.47132298 7.3731168e-39
1.579446 -0.11442324 -0.44776082 5.9876839e-39
1.6011224 -0.10768302 -0.45842102 6.1720667e-39
1.6281894 -0.10288908 -0.47314516 8.6588166e-39
1.6562145 -0.085291125 -0.47172794 1.3632665e-38
1.6756213 -0.07666789 -0.47392955 1.3724847e-38
1.5513935 -0.30948558 -0.42023322 9.678407e-39
1.532952 -0.27577981 -0.41340443 9.9633386e-39
1.5416459 -0.28743854 -0.42298752 1.0055523e-38
1.5203508 -0.25396129 -0.41449481 7.9339459e-39
1.5368063 -0.26941651 -0.43162468 5.9967433e-39
1.4675695 -0.21308255 -0.3959682 8.9473762e-39
1.4954011 -0.21656513 -0.4199957 6.9212303e-39
1.5156076 -0.23154327 -0.41507638 7.6580779e-39
1.4572182 -0.19401719 -0.39777064 1.2623275e-38
1.4617057 -0.16657452 -0.39989933 1.4735815e-38
1.496506 -0.15553516 -0.40653151 1.399642e-38
1.5313604 -0.15704587 -0.40894562 1.3718392e-38
1.5424714 -0.15254605 -0.4210135 1.3443961e-38
1.5521121 -0.14052065 -0.42174509 9.9517022e-39
1.5678718 -0.12862141 -0.43139875 8.4809147e-39
1.5817468 -0.11471138 -0.43084827 9.3106796e-39
1.6042128 -0.10062568 -0.43471563 9.9560574e-39
1.6247195 -0.092655972 -0.44029123 1.0323038e-38
1.6466814 -0.087647699 -0.44622982 1.0875487e-38
1.6630905 -0.082198165 -0.45067644 1.1615556e-38
1.7021884 -0.07765872 -0.46124583 8.668564e-39
1.7350836 -0.072458714 -0.45994902 5.0682541e-39
1.577756 -0.33415046 -0.39355135 7.9176923e-39
1.559364 -0.31408378 -0.39440688 1.3097617e-38
1.5782586 -0.327189 -0.39162689 1.271689e-38
1.5322514 -0.28100437 -0.38350949 1.208565e-38
1.5465317 -0.29702753 -0.39438561 1.2271124e-38
1.5255058 -0.25439912 -0.38401136 1.0794182e-38
1.4692606 -0.22011927 -0.36792451 1.0787679e-38
1.5121142 -0.23315839 -0.39293709 9.3179706e-39
1.4553061 -0.19734541 -0.35981885 1.5753948e-38
1.4605731 -0.19080414 -0.37180552 1.5291887e-38
1.471078 -0.17118423 -0.37125459 1.4642168e-38
1.4896394 -0.16351803 -0.37741864 1.4087888e-38
1.5448006 -0.16910459 -0.37331206 1.362367e-38
1.5508748 -0.15872374 -0.38853016 1.0868975e-38
1.5600574 -0.13909183 -0.39283931 8.4802071e-39
1.5805494 -0.12552109 -0.39423344 1.0601425e-38
1.5913452 -0.11629541 -0.40562886 1.0970571e-38
1.6129242 -0.10487573 -0.40747562 1.0970942e-38
1.6379262 -0.095320188 -0.4149501 1.1522653e-38
1.6538469 -0.08542385 -0.40824002 1.133718e-38
1.6712183 -0.08295086 -0.42483115 1.1985432e-38
1.6919231 -0.07693211 -0.43525434 1.244604e-38
1.5935996 -0.33679387 -0.36454499 9.492215e-39
1.5460888 -0.30423379 -0.35481119 1.4576727e-38
1.5712425 -0.31751034 -0.35799888 1.4942605e-38
1.5879346 -0.32700181 -0.3704071 1.3460591e-38
1.5376004 -0.28357679 -0.35370979 1.1901259e-38
1.4896516 -0.24623853 -0.33120263 1.0425033e-38
1.4936479 -0.24174678 -0.343602 1.0332851e-38
1.5345689 -0.2589367 -0.3548587 1.0056609e-38
1.4631422 -0.21673612 -0.32981378 1.6859573e-38
1.4737839 -0.22814119 -0.34004822 1.290421e-38
1.4581569 -0.19583552 -0.33604211 1.6028367e-38
1.4703937 -0.18237799 -0.32974979 1.455141e-38
1.476393 -0.1750389 -0.33962584 1.3628014e-38
1.4908067 -0.16866055 -0.35448116 1.3257407e-38
1.5445368 -0.17324111 -0.35532668 1.3073742e-38
1.5591291 -0.16089211 -0.35802299 8.7524556e-39
1.5706434 -0.14330806 -0.36670002 9.3092573e-39
1.5902017 -0.13197023 -0.36480409 1.1247871e-38
1.6009104 -0.11452377 -0.37108997 9.9567987e-39
1.6202192 -0.099558949 -0.37936234 9.9571504e-39
1.6342416 -0.092532113 -0.3949261 1.0785096e-38
1.6498222 -0.083899453 -0.38592324 1.1153147e-38
1.6767104 -0.07580477 -0.39219335 9.0463345e-39
1.5937293 -0.33797061 -0.34821919 1.1153133e-38
1.5477648 -0.30864081 -0.32411894 1.4018849e-38
1.5627427 -0.32123962 -0.33785474 1.2905624e-38
1.542442 -0.2831288 -0.32519805 1.0794538e-38
1.470385 -0.24510458 -0.29654068 1.0325277e-38
1.4815475 -0.24642424 -0.31236967 9.7800165e-39
1.5405165 -0.26546642 -0.32481417 1.0793817e-38
1.4649848 -0.22384883 -0.30473128 1.6398599e-38
1.4749094 -0.23611744 -0.32037374 1.161491e-38
1.4637487 -0.19850054 -0.30550641 1.6119477e-38
1.4783579 -0.18454313 -0.30980742 1.4917674e-38
1.5595354 -0.18076697 -0.31689247 1.2064263e-38
1.5649257 -0.1815633 -0.32395527 1.316773e-38
1.4840628 -0.17587982 -0.31500655 1.3812385e-38
1.5536414 -0.17493579 -0.33946031 1.2337259e-38
1.5716095 -0.16430749 -0.33084723 1.0322667e-38
1.5879978 -0.14844038 -0.32267591 8.9404734e-39
1.5990192 -0.13425256 -0.33860707 1.0141169e-38
1.6150588 -0.1125556 -0.34173915 1.0325947e-38
1.6256618 -0.10118826 -0.35021195 1.041958e-38
1.6362603 -0.085815288 -0.34498364 1.051141e-38
1.6539012 -0.077730417 -0.35404873 1.014333e-38
1.6752474 -0.075522937 -0.37246722 9.968997e-39
1.5540876 -0.31128004 -0.29727831 1.1709628e-38
1.5486794 -0.28455046 -0.29783919 1.0701625e-38
1.4722201 -0.24808915 -0.27712989 1.2721624e-38
1.4857553 -0.25975046 -0.27092999 9.684937e-39
1.4681915 -0.22412547 -0.27327999 1.6397161e-38
1.4710776 -0.19989268 -0.27738133 1.6302418e-38
1.4890982 -0.18727095 -0.27747709 1.4825463e-38
1.5634031 -0.18441147 -0.3020823 1.2340508e-38
1.5730655 -0.1815633 -0.29278782 9.6754853e-39
1.5758083 -0.16450131 -0.30223259 8.4801973e-39
1.5903418 -0.14462093 -0.30261958 7.2813024e-39
1.6057432 -0.12904993 -0.31072649 8.4823805e-39
1.618336 -0.11172733 -0.3165271 9.496545e-39
1.6345928 -0.097593151 -0.31970876 1.0234825e-38
1.6446927 -0.085952289 -0.3232491 1.0417069e-38
1.6610889 -0.075178713 -0.32405052 1.0510659e-38
1.5587796 -0.31190902 -0.269824 1.1979391e-38
1.5797253 -0.32798532 -0.26728714 1.6364377e-38
1.4934361 -0.27080369 -0.24152009 6.6489356e-39
1.5550101 -0.28785092 -0.26966399 9.5034338e-39
1.4792105 -0.24875648 -0.24474214 1.2176757e-38
1.491467 -0.26195028 -0.25337729 1.0697285e-38
1.4724631 -0.22361948 -0.24362649 1.1254066e-38
1.4772675 -0.19837093 -0.24707636 1.1703834e-38
1.4958267 -0.18668258 -0.25215366 1.1609444e-38
1.566033 -0.18875168 -0.26694843 8.75355e-39
1.577611 -0.18323669 -0.27538255 8.1085155e-39
1.579904 -0.16416325 -0.27325228 5.8998e-39
1.5904031 -0.1370367 -0.27371207 7.6515324e-39
1.6085939 -0.12558165 -0.29031265 8.7596736e-39
1.6185255 -0.11313169 -0.28163567 8.2050677e-39
1.6413254 -0.097115323 -0.29091445 8.5738489e-39
1.6520349 -0.084860541 -0.28985968 8.66569e-39
1.6714827 -0.071925305 -0.29609448 8.7585989e-39
1.5647634 -0.31436056 -0.23860539 1.0325599e-38
1.485718 -0.27470887 -0.21632782 8.4878203e-39
1.5607429 -0.29449835 -0.23905732 8.3952814e-39
1.4799644 -0.25634164 -0.21461414 1.0517233e-38
1.4753164 -0.22561924 -0.21394297 1.0055153e-38
1.4834177 -0.19658804 -0.2151978 9.4983597e-39
1.5034873 -0.18451652 -0.22776778 8.2065069e-39
1.5374032 -0.18154863 -0.23146711 7.3825069e-39
1.5681477 -0.18555911 -0.24943037 7.1912563e-39
1.5130345 -0.17833884 -0.21660569 9.8685253e-39
1.573052 -0.1717416 -0.23720296 5.6246551e-39
1.5848483 -0.15813579 -0.24767128 6.4515333e-39
1.5925202 -0.13527048 -0.24568149 7.3756714e-39
1.6073093 -0.11746202 -0.24319132 7.5604298e-39
1.6225108 -0.10284682 -0.25273547 7.7444567e-39
1.6424081 -0.091211006 -0.26867792 8.0214024e-39
1.6526506 -0.082477421 -0.26111877 8.7582317e-39
1.6744201 -0.070348628 -0.26626652 9.4032298e-39
1.5766066 -0.33070457 -0.21986665 1.224726e-38
1.5656143 -0.31527293 -0.20655228 1.0879153e-38
1.4935774 -0.27822897 -0.18742219 1.0236312e-38
1.56133 -0.29835597 -0.20910585 6.7389971e-39
1.4796921 -0.25499907 -0.18460363 1.2547327e-38
1.4680247 -0.21937706 -0.18448 1.0054066e-38
1.475068 -0.22621913 -0.18356393 9.9604379e-39
1.4676847 -0.20995596 -0.18578218 9.5909183e-39
1.4869435 -0.19278565 -0.18699175 9.3143258e-39
1.5165318 -0.17450474 -0.19373977 9.1277415e-39
1.5460135 -0.17019327 -0.19849828 7.0075811e-39
1.5728322 -0.16138133 -0.21013609 5.6232061e-39
1.590085 -0.1522789 -0.22761947 4.9746124e-39
1.5811343 -0.14519265 -0.20886205 6.1749534e-39
1.5945659 -0.13260795 -0.21705857 6.9121807e-39
1.6081922 -0.11228597 -0.21623544 8.4820162e-39
1.6272198 -0.096877746 -0.22468294 8.1125162e-39
1.6340051 -0.089944951 -0.20983206 9.6830284e-39
1.6603734 -0.079411611 -0.23154841 8.6638795e-39
1.6865166 -0.068300925 -0.23829639 9.6773055e-39
1.5736418 -0.31488556 -0.17959209 1.1160053e-38
1.4959956 -0.27727073 -0.15935411 1.1344453e-38
1.4783407 -0.24584587 -0.14498006 9.0420885e-39
1.485489 -0.25660124 -0.15800714 1.153066e-38
1.4777963 -0.22754201 -0.14706351 7.3822001e-39
1.4827724 -0.22225945 -0.16145088 9.2228672e-39
1.4778873 -0.20995596 -0.14671633 5.07118e-39
1.4901624 -0.19466144 -0.15672661 8.8522644e-39
1.5009698 -0.17680329 -0.15608157 7.7444693e-39
1.517859 -0.16777761 -0.16647241 7.7422973e-39
1.5432862 -0.16378349 -0.18123928 5.9884238e-39
1.5771234 -0.15611351 -0.1802922 5.9923558e-39
1.5871409 -0.13457571 -0.17968975 6.4533466e-39
1.5977809 -0.13002275 -0.19815208 8.1139273e-39
1.597109 -0.11662385 -0.17302258 7.0040358e-39
1.608989 -0.10595595 -0.18896097 8.0199576e-39
1.6275129 -0.095471561 -0.20303142 7.3659828e-39
1.6413007 -0.084944949 -0.19405286 9.2163274e-39
1.6674346 -0.075058453 -0.20451082 1.0138997e-38
1.6944442 -0.066003211 -0.21140395 1.1057716e-38
1.5660268 -0.30137062 -0.13571748 5.8112632e-39
1.5773706 -0.31261882 -0.15114874 1.0146973e-38
1.4869562 -0.27635229 -0.11199116 1.1709976e-38
1.4991128 -0.27597469 -0.12994917 1.1622463e-38
1.5330696 -0.28919631 -0.12735865 6.4397007e-39
1.5610543 -0.29501653 -0.14090641 5.7003813e-39
1.5800825 -0.29902387 -0.15115356 8.5724153e-39
1.4821981 -0.25282681 -0.12120211 1.0700529e-38
1.4918312 -0.26390705 -0.13553818 1.2358616e-38
1.4805677 -0.22557141 -0.12299636 9.0384648e-39
1.4873466 -0.21081468 -0.13424119 1.0511773e-38
1.484689 -0.20995598 -0.12067242 8.0207017e-39
1.4966767 -0.19552761 -0.12700941 8.4838449e-39
1.5083662 -0.17362469 -0.12740941 8.665697e-39
1.5261813 -0.16473836 -0.13829972 8.2965361e-39
1.5614353 -0.15725045 -0.13252231 6.4562206e-39
1.5762138 -0.15911525 -0.15337573 5.9920055e-39
1.5702859 -0.14817615 -0.13326073 3.7822125e-39
1.5822791 -0.13525665 -0.14937894 6.084564e-39
1.5964053 -0.11130092 -0.150324 7.3774735e-39
1.6103319 -0.10005957 -0.15987217 7.6519038e-39
1.6256332 -0.087808572 -0.15944156 7.1887732e-39
1.6483918 -0.079063915 -0.1656283 9.3078056e-39
1.6769478 -0.073438533 -0.17863721 1.0601758e-38
1.701046 -0.066255666 -0.18530121 1.2900155e-38
1.5727774 -0.31152216 -0.11778361 8.4860155e-39
1.583523 -0.31444454 -0.1181931 1.0415573e-38
1.48877 -0.2745578 -0.10504609 1.1801828e-38
1.5039555 -0.28035352 -0.092740834 1.0047219e-38
1.4913391 -0.25481841 -0.095207237 1.1804341e-38
1.4989569 -0.26216698 -0.089785494 1.263052e-38
1.4907581 -0.22599287 -0.094582908 1.0235928e-38
1.4934932 -0.21081468 -0.11070581 8.3909472e-39
1.491944 -0.20349576 -0.092892207 9.3157677e-39
1.4990149 -0.19170567 -0.10044479 9.3125223e-39
1.5125513 -0.16986696 -0.098083064 8.6678522e-39
1.5383788 -0.15529418 -0.10900778 7.7458776e-39
1.561813 -0.15283486 -0.12415066 5.4399163e-39
1.5415015 -0.14737247 -0.095072776 5.618558e-39
1.5660883 -0.14263052 -0.11155709 5.0696891e-39
1.5822755 -0.12966388 -0.11883124 6.2696686e-39
1.5909446 -0.10407288 -0.12129857 7.2820437e-39
1.6111071 -0.087467887 -0.11942403 8.8493483e-39
1.6275792 -0.080767259 -0.13093427 9.1248534e-39
1.6503309 -0.075929053 -0.14600091 8.7582275e-39
1.5786459 -0.31234336 -0.087397896 9.0395578e-39
1.5926021 -0.31251669 -0.097675227 1.0329546e-38
1.5161567 -0.27825102 -0.070097238 1.0513602e-38
1.5505899 -0.29352415 -0.072805032 6.1789933e-39
1.49674 -0.25230715 -0.066339791 1.0699806e-38
1.5085182 -0.26486972 -0.053174891 1.2081628e-38
1.4946784 -0.22545256 -0.065800808 1.0051898e-38
1.4986178 -0.20009543 -0.064698949 9.9586148e-39
1.504117 -0.18618961 -0.070027433 9.5898183e-39
1.5164869 -0.16591524 -0.06991259 8.8522504e-39
1.5453154 -0.14085281 -0.076424278 7.1909158e-39
1.5737958 -0.12864362 -0.087856703 5.3462759e-39
1.5792567 -0.1131384 -0.085788444 5.9923684e-39
1.5965321 -0.097032174 -0.091861181 7.8352174e-39
1.6153755 -0.087379828 -0.096747242 9.0326648e-39
1.6308948 -0.080929361 -0.10351233 9.308516e-39
1.6501297 -0.071603671 -0.11643147 1.1062792e-38
1.5660144 -0.30779815 -0.038807914 1.9087738e-38
1.5772235 -0.31047869 -0.060526531 1.4479442e-38
1.5954461 -0.32058713 -0.064624026 2.0095047e-38
1.5274345 -0.2798501 -0.039710201 1.1158257e-38
1.5487959 -0.29589036 -0.047849957 8.3005816e-39
1.5675201 -0.29796696 -0.060744315 6.8138852e-39
1.502633 -0.24723963 -0.042466868 1.1898711e-38
1.5203781 -0.25884283 -0.03414575 1.2909619e-38
1.5008227 -0.22462425 -0.036030523 1.0512163e-38
1.5026602 -0.19766538 -0.035747685 1.0603611e-38
1.5103395 -0.185589 -0.046201423 9.3085791e-39
1.5091752 -0.17765504 -0.026914405 7.2813766e-39
1.5223415 -0.16556618 -0.040778674 9.773848e-39
1.5378344 -0.14084607 -0.042277429 7.7455357e-39
1.5477588 -0.13057661 -0.050832003 8.1139581e-39
1.5668098 -0.12368441 -0.063464105 6.8232179e-39
1.5813806 -0.110987 -0.055521097 6.2678749e-39
1.6076286 -0.095124036 -0.062301125 9.6805467e-39
1.6223727 -0.087321103 -0.065733828 1.0413785e-38
1.6324295 -0.082116209 -0.074716344 1.0414148e-38
1.5674286 -0.30779815 -0.033393215 1.9361814e-38
1.5832453 -0.31062385 -0.028235337 2.0281958e-38
1.5324432 -0.27804333 -0.011429791 1.0143745e-38
1.553486 -0.2929101 -0.011588139 1.4671333e-38
1.5152211 -0.24584587 -0.0037642906 1.106496e-38
1.5262841 -0.25794259 -0.011663185 1.0419967e-38
1.5132997 -0.22531776 -0.0073219426 1.2633731e-38
1.5194455 -0.23784222 -0.011334253 1.3091467e-38
1.5131487 -0.1959926 -0.0083059752 1.078765e-38
1.5139364 -0.17550167 -0.0086836861 1.0049371e-38
1.5301955 -0.16085504 -0.01262479 9.6809293e-39
1.5392684 -0.14217569 -0.017796293 8.207244e-39
1.5613012 -0.12914184 -0.01788857 9.7720375e-39
1.5803057 -0.12368441 -0.011788168 6.9176206e-39
1.5868386 -0.11409663 -0.026018184 6.5430325e-39
1.6175117 -0.10073813 -0.040061634 9.1244947e-39
1.6302621 -0.087467894 -0.046078518 9.8498614e-39
1.5425099 -0.2733945 0.0097039295 1.1534594e-38
1.5651379 -0.28527927 0.0076993583 1.235429e-38
1.5193778 -0.24225689 0.012151483 8.1165281e-39
1.5383649 -0.25621191 0.018367892 9.8707464e-39
1.5211588 -0.22482468 0.018972561 8.9448216e-39
1.5357599 -0.2348257 0.025410965 9.6834881e-39
1.5218127 -0.19779974 0.021477127 1.134226e-38
1.5290068 -0.18378717 0.025276378 1.1619567e-38
1.5193778 -0.17765504 0.012151483 1.0509252e-38
1.5349801 -0.16485195 0.017848978 1.0049713e-38
1.5532153 -0.14852476 0.015077724 1.0327001e-38
1.5665712 -0.13723499 0.0073211971 9.9575008e-39
1.5856674 -0.12523119 0.001815899 8.0195793e-39
1.614975 -0.12594496 0.010152316 1.0599605e-38
1.5882171 -0.11705506 -0.0022720741 8.662446e-39
1.6675172 -0.10687707 -0.018194858 9.2167155e-39
1.6842272 -0.10783058 -0.011594564 1.1612693e-38
1.5694896 -0.27188256 0.025945583 1.2641656e-38
1.5553093 -0.24768746 0.041564099 7.3775323e-39
1.5718542 -0.26360917 0.034009796 1.0980331e-38
1.545711 -0.2249433 0.042187713 1.1158241e-38
1.5744147 -0.23273395 0.052718539 1.1802532e-38
1.5268596 -0.20457248 0.040799771 1.0781555e-38
1.544572 -0.19359946 0.049655098 1.2445716e-38
1.5484785 -0.16891782 0.041930042 1.1707425e-38
1.573983 -0.15748037 0.046316028 8.2969144e-39
1.5573853 -0.14852476 0.03104494 9.5011525e-39
1.5733205 -0.14583668 0.032698613 9.2159659e-39
1.6307771 -0.13648237 0.024488358 9.3081867e-39
1.6625645 -0.12551622 0.020884408 1.1521577e-38
1.6892241 -0.11203821 0.0078878636 1.15223e-38
1.5643355 -0.21453576 0.057656918 1.0594991e-38
1.584062 -0.22175543 0.065630451 1.2080932e-38
1.5630788 -0.19547303 0.063926183 1.0140495e-38
1.5820997 -0.19107671 0.067897521 1.2631551e-38
1.5643355 -0.17602935 0.057656918 1.2812711e-38
1.5845218 -0.17172234 0.061078135 1.0879133e-38
1.6170039 -0.17038807 0.066399835 1.2541525e-38
1.6478908 -0.15706021 0.056678247 1.1521587e-38
1.6453021 -0.14509174 0.04118982 1.1244278e-38
1.6712908 -0.13350913 0.046004139 1.0413419e-38
1.7031558 -0.11421209 0.037797719 9.488936e-39
1.723076 -0.10337247 0.040200569 6.2510089e-39
1.6162199 -0.19496953 0.075863786 1.3556014e-38
1.6592321 -0.18888807 0.085295096 1.2720162e-38
1.6729631 -0.19034863 0.089721955 1.3465263e-38
1.6523788 -0.16681306 0.075102165 1.3640981e-38
1.6718189 -0.15998927 0.08320979 1.37249e-38
1.6747861 -0.13579725 0.074793175 1.4090429e-38
1.687084 -0.11386534 0.074382693 1.3351415e-38
1.7082918 -0.1020577 0.065818653 1.2154307e-38
1.7265879 -0.095554389 0.053648397 1.0593843e-38
1.720634 -0.082565136 0.073063299 1.013611e-38
1.685135 -0.19132408 0.10442034 1.5661382e-38
1.6715194 -0.151611 0.11189625 1.6576821e-38
1.6804055 -0.16479114 0.10667504 1.6115497e-38
1.6710281 -0.13994862 0.11001571 1.6208774e-38
1.678352 -0.1316257 0.10342931 1.5840351e-38
1.688596 -0.10837293 0.10390358 1.3167028e-38
1.7067746 -0.095609181 0.090569034 1.1417814e-38
1.7171333 -0.076339029 0.095574655 9.4856822e-39
1.7338316 -0.066888072 0.081384398 7.7426224e-39
1.7249025 -0.055019263 0.10111439 7.9198166e-39
1.7402424 -0.043394949 0.094058774 6.6330267e-39
1.6756686 -0.18636331 0.13569829 4.7905434e-39
1.6862707 -0.19095328 0.12789068 9.7658914e-39
1.6730413 -0.1632136 0.13378526 6.9982163e-39
1.6818429 -0.16692109 0.12372283 1.4276597e-38
1.6711836 -0.1339979 0.13435534 1.2797896e-38
1.6828958 -0.1356367 0.12379681 1.5748511e-38
1.6779658 -0.10860597 0.13657983 1.3904597e-38
1.6841063 -0.10238751 0.12684867 1.2982281e-38
1.6969138 -0.077970497 0.13064186 1.1049775e-38
1.7109437 -0.072598167 0.11642627 1.0312549e-38
1.7043126 -0.058300916 0.1319291 1.1047963e-38
1.724569 -0.04475997 0.12452663 1.1141231e-38
1.7438072 -0.034240823 0.11166701 1.0038486e-38
1.7468779 -0.024362078 0.12078537 1.1229478e-38
1.7095274 -0.053438533 0.14266305 1.2337992e-38
1.7308559 -0.037056882 0.14254312 1.3350688e-38
1.740752 -0.024205506 0.13954139 1.1592923e-38
1.749197 -0.024322934 0.14021841 1.0406935e-38
