# .PCD v0.7 - Point Cloud Data file format
VERSION 0.7
FIELDS x y z rgb
SIZE 4 4 4 4
TYPE F F F F
COUNT 1 1 1 1
WIDTH 1048
HEIGHT 1
VIEWPOINT 0 0 0 1 0 0 0
POINTS 1048
DATA ascii
1.7800747 1.1248839 -1.2449681 1.1700199e-38
1.7605379 1.1328567 -1.2575063 1.2712909e-38
2.1573915 1.2448363 -1.1623384 3.043155e-39
2.155581 1.2638605 -1.1617157 3.4104984e-39
2.1413965 1.2223697 -1.1626489 3.683484e-39
2.1243658 1.1985527 -1.1573859 3.8643103e-39
2.1172118 1.2049336 -1.1738652 3.5905919e-39
2.1112754 1.1831985 -1.1561265 3.6813512e-39
2.0966101 1.1814182 -1.1673387 2.8562583e-39
2.0781212 1.1701018 -1.1652946 4.0487114e-39
2.0509977 1.1667049 -1.175578 4.4182016e-39
2.0577784 1.1434439 -1.1734009 4.326722e-39
2.0436165 1.1541411 -1.1686453 4.0533623e-39
1.8344393 1.2469045 -1.2328541 2.1179884e-39
1.854367 1.2004356 -1.2163789 1.9332356e-39
1.8420099 1.223851 -1.2230642 1.933244e-39
1.8432298 1.1830939 -1.215757 2.9477322e-39
1.8296614 1.1538175 -1.2135754 5.8944008e-39
1.805943 1.1328336 -1.2163789 7.9194677e-39
1.7849777 1.133763 -1.2082164 6.5362053e-39
1.7945753 1.1205187 -1.208325 1.0592058e-38
1.7761415 1.1227655 -1.2180413 1.2620695e-38
2.1491065 1.2450732 -1.1355931 3.7764027e-39
2.143054 1.2633226 -1.1340214 3.1342829e-39
2.1438296 1.2210575 -1.1281223 3.592017e-39
2.1293814 1.1964384 -1.1283023 4.140893e-39
2.1053247 1.1749837 -1.1299559 4.418905e-39
2.08779 1.1632047 -1.1271383 4.3289136e-39
2.0700779 1.1613806 -1.1372291 4.5132657e-39
2.0552869 1.1521772 -1.1296608 5.4330738e-39
2.0420709 1.155413 -1.1488211 4.1459377e-39
1.8613226 1.2261398 -1.1801364 3.2193081e-39
1.8542116 1.2351865 -1.1974068 2.9434414e-39
1.8540468 1.2066641 -1.1843797 2.3952871e-39
1.846652 1.2234404 -1.2001092 2.5764596e-39
1.846439 1.1802607 -1.1863935 3.1314004e-39
1.8296262 1.1549878 -1.1848515 5.3412383e-39
1.8013873 1.1395066 -1.186848 5.7092991e-39
1.782437 1.1355829 -1.1960557 5.25013e-39
1.7672706 1.1244253 -1.1947891 1.123633e-38
1.7331959 1.1176537 -1.2054629 1.2992719e-38
2.1413455 1.2475646 -1.105397 3.5923926e-39
2.1330547 1.2680309 -1.1077911 3.409418e-39
2.114984 1.2839819 -1.1042088 3.7724552e-39
2.1371107 1.2266099 -1.1009144 3.4987452e-39
2.1267567 1.2536466 -1.0936782 4.3274241e-39
2.1263812 1.196577 -1.1012796 3.8668158e-39
2.1096315 1.1743193 -1.1005831 5.0649989e-39
2.0811656 1.1620364 -1.1034733 4.9742452e-39
2.0648193 1.1591377 -1.1119025 6.1691716e-39
2.0574834 1.1505053 -1.1082577 4.6065487e-39
1.8718841 1.2271008 -1.1551218 3.2207388e-39
1.8541048 1.209878 -1.1583607 3.1296194e-39
1.8369228 1.1880003 -1.1593777 2.7633648e-39
1.8237735 1.1591802 -1.1568371 4.6043781e-39
1.8007917 1.1384827 -1.1560367 4.7891519e-39
1.7789122 1.120373 -1.1591069 8.9357678e-39
1.763579 1.1182014 -1.1757876 1.2530676e-38
1.7512761 1.1152489 -1.1649868 1.1609461e-38
2.1179848 1.2679427 -1.0817461 4.2348767e-39
2.108094 1.2855951 -1.0867933 3.6827819e-39
2.1448083 1.2097495 -1.0574038 3.6827861e-39
2.1344194 1.2299868 -1.0716629 4.1412517e-39
2.1229491 1.256374 -1.0754539 3.6835064e-39
2.1383281 1.1922681 -1.0627071 3.95938e-39
2.1207995 1.1735193 -1.0635521 5.8947596e-39
2.1036992 1.1667322 -1.0730491 5.3419361e-39
2.0782866 1.1586719 -1.0739691 6.7241573e-39
2.0612762 1.1453801 -1.0836557 3.2214731e-39
2.0498686 1.15596 -1.0718091 5.4352276e-39
1.863767 1.2318574 -1.1256976 2.7615417e-39
1.8552547 1.1957234 -1.1133529 3.3154301e-39
1.8532728 1.2133679 -1.1273674 3.4983949e-39
1.8330599 1.1892054 -1.1268313 2.947026e-39
1.8170844 1.1639717 -1.1248206 3.9579367e-39
1.8170111 1.1423341 -1.1133529 4.8777392e-39
1.7974089 1.1363863 -1.1250874 5.0632165e-39
1.7702135 1.1187806 -1.1300861 1.0321588e-38
1.7566966 1.1067362 -1.1197323 1.1427953e-38
1.7462082 1.1100512 -1.1393051 1.0691449e-38
2.1160994 1.2736325 -1.0491146 3.5012591e-39
2.1403461 1.2129457 -1.0360465 3.8671606e-39
2.1274118 1.2380828 -1.043359 3.7760481e-39
2.1168573 1.2607378 -1.0462949 4.0529938e-39
2.1410708 1.1914995 -1.0298845 4.2352396e-39
2.117275 1.1693175 -1.0344192 6.6330323e-39
2.101079 1.1596984 -1.0324869 7.3702442e-39
2.0744262 1.1619091 -1.0456154 7.6457605e-39
2.044538 1.1597782 -1.046295 4.6083326e-39
1.8609526 1.2380173 -1.0958055 2.8548191e-39
1.8558828 1.2053716 -1.0934757 3.7749747e-39
1.852138 1.2252706 -1.096806 3.5866542e-39
1.8280755 1.1916785 -1.096806 3.4072866e-39
1.8199277 1.1604409 -1.0815495 3.865032e-39
1.8116025 1.1683606 -1.0975337 3.4051441e-39
1.7960254 1.1270726 -1.0815495 4.6061928e-39
1.7927899 1.1420977 -1.0975337 4.602597e-39
1.791245 1.1203989 -1.0815495 7.827586e-39
1.7747456 1.1167864 -1.0978065 1.0782934e-38
1.7559327 1.1047591 -1.0992963 1.1613429e-38
2.1242971 1.2606503 -1.0121732 4.4221448e-39
2.1151485 1.2712202 -1.0171361 4.2391857e-39
2.1371622 1.2193 -1.0052623 4.141958e-39
2.1284344 1.2407178 -1.0137795 3.6849203e-39
2.1439238 1.1746833 -0.99746519 4.7901987e-39
2.1375222 1.1914573 -1.0032501 4.6954989e-39
2.1184735 1.1679015 -1.0028154 7.462423e-39
2.095444 1.1610271 -1.0042844 7.7372414e-39
2.0677729 1.1614846 -1.0134768 7.1854872e-39
2.0453784 1.156768 -1.0075614 4.2295209e-39
2.0394926 1.1618491 -1.0256407 4.6051054e-39
1.8541933 1.2380303 -1.0743945 2.8533982e-39
1.8534404 1.2124176 -1.0650963 3.406202e-39
1.8333374 1.1861783 -1.065648 3.6835148e-39
1.8166056 1.1628206 -1.0656478 3.1307068e-39
1.7982637 1.1380917 -1.0636601 3.8664655e-39
1.788012 1.1475227 -1.0701256 4.0483569e-39
1.784271 1.1181817 -1.0645121 8.7539017e-39
1.7679598 1.1195292 -1.0701256 8.9390314e-39
1.7531714 1.1067696 -1.0710063 1.0967695e-38
2.1156678 1.2628899 -0.98944372 4.3295891e-39
2.111341 1.2739475 -0.99891168 4.2384528e-39
2.1506095 1.2010032 -0.9589746 4.5997216e-39
2.1354458 1.2231017 -0.97789025 3.7746258e-39
2.1234028 1.2456284 -0.98070902 4.2370361e-39
2.1451669 1.1820925 -0.96566808 5.0642744e-39
2.1419487 1.1990637 -0.98016614 4.8773819e-39
2.1321993 1.1646765 -0.96095496 7.2762479e-39
2.1159248 1.164397 -0.97639608 7.6475485e-39
2.0901418 1.1594263 -0.97640824 7.8301531e-39
2.0610647 1.1606568 -0.98408812 6.7298914e-39
2.0465536 1.1570367 -0.98656404 4.1387406e-39
1.8772538 1.2160192 -1.0204421 2.7665836e-39
1.8661808 1.2267556 -1.0400991 2.3935033e-39
1.8527313 1.211844 -1.0360292 3.4984033e-39
1.833135 1.1864426 -1.0362852 4.0512225e-39
1.8127853 1.1661048 -1.0367458 3.4998396e-39
1.7952038 1.1460211 -1.036013 3.498769e-39
1.775219 1.1414379 -1.0434451 3.956171e-39
1.7753824 1.1170737 -1.0389042 8.6620788e-39
1.7634324 1.1261609 -1.0407771 7.8290811e-39
1.7436155 1.1112568 -1.0399853 1.0784752e-38
2.1163359 1.2650322 -0.95777577 4.3270962e-39
2.1303151 1.2280496 -0.94799304 3.5920366e-39
2.1207943 1.2494643 -0.94769454 4.0519148e-39
2.1472201 1.1711552 -0.92749953 5.8018241e-39
2.1429901 1.1853756 -0.93871617 4.8791671e-39
2.1307518 1.2087227 -0.94093853 4.1423251e-39
2.1263216 1.161931 -0.93753421 7.553555e-39
2.0855203 1.1543022 -0.94259799 7.3706085e-39
2.0639691 1.1455929 -0.94705743 3.5902416e-39
1.8573353 1.1970634 -1.0003868 2.8551835e-39
1.8542739 1.2144486 -1.0115724 2.8544842e-39
1.8452548 1.181353 -0.99777091 3.7746286e-39
1.8281459 1.1779732 -1.0115724 4.3281583e-39
1.8279891 1.1599432 -0.99166697 3.8675417e-39
1.8141359 1.1595768 -1.0089386 3.9579367e-39
1.7925941 1.1416157 -1.0064915 3.4065664e-39
1.7718202 1.1234192 -1.0062267 6.264268e-39
1.7536032 1.123036 -1.0167646 8.9383042e-39
1.7538512 1.1067928 -0.99409056 1.244536e-38
1.7463844 1.1129584 -1.0167646 1.1891817e-38
2.1043124 1.271024 -0.9350906 2.9517133e-39
2.117851 1.2308676 -0.92427617 3.3157847e-39
2.1076446 1.252129 -0.92416489 3.6845868e-39
2.1305552 1.1840262 -0.91632766 5.1571903e-39
2.1153822 1.2082305 -0.91458619 3.7749804e-39
2.1148419 1.1684641 -0.91324824 6.9071164e-39
2.1057224 1.1803238 -0.90803301 5.4355513e-39
2.097414 1.1439197 -0.90237015 7.0961796e-39
2.0845852 1.1539966 -0.92148685 7.5546368e-39
2.0974793 1.1159669 -0.8952058 2.8530269e-39
2.0917826 1.1289855 -0.90661049 2.7630046e-39
1.8500818 1.200598 -0.96943176 2.5785952e-39
1.841517 1.1804035 -0.96934891 3.1314074e-39
1.8249654 1.1568207 -0.97230387 3.5906017e-39
1.8044575 1.1334773 -0.97208565 3.591322e-39
1.7946905 1.1417291 -0.98786914 3.957215e-39
1.7865889 1.1148459 -0.962892 4.1470153e-39
1.7709541 1.1158019 -0.98278266 5.6117183e-39
1.7729467 1.0963781 -0.96158403 1.0142586e-38
1.7593734 1.0967839 -0.97799283 1.253574e-38
2.1105995 1.2342538 -0.89366394 2.9477392e-39
2.1031153 1.2487205 -0.89506269 3.0395859e-39
2.1147714 1.1911218 -0.86799693 2.5789497e-39
2.1077895 1.2138247 -0.88876414 2.8541115e-39
2.1074133 1.1702243 -0.88002056 3.5920352e-39
2.1007059 1.1898468 -0.89124733 2.4889121e-39
2.1016455 1.13349 -0.86867875 6.5498274e-39
2.0993605 1.1478349 -0.88260978 5.71072e-39
2.0900948 1.1160733 -0.87160659 2.8566226e-39
2.0870135 1.1242582 -0.88750494 3.6831435e-39
1.8443433 1.2047086 -0.94196463 2.9434274e-39
1.8494084 1.1724116 -0.92269433 3.1310529e-39
1.8424273 1.1791134 -0.94234246 3.0374195e-39
1.8334314 1.1461163 -0.93173802 3.6810051e-39
1.8295273 1.1572495 -0.94638932 3.5895157e-39
1.8220494 1.1296566 -0.93303001 4.0487086e-39
1.8093653 1.1287752 -0.94713205 4.2348823e-39
1.7981398 1.100839 -0.92269433 8.3858366e-39
1.7888069 1.1098497 -0.94105482 5.3409034e-39
1.7888182 1.0878258 -0.92269433 9.2109492e-39
1.773294 1.0958164 -0.94520551 7.0050896e-39
2.1061773 1.2428465 -0.86020404 3.6849385e-39
2.1142244 1.1944762 -0.85866588 2.7619088e-39
2.0978146 1.2192918 -0.85944676 3.5898786e-39
2.0876441 1.2400845 -0.85604721 4.0508596e-39
2.1132283 1.1603487 -0.84445846 4.0479743e-39
2.1105275 1.1763686 -0.85117465 3.0385013e-39
2.1039653 1.1431992 -0.84573144 4.5118195e-39
2.1028459 1.15711 -0.86314774 3.0377853e-39
2.0903654 1.1156764 -0.84544963 3.9601017e-39
1.8577224 1.1959916 -0.89556307 2.579677e-39
1.8498507 1.1988136 -0.91649711 2.3960018e-39
1.8602887 1.1516263 -0.89171797 3.9583178e-39
1.8489505 1.1770318 -0.90212458 2.7637165e-39
1.8451622 1.1922681 -0.91649711 2.7619186e-39
1.8510413 1.1366531 -0.89639437 4.0494317e-39
1.8467506 1.1481925 -0.91292042 3.1310711e-39
1.8357828 1.1157268 -0.89554411 4.4210714e-39
1.8267162 1.1185243 -0.91677141 4.8809678e-39
1.8179795 1.0915482 -0.89401364 1.2899105e-38
1.8048047 1.0902009 -0.91163677 1.0506693e-38
1.8071524 1.0711145 -0.88865554 1.4650106e-38
2.0810935 1.2571206 -0.83890802 3.3154483e-39
2.1038055 1.1989766 -0.8155098 3.0406565e-39
2.0938158 1.2187175 -0.83003682 3.4998368e-39
2.0773849 1.2463861 -0.84145612 3.9579479e-39
2.1096411 1.1666847 -0.81875533 3.7749958e-39
2.1063478 1.1825707 -0.82055038 3.5001871e-39
2.1039944 1.1424286 -0.81607914 4.9724501e-39
2.086854 1.1156675 -0.81531823 5.067887e-39
2.07918 1.1003497 -0.8064158 2.4874715e-39
1.8602504 1.1874324 -0.86670834 2.5793196e-39
1.8573222 1.1593049 -0.8649351 3.4069195e-39
1.8515236 1.1770056 -0.8767916 3.1303396e-39
1.8462906 1.1422158 -0.86876118 3.4984047e-39
1.8301873 1.119735 -0.86876118 4.0519358e-39
1.8117836 1.0940428 -0.86876124 1.1700195e-38
1.8007578 1.0696907 -0.86532277 1.6953895e-38
2.0949998 1.2458916 -0.80321485 3.592031e-39
2.1058831 1.207523 -0.79166716 3.2243135e-39
2.0989494 1.2292786 -0.80322856 3.5916807e-39
2.1046209 1.1722788 -0.78617966 3.7753545e-39
2.1034064 1.1891165 -0.79239607 3.1324836e-39
2.1094823 1.1280359 -0.77726287 6.6323274e-39
2.1020889 1.1493561 -0.78993565 4.5125454e-39
2.1006625 1.1166531 -0.77515614 8.8475519e-39
2.0849473 1.1130431 -0.78853106 5.3455557e-39
2.0833268 1.0920233 -0.77612847 1.5680292e-39
2.0689249 1.1047809 -0.78603142 2.579677e-39
1.8562274 1.1903141 -0.84745324 2.3953081e-39
1.8569987 1.1699495 -0.83979183 2.854473e-39
1.840695 1.146224 -0.84197825 3.4969782e-39
1.8292007 1.117691 -0.838934 3.6842351e-39
1.8209623 1.0804009 -0.82425058 1.197641e-38
1.8165946 1.090814 -0.8390674 8.2903844e-39
1.7911621 1.0688165 -0.84060073 1.695425e-38
1.7778804 1.0551559 -0.84963053 1.7232642e-38
1.7636101 1.0610173 -0.84745324 1.7324481e-38
2.1147747 1.202209 -0.75449735 3.5916695e-39
2.1118937 1.2148113 -0.76733345 3.4987536e-39
2.1066055 1.1747831 -0.75823736 3.5913136e-39
2.1064303 1.1351992 -0.75137818 6.5408464e-39
2.1063809 1.1498109 -0.75828731 4.6050913e-39
2.0952535 1.119787 -0.75094497 9.2134519e-39
2.0782583 1.1133822 -0.7592389 6.5462513e-39
2.0548897 1.1079043 -0.75835228 2.4867611e-39
1.8604794 1.1650651 -0.80963922 3.0381412e-39
1.8561682 1.129666 -0.79787302 3.5902416e-39
1.8479865 1.1442286 -0.81733584 3.4044168e-39
1.8463502 1.1059506 -0.80314291 4.326722e-39
1.8221961 1.0852386 -0.80413473 9.3978278e-39
1.8071333 1.0711042 -0.80157095 1.6861698e-38
1.7890184 1.067633 -0.81089127 1.6678741e-38
2.1116965 1.2089061 -0.72958505 3.408339e-39
2.1121635 1.1578116 -0.71827441 3.7753615e-39
2.1094909 1.1768559 -0.7277782 3.4076384e-39
2.1052947 1.1408026 -0.72330254 5.9876713e-39
2.1032012 1.1538266 -0.73912996 4.0548014e-39
2.0897517 1.1191106 -0.72328955 8.5705978e-39
2.0744052 1.1136265 -0.73912996 6.2729336e-39
2.0513053 1.1069082 -0.72547609 3.3150896e-39
1.8692302 1.1549966 -0.76873499 2.8544744e-39
1.8562578 1.167284 -0.79125798 3.1303284e-39
1.8633665 1.128736 -0.77252948 3.2236171e-39
1.8506581 1.0994704 -0.7705192 4.5114762e-39
1.8314824 1.077723 -0.76958495 8.2911229e-39
1.8007901 1.0614686 -0.7734943 1.6217394e-38
2.1190448 1.2264934 -0.71297675 4.2366998e-39
2.1063352 1.2108322 -0.70457745 3.2253883e-39
2.1000605 1.2253942 -0.69960684 3.132506e-39
2.1123686 1.1659033 -0.69322354 3.8679019e-39
2.1048143 1.1890018 -0.69890058 3.4079887e-39
2.1064332 1.1421952 -0.69410098 5.7103697e-39
2.0851636 1.1212226 -0.69497728 8.4755268e-39
2.0666213 1.1097527 -0.68310827 6.4504655e-39
2.0504334 1.1057948 -0.69804299 2.9495441e-39
2.0373464 1.0948249 -0.69764942 2.6704293e-39
1.8710383 1.1535702 -0.74373955 2.9455938e-39
1.8675957 1.1179581 -0.72997749 3.406586e-39
1.8647184 1.1302531 -0.7452448 3.5887982e-39
1.8582181 1.1026829 -0.73492491 4.2356026e-39
1.8426888 1.0976403 -0.74945718 4.6051082e-39
1.8418256 1.0814363 -0.73121434 5.8940617e-39
1.8261945 1.0762612 -0.74572349 7.7368897e-39
1.8067241 1.058832 -0.74103612 1.4371675e-38
1.7890117 1.049787 -0.74031949 1.3541197e-38
1.7675843 1.0569201 -0.76083374 1.5112471e-38
2.0991764 1.2098047 -0.6753152 3.5905905e-39
2.0880275 1.230549 -0.67932522 3.4994781e-39
2.1082311 1.1715049 -0.66302329 3.8678977e-39
2.1047904 1.1926768 -0.67085475 2.9506077e-39
2.1006522 1.1464571 -0.66339409 5.3408641e-39
2.0833621 1.1230308 -0.6617828 7.6475625e-39
2.0566235 1.1022645 -0.6629265 3.8689823e-39
2.0450857 1.0998701 -0.67755288 2.483901e-39
2.0413618 1.0875057 -0.65361404 2.8512528e-39
2.040972 1.0941272 -0.67755288 3.3100828e-39
1.8802971 1.1440154 -0.70146942 2.8519731e-39
1.8716837 1.1552944 -0.7209819 2.8523234e-39
1.8905443 1.1235483 -0.68946362 3.49483e-39
1.8693995 1.1233649 -0.70736068 3.5895213e-39
1.8659241 1.1410624 -0.72456574 3.2207388e-39
1.8715649 1.0905808 -0.70412838 4.3303261e-39
1.8569449 1.0948927 -0.70601153 4.4210798e-39
1.8341064 1.0739877 -0.70760304 6.6309009e-39
1.8155445 1.0578475 -0.70152938 9.7515323e-39
1.8037515 1.0575627 -0.71709824 9.5678291e-39
1.8029336 1.0386046 -0.70524001 9.6452873e-39
1.7841045 1.0501211 -0.72403991 9.0107037e-39
2.0879443 1.2136155 -0.64377582 3.4079873e-39
2.08061 1.2312886 -0.64436394 3.7764111e-39
2.0705605 1.2420069 -0.65703309 3.6849595e-39
2.1047471 1.1767921 -0.63523179 3.869334e-39
2.1030431 1.1973876 -0.63992244 3.225747e-39
2.0971346 1.1474246 -0.63221985 5.2511782e-39
2.0753982 1.1240709 -0.63200188 7.5550054e-39
2.0559504 1.1069298 -0.63610739 5.8976476e-39
2.0365093 1.1060135 -0.63650149 2.4857059e-39
2.0399399 1.0885242 -0.64680773 1.4776692e-39
2.0282729 1.0987692 -0.63948995 2.302381e-39
1.8960814 1.1338004 -0.664464 2.7604893e-39
1.883231 1.1464099 -0.68282616 2.7597564e-39
1.8846892 1.115958 -0.66885781 3.4051314e-39
1.8641337 1.1110668 -0.68642968 3.2260974e-39
1.8699213 1.0893973 -0.66846615 4.8802601e-39
1.8498077 1.0681126 -0.66767186 6.4475858e-39
1.833079 1.0677133 -0.68642968 7.455275e-39
1.8322792 1.0535342 -0.6638003 1.2980874e-38
1.8177929 1.0517997 -0.67815202 1.2959672e-38
1.801051 1.0387524 -0.67484355 1.4697335e-38
2.086709 1.2482162 -0.60565782 3.96298e-39
2.085567 1.2195532 -0.61017478 3.5001927e-39
2.0811338 1.2373132 -0.61763889 4.0522917e-39
2.1008251 1.1799428 -0.60740018 4.0522875e-39
2.096611 1.2019951 -0.6091339 3.2261086e-39
2.1053698 1.1426672 -0.60253638 5.5266917e-39
2.0948143 1.1502376 -0.60154396 5.1589854e-39
2.0715137 1.1271995 -0.60592908 7.2780542e-39
2.0477762 1.1058815 -0.60740751 5.9905663e-39
2.0306969 1.0951452 -0.60256642 3.2211213e-39
2.0112371 1.0972863 -0.61316186 2.8537583e-39
1.983557 1.1011416 -0.61261702 2.5764652e-39
1.9752357 1.104421 -0.62305695 2.9430897e-39
1.9458873 1.1064485 -0.6160202 3.2221891e-39
1.9097767 1.122968 -0.63912439 2.7615655e-39
1.896201 1.1096132 -0.63286966 3.3150938e-39
1.8854059 1.1135974 -0.64754659 3.4051469e-39
1.8729644 1.0823808 -0.63071316 5.524203e-39
1.8692085 1.092487 -0.64414483 4.329966e-39
1.8598924 1.0641319 -0.63071316 6.998617e-39
1.8502156 1.0659723 -0.64414483 7.1858739e-39
1.8279095 1.0500294 -0.63649195 1.1048004e-38
1.8091202 1.0497332 -0.65138137 1.4977546e-38
1.7935283 1.0402161 -0.64773005 1.469951e-38
2.0807247 1.2520226 -0.59283453 4.2363102e-39
2.0823951 1.2228044 -0.58330262 3.5012619e-39
2.0756402 1.2427008 -0.58866566 4.0519288e-39
2.0938611 1.1848197 -0.57708198 4.3270793e-39
2.0901785 1.2066028 -0.57834536 3.4994669e-39
2.0923429 1.1392486 -0.56907326 5.4355779e-39
2.0888934 1.1566945 -0.57398516 4.9742452e-39
2.0813384 1.1241814 -0.56840402 6.8167159e-39
2.0690122 1.1228579 -0.57660496 7.1862201e-39
2.0459995 1.1083244 -0.57531005 7.9266648e-39
2.0246506 1.0954123 -0.57841563 4.7909442e-39
2.0005465 1.095005 -0.58082891 3.2225605e-39
1.9833966 1.0951489 -0.58149499 2.9448848e-39
1.965728 1.0951334 -0.58750969 3.4959048e-39
1.941411 1.1001618 -0.60070521 3.7724692e-39
1.9242642 1.091611 -0.59128481 3.9590073e-39
1.895752 1.1021787 -0.61575276 3.9572192e-39
1.8746403 1.0828629 -0.61081678 5.1582805e-39
1.8527677 1.0611862 -0.61163455 7.8301629e-39
1.8240694 1.0445818 -0.60990512 6.6355812e-39
1.8096948 1.0312718 -0.60836685 5.2450784e-39
1.7851614 1.0317532 -0.61633307 9.8419105e-39
2.0944052 1.2051101 -0.55492193 3.0428047e-39
2.075458 1.2275687 -0.55608666 3.5012689e-39
2.0683093 1.2451888 -0.56315231 3.6845882e-39
2.0875287 1.1885531 -0.54711699 3.9608121e-39
2.0782928 1.2116574 -0.54402548 3.4090663e-39
2.0882959 1.1463976 -0.5400719 5.5259813e-39
2.0797925 1.1592079 -0.54396498 4.9731648e-39
2.0776398 1.1309592 -0.54134673 6.3561063e-39
2.0633655 1.1295259 -0.54363495 6.9096262e-39
2.0414958 1.1120204 -0.54425156 7.8333901e-39
2.0187025 1.097596 -0.54581171 6.4493893e-39
2.0001297 1.0929697 -0.55097777 6.0809725e-39
1.9777277 1.0891696 -0.55501431 4.974639e-39
1.9580523 1.0862665 -0.56564248 3.5938387e-39
1.9421006 1.078629 -0.55774289 3.777144e-39
1.9228493 1.0807517 -0.57445312 4.5121867e-39
1.8964269 1.0702597 -0.56901622 5.710727e-39
1.8774852 1.0750842 -0.58922976 5.7092893e-39
1.8766431 1.0537356 -0.56262445 7.2766248e-39
1.856285 1.0587946 -0.58318496 7.9219956e-39
1.8309646 1.0457355 -0.58088946 9.4968786e-39
1.8149099 1.0418844 -0.58704185 5.0661087e-39
1.8036178 1.0342944 -0.58229554 2.9484539e-39
1.7711507 1.0350995 -0.58853608 6.2581611e-39
1.7651532 1.0299972 -0.5811255 8.3797242e-39
2.0690069 1.2345395 -0.52761978 3.5934744e-39
2.064528 1.2464274 -0.53954554 3.227203e-39
2.0807288 1.1923759 -0.5184176 3.9590143e-39
2.0731468 1.2150623 -0.52739662 3.2261072e-39
2.0808449 1.1480918 -0.51266408 4.4225162e-39
2.0759816 1.1674397 -0.51617455 3.9608135e-39
2.0694873 1.1303772 -0.51185256 5.9883985e-39
2.0386229 1.1147726 -0.51637137 7.1858613e-39
2.0111847 1.0971299 -0.51977301 6.356465e-39
1.9741641 1.0869818 -0.52660233 6.4486676e-39
1.9510268 1.0743915 -0.52613431 6.0820501e-39
1.9377283 1.0703319 -0.53745776 3.8661166e-39
1.9226785 1.0636389 -0.52711344 4.6969114e-39
1.8962896 1.0660819 -0.54347253 5.5266847e-39
1.8701787 1.0520107 -0.54268426 7.4617364e-39
1.8464934 1.0544027 -0.56216133 9.0301299e-39
1.8334938 1.0391418 -0.55217665 8.5716951e-39
1.8143162 1.0290654 -0.54992855 4.4192848e-39
1.7927159 1.025378 -0.55423808 4.8752435e-39
2.0633357 1.2336564 -0.50284004 2.9488252e-39
2.051141 1.2500881 -0.50657982 3.3168847e-39
2.0370498 1.2630321 -0.50338358 3.5005697e-39
2.0755432 1.1978263 -0.49242535 3.4076454e-39
2.0730255 1.2188898 -0.49624258 3.1321515e-39
2.0728528 1.1489596 -0.48541552 4.1452048e-39
2.0688128 1.1680255 -0.48925072 3.9597444e-39
2.0663753 1.1347579 -0.48562482 4.9742396e-39
2.0456052 1.1321439 -0.48151946 4.8834859e-39
2.0363369 1.1172733 -0.48840907 5.8036457e-39
2.0091662 1.0995572 -0.49156594 5.8947764e-39
1.9854397 1.0804826 -0.48526114 6.4475928e-39
1.9701401 1.0875967 -0.50265747 6.5408689e-39
1.9721832 1.0650225 -0.48572394 7.5575417e-39
1.9500383 1.0661949 -0.50106907 5.7121872e-39
1.9294749 1.0496712 -0.49187535 5.1597211e-39
1.9184167 1.0608323 -0.50894296 4.6972968e-39
1.890218 1.0625621 -0.51726705 5.2494028e-39
1.8972275 1.041972 -0.49569938 7.6490031e-39
1.8692247 1.0500412 -0.51739663 7.6472136e-39
1.8522646 1.037697 -0.50711882 1.0875148e-38
1.8332376 1.0358754 -0.5236432 8.8479134e-39
1.8044118 1.026244 -0.52352893 5.1561492e-39
2.0744972 1.2193704 -0.45963293 3.1328409e-39
2.0567455 1.238248 -0.46716958 3.0413642e-39
2.0450008 1.2558029 -0.47617057 3.2246806e-39
2.0843356 1.1784863 -0.44679821 3.1292676e-39
2.0742364 1.2009863 -0.46185252 3.4072824e-39
2.0670695 1.2231561 -0.46773463 3.226117e-39
2.0755908 1.1606812 -0.44742668 2.9473903e-39
2.0662065 1.1685086 -0.46830496 4.0515897e-39
2.0602963 1.1365801 -0.4516477 2.9473805e-39
2.0455194 1.1364801 -0.4714219 4.6980072e-39
2.0373311 1.1130828 -0.45434257 2.7640822e-39
2.0312796 1.1204206 -0.46276683 3.5005613e-39
2.0246775 1.0967684 -0.45128316 2.3002398e-39
2.012702 1.0958654 -0.45964149 2.944526e-39
1.9865528 1.081347 -0.46104321 3.2218262e-39
1.9631503 1.0616351 -0.46482739 4.2381417e-39
1.9451513 1.05849 -0.4551912 3.0378189e-39
1.9249098 1.0488074 -0.46834382 5.0660919e-39
1.8911825 1.0408938 -0.47392094 7.7393994e-39
1.8668851 1.0363472 -0.47875273 9.8599045e-39
1.8425986 1.0330487 -0.48118225 8.8479148e-39
1.8262669 1.0316433 -0.50153911 7.4621119e-39
1.8235651 1.0167102 -0.47861874 1.0474719e-38
1.806819 1.0208033 -0.48868769 1.0385386e-38
1.7894464 1.0129162 -0.47570819 1.4881732e-38
2.0708556 1.2263012 -0.4324075 1.4754846e-39
2.0685053 1.2468648 -0.43462509 2.2098253e-39
2.0793371 1.1811481 -0.43298998 1.6584353e-39
2.0706856 1.2036083 -0.42865244 1.2903759e-39
2.0677004 1.163234 -0.4287352 1.3807849e-39
2.0581603 1.178503 -0.4212096 8.3013341e-40
2.0510378 1.14276 -0.42509681 1.0138002e-39
2.0457933 1.157658 -0.42429987 1.1063588e-39
2.0338879 1.1201118 -0.4202179 8.3156414e-40
2.0238948 1.1232677 -0.43295494 8.3084668e-40
2.0178418 1.0918448 -0.42072728 1.1067357e-39
2.0092459 1.1011907 -0.43664137 1.2896766e-39
2.0016108 1.0757537 -0.41923729 1.3822366e-39
1.980656 1.0752363 -0.43179685 1.9332496e-39
1.9543077 1.0624688 -0.43201903 1.7524625e-39
1.9377675 1.045012 -0.42219797 1.8457441e-39
1.922079 1.0494268 -0.43890136 2.3060062e-39
1.9064718 1.0349902 -0.43027809 2.4921953e-39
1.884791 1.0425882 -0.44759735 4.145586e-39
1.860269 1.0410863 -0.44708452 5.5231282e-39
1.8401785 1.0385401 -0.4517971 7.9292011e-39
1.8143883 1.0356044 -0.45498756 6.075223e-39
1.7955022 1.0286813 -0.45914227 9.2808418e-39
2.0670712 1.2333343 -0.4045015 9.2197171e-40
2.0622015 1.2519622 -0.40915951 1.1049196e-39
2.0696802 1.1873571 -0.38837251 9.2125285e-40
2.0652683 1.2074873 -0.40299302 1.0127254e-39
2.0645242 1.1674224 -0.3926793 1.01381e-39
2.0604906 1.1856034 -0.40747058 1.1956775e-39
2.0519223 1.1407853 -0.39272949 1.4740609e-39
2.0767915 1.0784587 -0.3670181 3.2254415e-39
2.0544057 1.1029986 -0.37719691 2.7644354e-39
2.0402079 1.1135579 -0.39636326 2.1187114e-39
2.0774117 1.0474281 -0.36429769 2.9481344e-39
2.0565453 1.0585674 -0.37482861 2.585093e-39
2.0428236 1.0825833 -0.38012239 2.6744174e-39
2.0212474 1.0888573 -0.39809459 2.9474155e-39
2.0919166 0.9925983 -0.34760505 4.4214554e-39
2.0671313 1.0250314 -0.36444888 2.6708174e-39
2.030921 1.0340086 -0.37620363 2.2155832e-39
2.017242 1.0607845 -0.38877094 3.8704256e-39
2.0015287 1.0669994 -0.40087038 2.6711874e-39
2.0874624 0.95766973 -0.34637114 3.8708376e-39
2.0849605 0.97530413 -0.34670886 5.4410079e-39
1.9720536 1.046445 -0.38545412 2.766613e-39
1.960364 1.0577164 -0.40608731 2.764455e-39
1.939086 1.038294 -0.40317315 3.8722515e-39
2.0799818 0.89926243 -0.33854398 3.5927723e-39
1.9224805 1.0265633 -0.40459538 3.5971121e-39
1.9001386 1.027589 -0.41228351 3.8729858e-39
1.8625872 1.0429015 -0.40611017 4.5194216e-39
1.8620346 1.0344093 -0.42360586 4.9764579e-39
1.8326173 1.037034 -0.42022088 4.6076571e-39
1.9644607 0.8952651 -0.36384246 1.0378521e-38
1.8133838 1.0273614 -0.42227593 3.4047839e-39
2.0608273 1.2328261 -0.37485179 1.7538806e-39
2.0487132 1.2563697 -0.38228393 2.0283277e-39
2.0359993 1.2757019 -0.38296381 2.8606051e-39
2.0970166 1.1726927 -0.34737015 3.686742e-39
2.0703335 1.1915773 -0.36365744 2.3041929e-39
2.0620894 1.2119735 -0.37311465 2.1194457e-39
2.1164012 1.118641 -0.33832306 2.489261e-39
2.1041052 1.1307666 -0.34159011 2.9488294e-39
2.0909247 1.1545429 -0.35315603 2.3960144e-39
2.06703 1.1708807 -0.37045085 1.1989299e-39
2.1064925 1.0995256 -0.33899319 2.766229e-39
2.0979662 1.1136967 -0.35415295 2.9495469e-39
2.0648632 1.1317716 -0.3685151 1.7524498e-39
2.0635939 1.1510643 -0.3710044 9.2415774e-40
2.1028152 1.0540485 -0.3332341 2.1151031e-39
2.0982232 1.0716881 -0.34153938 1.7499359e-39
2.0892239 1.0874201 -0.35925493 2.7676808e-39
2.0977683 1.0346299 -0.33462843 4.143044e-39
2.0858169 1.0477405 -0.35402024 4.5140083e-39
2.1058867 0.98520494 -0.32647493 5.5234771e-39
2.0942426 1.0093676 -0.33504334 5.4319892e-39
2.0757315 1.0230855 -0.35387805 3.5020242e-39
2.1004744 0.95046914 -0.3114424 6.6323302e-39
2.0966628 0.96349454 -0.32556966 4.4232519e-39
2.0936384 0.92763019 -0.32055476 6.8138656e-39
2.0910501 0.94402671 -0.33238789 5.8050835e-39
1.9317186 1.0423266 -0.3870514 5.9952551e-39
2.0802948 0.90811861 -0.32107353 5.4341738e-39
2.065877 0.915609 -0.31714913 7.0947405e-39
2.0350761 0.89037132 -0.32712358 5.334435e-39
1.8251081 1.0441302 -0.40368786 5.1597505e-39
2.0195947 0.87866521 -0.32275525 1.1219101e-38
2.0040107 0.8754735 -0.33131161 1.1392337e-38
1.9719617 0.89338589 -0.35567033 9.6477928e-39
1.8110749 1.0328903 -0.40244406 2.849469e-39
1.9862025 0.86111617 -0.33161747 1.1853315e-38
1.9668188 0.88900781 -0.34932247 1.0566872e-38
1.9695537 0.84794998 -0.32445368 1.2864605e-38
2.0971427 1.2043 -0.31632501 2.3949312e-39
2.0882359 1.2149253 -0.32835495 2.0297682e-39
2.0593653 1.2363685 -0.34753641 2.9499196e-39
2.0386932 1.2661071 -0.35698095 4.0566231e-39
2.0287297 1.2809091 -0.34816787 4.4261259e-39
2.1091871 1.1676207 -0.31433135 2.8580645e-39
2.1007636 1.1795168 -0.32869408 3.3179735e-39
2.0831389 1.2032733 -0.34131303 2.3949578e-39
2.0603487 1.2191138 -0.35117558 3.502013e-39
2.1038997 1.1397121 -0.31933004 3.5038053e-39
2.0948954 1.1566659 -0.33679876 2.3996115e-39
2.1051569 1.101415 -0.31323934 2.7651612e-39
2.1011317 1.1196072 -0.32398981 2.9484679e-39
2.1083913 1.0649915 -0.30541459 1.5644685e-39
2.1025014 1.0795963 -0.31954885 1.014889e-39
2.107208 1.0129296 -0.29566914 6.7216602e-39
2.0992968 1.0341541 -0.30519685 5.5241848e-39
2.1024723 0.99340856 -0.30141795 7.1801104e-39
2.0926912 1.0093516 -0.30124474 7.4570518e-39
2.0995288 0.94794548 -0.29809877 1.0501675e-38
2.0929003 0.96778369 -0.29575062 8.8410639e-39
2.0867267 0.93145549 -0.30300209 1.0871583e-38
2.0675025 0.94474721 -0.29543704 1.6313229e-38
2.0491419 0.94987786 -0.29101759 1.8430507e-38
2.0740583 0.91805136 -0.30133653 1.0508168e-38
2.0543199 0.91960716 -0.29506272 1.4566945e-38
2.0330687 0.90094531 -0.30766094 4.9771641e-39
2.0131652 0.90587723 -0.30274117 1.1154986e-38
2.0203853 0.88357198 -0.31413692 7.9094302e-39
1.9933316 0.88611245 -0.31118765 1.1509739e-38
1.9753026 0.905182 -0.30335104 1.392376e-38
1.9512876 0.91749418 -0.30796024 1.7143002e-38
1.9760779 0.86915815 -0.31511456 1.3696884e-38
1.9488344 0.88176537 -0.30884287 1.5269977e-38
1.9656199 0.85282874 -0.31903398 1.359714e-38
2.1204882 1.2307545 -0.29005373 4.2363355e-39
2.1054974 1.2387843 -0.30478904 5.7197136e-39
2.1198444 1.1959138 -0.29062909 4.1509487e-39
2.1117373 1.212981 -0.29899278 3.3215468e-39
2.0961349 1.2250185 -0.31440058 4.7923735e-39
2.032594 1.2737715 -0.33237171 4.0548225e-39
2.0240016 1.2784035 -0.33888891 3.8697291e-39
2.1268826 1.1570487 -0.28444874 3.8729465e-39
2.1189806 1.1750809 -0.29205808 3.1332249e-39
2.1094346 1.1903808 -0.30639586 2.9423793e-39
2.1160173 1.1351113 -0.28622848 3.1346612e-39
2.1157188 1.149875 -0.30154839 4.0511875e-39
2.1043344 1.1060299 -0.28503609 3.5012899e-39
2.1046009 1.070147 -0.27890083 1.3829555e-39
2.0898504 1.0410811 -0.27855974 5.064636e-39
2.0861297 0.98893654 -0.28335729 9.9427479e-39
2.077178 1.0121934 -0.27982545 8.7481424e-39
2.0482199 1.036263 -0.27314818 9.0265271e-39
2.0161271 1.0392157 -0.27743044 9.7633537e-39
2.0814347 0.97371149 -0.27670756 1.0683539e-38
2.0763206 0.99328148 -0.27864176 1.0769625e-38
2.0616016 0.95264816 -0.27766466 1.3079901e-38
2.0513401 0.95840788 -0.27864173 1.1787361e-38
1.9526668 1.0397923 -0.29232842 1.1511125e-38
2.0483184 0.93104851 -0.28286648 2.3417277e-38
2.0041966 0.92047846 -0.2877745 2.2497145e-38
1.9749274 0.92834747 -0.28583109 1.4651565e-38
1.9605588 0.92641985 -0.28090444 1.2898369e-38
1.9439049 0.91901338 -0.29061842 1.6864254e-38
1.8584337 0.98081768 -0.31669945 2.2128383e-38
1.8467753 1.0001166 -0.30941078 1.676736e-38
1.94346 0.89410281 -0.30004397 1.5575692e-38
1.9284426 0.90544534 -0.28977987 1.5939069e-38
1.8618724 0.92156065 -0.29311091 1.2991689e-38
2.113122 1.2669616 -0.26505983 8.3041185e-39
2.1148183 1.2386624 -0.27111572 3.9647778e-39
2.1098323 1.2609081 -0.2683706 3.8690005e-39
2.1339869 1.1816698 -0.2511318 2.9459778e-39
2.122576 1.1958343 -0.26292598 3.8715088e-39
2.1132574 1.2146589 -0.27151063 3.4126746e-39
2.1228619 1.1606361 -0.25509316 3.8711445e-39
2.1180959 1.1815517 -0.26742145 4.5161551e-39
2.1132665 1.1364888 -0.25509086 3.962624e-39
2.0993631 1.1102297 -0.25474927 3.4116096e-39
2.0983262 1.0731767 -0.25761095 3.0428439e-39
2.0836678 1.0871532 -0.24827079 5.1600966e-39
2.0839298 1.0514289 -0.26134986 3.221843e-39
2.0667729 1.0654467 -0.25365642 4.42254e-39
2.0318916 1.0748934 -0.2544902 5.9909405e-39
2.052628 1.0452187 -0.26680031 9.2108904e-39
2.0195782 1.0582758 -0.26301497 7.2766318e-39
1.999868 1.0586981 -0.25818557 6.9096444e-39
1.9817338 1.0507175 -0.26912487 1.0223973e-38
1.9599293 1.0487169 -0.27499214 1.1788785e-38
1.9434177 1.0374042 -0.27601472 1.123419e-38
1.8998653 1.0291961 -0.28055197 8.2875356e-39
1.8779241 1.0230453 -0.28266767 1.031583e-38
1.8532315 1.0217779 -0.29179806 9.2098492e-39
1.9021066 0.94377184 -0.2763111 1.1695907e-38
1.8788069 0.96255863 -0.2738688 1.6404687e-38
1.8549956 0.97644091 -0.28025165 1.538551e-38
1.8393986 1.0029318 -0.29334536 1.1326754e-38
1.9170555 0.9179641 -0.27895984 1.3082438e-38
1.8906928 0.92686903 -0.27850643 1.3637048e-38
1.8691435 0.94667268 -0.27068806 1.4923837e-38
1.8434525 0.94351244 -0.26947039 1.5662816e-38
1.8518399 0.92902482 -0.28463688 1.4469699e-38
1.8303624 0.92808127 -0.28311682 9.1183948e-39
1.8188294 0.91429436 -0.29796216 5.6189154e-39
2.1256194 1.2681308 -0.24013622 4.5183145e-39
2.1234815 1.2232995 -0.23003553 4.2399326e-39
2.117537 1.245155 -0.24206111 3.2257849e-39
2.1353803 1.1891738 -0.22849287 3.8711571e-39
2.1301227 1.2096893 -0.23453343 3.5034479e-39
2.1233492 1.1660337 -0.22880565 3.8704354e-39
2.102221 1.145777 -0.22715582 5.06898e-39
2.0854814 1.1430328 -0.22140044 5.7082706e-39
2.0865688 1.1211039 -0.23837212 4.7945469e-39
2.0667787 1.1298499 -0.23228548 4.7931232e-39
2.0441375 1.1337254 -0.22821698 4.6144786e-39
2.0530083 1.1089252 -0.24417439 5.0704065e-39
2.0330894 1.1156882 -0.23413965 6.453341e-39
2.0209515 1.0823182 -0.23520015 7.4657132e-39
2.019639 1.094733 -0.23907517 6.265368e-39
2.0118647 1.0654823 -0.23656823 7.4664405e-39
1.9952568 1.0611737 -0.23798938 5.258762e-39
1.9958714 1.0508814 -0.22709647 4.7845248e-39
1.9718554 1.0499418 -0.24107002 7.739789e-39
1.9557793 1.0516896 -0.25512752 1.0320898e-38
1.9371604 1.0405362 -0.2482869 9.5840477e-39
1.8934199 1.0335498 -0.25364593 7.5600585e-39
1.8717911 1.0259978 -0.25657666 2.6740796e-39
1.8498069 1.0240633 -0.26473811 2.7633816e-39
1.8443874 0.98223484 -0.26905498 1.8333954e-38
1.8289926 1.0073029 -0.27247524 1.0863617e-38
1.810459 1.0169443 -0.26135901 5.7071691e-39
1.8413874 0.96166134 -0.26279232 1.6033778e-38
1.8144215 0.98488939 -0.25893062 1.3821434e-38
1.800617 1.0023822 -0.25769842 7.4563568e-39
1.8245903 0.94668424 -0.26488882 1.4089802e-38
1.7915883 0.96887732 -0.26086411 1.2158733e-38
1.7578384 0.98039103 -0.26059392 1.0320584e-38
2.1157677 1.273049 -0.21544194 3.9644135e-39
2.1121292 1.2895379 -0.21076326 2.307081e-39
2.1401138 1.2150939 -0.19477651 4.5208341e-39
2.1260118 1.2302938 -0.20545211 3.5034564e-39
2.1206012 1.2497557 -0.2102688 3.7796789e-39
2.1323974 1.1957972 -0.1992988 4.3317737e-39
2.1178505 1.1726457 -0.20019528 4.5139929e-39
2.0968013 1.1715693 -0.19254717 5.1650951e-39
2.1018767 1.1553789 -0.20913115 6.1727898e-39
2.0789638 1.161816 -0.20341901 4.9764144e-39
2.0595567 1.168189 -0.19889992 4.2381347e-39
2.0581133 1.1442105 -0.21250989 5.6250334e-39
2.0435114 1.1442055 -0.20851557 4.7949042e-39
2.0357511 1.1175903 -0.20209098 3.6856854e-39
2.0287805 1.1195848 -0.21167918 3.687133e-39
2.0178995 1.0908668 -0.20617434 5.898026e-39
2.0194731 1.1031263 -0.21953042 3.68677e-39
2.0039153 1.0663805 -0.20737728 8.297276e-39
1.9945171 1.0518516 -0.22061354 5.5249457e-39
1.970554 1.0518253 -0.21116152 7.6493884e-39
1.9309423 1.0421063 -0.21836282 9.863164e-39
1.9113635 1.0340627 -0.21770084 1.0601811e-38
1.8902467 1.0324237 -0.22750737 1.0877319e-38
1.8663111 1.031364 -0.22708243 8.9426664e-39
1.8461195 1.0288771 -0.23357303 5.8083723e-39
1.8259023 1.0233978 -0.24587056 4.9753733e-39
1.8054129 1.0250793 -0.2403792 5.528533e-39
1.7830464 1.0248992 -0.23948178 7.1898116e-39
1.784737 0.99744558 -0.25179574 8.1121799e-39
1.7673796 1.0138528 -0.24387984 8.2043517e-39
1.7423453 0.99279737 -0.25062302 1.3001777e-38
1.7200727 0.99401379 -0.25087681 1.2170925e-38
1.7278233 0.97950375 -0.26006147 1.5116888e-38
1.6932571 0.99941146 -0.25024143 1.0139436e-38
2.1217897 1.2953845 -0.18789816 2.8584387e-39
2.1161284 1.2778842 -0.18286112 3.8722263e-39
2.1105399 1.2940401 -0.19553371 6.0852647e-39
2.1369991 1.2198857 -0.17044985 4.3314122e-39
2.1272111 1.2404026 -0.17696521 4.1484558e-39
2.1159585 1.2598716 -0.17961311 4.8849489e-39
2.1294179 1.199774 -0.17100054 4.7927378e-39
2.1117997 1.1811863 -0.17687596 4.7931176e-39
2.0917959 1.1860383 -0.17405882 3.5927751e-39
2.0697808 1.1939627 -0.17284025 5.7215226e-39
2.0482938 1.1803814 -0.18155922 4.0541106e-39
2.0437505 1.14009 -0.17641173 2.8591533e-39
2.0429718 1.157119 -0.18357371 2.7673234e-39
2.0329835 1.1186706 -0.1730309 3.5045241e-39
2.0187423 1.1174402 -0.18478422 4.0566301e-39
2.0183678 1.0927528 -0.17543194 5.8065492e-39
2.005209 1.0677608 -0.17419229 8.7604107e-39
1.9843589 1.059128 -0.17199162 4.421426e-39
1.9621387 1.0557603 -0.18315722 7.6504576e-39
1.942084 1.0437298 -0.18073669 1.0231948e-38
1.929556 1.0428418 -0.19222294 1.0324862e-38
1.9055108 1.0366594 -0.19043322 1.0602527e-38
1.8829206 1.0341234 -0.19904533 1.0602165e-38
1.8608601 1.0352685 -0.20099139 1.0236271e-38
1.8367475 1.0318613 -0.20354703 9.4022026e-39
1.8186736 1.0285759 -0.21127012 6.450139e-39
1.8000696 1.0249485 -0.21114583 6.634882e-39
1.7801059 1.0270056 -0.22540703 6.7270244e-39
1.7585586 1.0196024 -0.2213048 9.5869372e-39
1.7298157 1.0234182 -0.21506794 1.0050771e-38
1.7389956 1.0076677 -0.23158497 1.1989414e-38
1.7124968 1.0124561 -0.22644572 1.2907412e-38
1.6931648 1.0040797 -0.23937081 1.1344102e-38
1.6688762 1.0034178 -0.23635554 1.1709249e-38
2.1166224 1.2773294 -0.15353866 4.6101472e-39
2.1332245 1.2225376 -0.13909976 4.6072606e-39
2.1212983 1.250653 -0.14775528 3.7800236e-39
2.1147447 1.2610459 -0.16306789 1.9343454e-39
2.1225004 1.2033291 -0.14085674 5.255504e-39
2.1015053 1.2007732 -0.14125249 4.0548393e-39
2.0815945 1.1957268 -0.14533147 2.8548584e-39
2.0646188 1.1949022 -0.15438132 3.1307292e-39
2.0529182 1.1705744 -0.13633558 2.4860534e-39
2.0478983 1.1832596 -0.15274356 3.0395957e-39
2.0551543 1.1260506 -0.12778807 6.0841815e-39
2.0445793 1.148342 -0.14908646 3.5942044e-39
2.0468974 1.1117082 -0.13416794 4.3317779e-39
2.036639 1.117156 -0.14812917 4.3299674e-39
2.0237141 1.0769973 -0.13948448 7.6490185e-39
2.0212836 1.0923271 -0.14469741 5.9891412e-39
2.0006721 1.068958 -0.14569373 7.7419372e-39
1.9796183 1.0625237 -0.14930141 5.9956166e-39
1.9631721 1.0551965 -0.15003809 6.1753332e-39
1.9402294 1.0436488 -0.15307747 1.0046838e-38
1.915814 1.0382687 -0.15911527 1.115641e-38
1.9021006 1.0364771 -0.15996927 1.0414178e-38
1.875127 1.0392187 -0.16887175 9.8656765e-39
1.8587749 1.0347054 -0.16804965 8.1110939e-39
1.832978 1.0320776 -0.17677039 8.4766226e-39
1.8346236 1.0151621 -0.16355643 8.0210506e-39
1.8098291 1.0204657 -0.18127197 7.6500989e-39
1.7926333 1.0120734 -0.16628949 7.2017324e-39
1.7828828 1.016724 -0.18383239 9.677321e-39
1.7501124 1.0192971 -0.1881704 1.1524812e-38
1.7283194 1.02449 -0.20790616 1.179923e-38
1.7314681 1.0175805 -0.18531063 9.0330418e-39
1.7007871 1.0243274 -0.19831742 1.1798551e-38
1.6838808 1.0246423 -0.21162066 1.207802e-38
1.6697607 1.0220858 -0.20890436 1.0507107e-38
1.6396284 1.0206482 -0.21125801 1.373791e-38
1.6304207 1.0104408 -0.21369788 1.3641779e-38
1.6043496 1.012876 -0.21369344 1.4288595e-38
2.1163902 1.2691975 -0.11364536 5.2544152e-39
2.1121893 1.2821037 -0.12581323 4.5179432e-39
2.1307294 1.226812 -0.11141792 4.5165181e-39
2.1181972 1.2560784 -0.11784089 4.1480831e-39
2.1135507 1.2084652 -0.11185956 3.1335808e-39
2.097111 1.2059571 -0.11560515 3.595645e-39
2.0963249 1.1924421 -0.10758527 2.2105553e-39
2.0806017 1.1914549 -0.11920011 2.3034698e-39
2.0532441 1.1778748 -0.11814532 3.2239814e-39
2.0524187 1.1898506 -0.12723592 2.3052803e-39
2.0532098 1.1307583 -0.1109685 4.333203e-39
2.0481586 1.1530808 -0.11823184 3.8711431e-39
2.0425613 1.1115963 -0.1110616 4.1477328e-39
2.0315573 1.1097262 -0.12629153 4.6087165e-39
2.0234804 1.0880842 -0.11181275 6.3604251e-39
2.0204387 1.0932606 -0.12842882 6.8196208e-39
2.0115452 1.0722095 -0.11183847 8.0185367e-39
1.9958377 1.0695099 -0.11678885 7.650808e-39
1.9686373 1.0607836 -0.1185075 5.0686423e-39
1.9543217 1.0549166 -0.12267543 6.0813355e-39
1.9367185 1.0428355 -0.12449909 9.6812754e-39
1.9116639 1.0412415 -0.13925065 7.4678965e-39
1.8924288 1.0393111 -0.12869273 7.9295683e-39
1.8740987 1.0412552 -0.14493361 8.013862e-39
1.8461267 1.0323631 -0.14108148 6.543394e-39
1.8294934 1.028373 -0.15756862 7.5535929e-39
1.8266221 1.0109253 -0.14264724 6.7270734e-39
1.8212661 1.0168873 -0.15756862 9.0402178e-39
1.7695175 1.01448 -0.14663857 1.0139719e-38
1.7441615 1.0179117 -0.16123545 8.945895e-39
1.724122 1.0183218 -0.1603937 3.7808013e-39
1.7033172 1.0173846 -0.16902173 5.9880594e-39
1.6743312 1.0129683 -0.15965292 1.447765e-38
1.6637475 1.0188141 -0.17921714 1.1428343e-38
1.6342738 1.0203669 -0.18893015 1.7796321e-38
1.628633 1.0119951 -0.17972642 1.7429343e-38
1.6012247 1.0151145 -0.19873546 2.1296124e-38
2.1135521 1.2670218 -0.085490957 5.901221e-39
2.108408 1.2809515 -0.097918868 4.1513285e-39
2.1264322 1.232111 -0.083157405 4.2392067e-39
2.1172347 1.2565552 -0.091394447 4.0566161e-39
2.1045561 1.214847 -0.082851596 3.5956282e-39
2.0888388 1.1895764 -0.082177468 2.3038398e-39
2.0704341 1.1673084 -0.075402781 3.042467e-39
2.0561926 1.1739906 -0.093420081 3.0417607e-39
2.0557542 1.137193 -0.081427015 4.7023457e-39
2.0451031 1.1593295 -0.096918039 4.0544609e-39
2.0427938 1.1127294 -0.082712315 4.8860307e-39
2.0208149 1.0908773 -0.08294946 6.6359456e-39
2.0017114 1.0711509 -0.08312916 7.5597011e-39
1.9852568 1.0654975 -0.09009137 5.4323717e-39
1.9646773 1.0584227 -0.088372625 5.0689828e-39
1.9490467 1.0570405 -0.10117627 5.7050294e-39
1.9506481 1.0421073 -0.10392097 7.382521e-39
1.9344339 1.0448003 -0.095242187 8.204709e-39
1.9071178 1.0392932 -0.089108229 6.8196306e-39
1.888339 1.0365216 -0.10088522 6.7288629e-39
1.8644257 1.0396346 -0.11800674 6.3564678e-39
1.8716216 1.026195 -0.10024554 7.831986e-39
1.8431594 1.0286967 -0.11260503 6.9121863e-39
1.8251078 1.0134447 -0.11156625 8.1125092e-39
1.8044622 1.0115449 -0.11651725 5.0805141e-39
1.782021 1.0122267 -0.11763991 3.6828226e-39
1.7613757 1.0144032 -0.12105637 4.4236358e-39
1.7360669 1.0198386 -0.13447636 7.8366636e-39
1.7191789 1.0136509 -0.13034099 7.8380985e-39
1.6999135 1.0139116 -0.14201781 8.2886524e-39
1.7024479 1.0022014 -0.12835762 1.7243091e-38
1.6806619 1.00666 -0.14576231 1.973384e-38
1.6488729 1.0103292 -0.15741743 2.0569711e-38
2.1080225 1.2743635 -0.063990414 4.7941966e-39
2.1029258 1.2819233 -0.078374058 3.680282e-39
2.115067 1.2396744 -0.052097674 3.6874777e-39
2.1069241 1.2631274 -0.05727819 5.8050891e-39
2.1040394 1.2165656 -0.052170418 4.1480957e-39
2.0909882 1.187673 -0.050886896 3.133592e-39
2.0699353 1.1648868 -0.050385289 3.8700599e-39
2.0527852 1.1411073 -0.05152202 4.4246826e-39
2.0378656 1.1166902 -0.050916929 5.5303127e-39
2.0149562 1.0955564 -0.051645022 7.3720645e-39
1.9976312 1.0781249 -0.054419797 7.9281235e-39
1.979996 1.0714439 -0.057966374 6.5433912e-39
1.9554188 1.0613174 -0.059858244 5.1633336e-39
1.9389648 1.0477316 -0.05421856 7.5586165e-39
1.9280895 1.0453238 -0.068127096 7.00617e-39
1.9040769 1.0422727 -0.062692903 7.651538e-39
1.8814517 1.0366707 -0.072783865 7.9266984e-39
1.8631864 1.0220588 -0.069540985 9.5858596e-39
1.8392692 1.0254854 -0.086560033 8.2983634e-39
1.8176923 1.0163897 -0.083727509 7.8377468e-39
1.7776116 1.0118433 -0.089828826 5.994546e-39
1.7501374 1.0121747 -0.097921163 3.5920829e-39
1.7398735 1.0040097 -0.083953917 1.2343088e-38
1.7185161 1.0109903 -0.10391802 1.234991e-38
1.6934998 1.0015787 -0.10146317 1.6045316e-38
2.103271 1.2739185 -0.034662459 4.6105396e-39
2.1090589 1.2386531 -0.023682989 3.5952862e-39
2.0966549 1.2669517 -0.030736709 4.8856649e-39
2.0959258 1.2197014 -0.022456067 4.424684e-39
2.0951939 1.183628 -0.0064638811 2.3038272e-39
2.0878377 1.1911961 -0.021573523 3.8711557e-39
2.0792565 1.1552351 -0.012735893 4.2388452e-39
2.0726085 1.1660829 -0.026000582 2.948835e-39
2.0643125 1.1422834 -0.011499234 4.4239497e-39
2.0493031 1.1391375 -0.022803493 3.8718787e-39
2.030786 1.1211221 -0.021693433 5.7154354e-39
2.0108461 1.0976456 -0.023061773 7.9270529e-39
1.9885166 1.0780704 -0.025710488 7.2841946e-39
1.9779111 1.073506 -0.038663112 3.7779021e-39
1.9747617 1.0607451 -0.02145726 7.286696e-39
1.9515713 1.0617237 -0.032928836 5.5296106e-39
1.9347955 1.0503751 -0.035039958 7.7426603e-39
1.9201424 1.0463027 -0.034072723 8.2958368e-39
1.8997532 1.0419887 -0.039614998 9.4032606e-39
1.8751873 1.0371011 -0.043287482 1.0138663e-38
1.8547137 1.027611 -0.046229683 1.1247179e-38
1.8327655 1.0281147 -0.043957841 1.1705621e-38
1.8114309 1.0178093 -0.053485893 8.5731496e-39
1.7663682 1.0131607 -0.063062355 7.7466175e-39
1.7550269 1.0038557 -0.065948166 6.540178e-39
1.7303903 1.0027174 -0.064249448 1.4748816e-38
1.7153804 1.0018663 -0.077622011 2.15799e-38
1.6924357 1.0011251 -0.072608784 1.7517206e-38
2.1015024 1.2430768 -0.00018686696 4.700538e-39
2.0904088 1.2652581 -0.00020738873 4.8824293e-39
2.0736923 1.2874697 -0.00346233 5.2544573e-39
2.0923996 1.2237338 0.0064732893 4.3317695e-39
2.09231 1.185985 0.0086030373 4.3317709e-39
2.0850129 1.203539 0.011198127 4.792756e-39
2.0778904 1.1595397 0.013577256 4.7005478e-39
2.0649104 1.1672026 0.0069160624 4.0577049e-39
2.063782 1.1432595 0.007886867 5.0704037e-39
2.0380795 1.1417003 0.0086939167 5.8955023e-39
2.0251405 1.1250782 0.0068209912 7.0025701e-39
2.0016475 1.1042821 0.0029958719 7.1894767e-39
1.9842358 1.0836689 0.00051775435 6.5448458e-39
1.9709265 1.0816761 0.0019451703 8.3869353e-39
1.974209 1.0665431 -0.0065709674 3.5067116e-39
1.9511589 1.0662004 -0.0013139168 6.9125423e-39
1.9296546 1.0571454 -0.003435693 8.8515035e-39
1.913924 1.0529968 -0.0081620812 1.0324125e-38
1.8906065 1.0511205 -0.010076298 1.0784762e-38
1.8710735 1.0447342 -0.014413036 1.0231939e-38
1.8458247 1.0378834 -0.018939849 1.1061713e-38
1.8250839 1.0357916 -0.019481296 1.2350642e-38
1.8037145 1.0252379 -0.024534244 9.2181603e-39
1.7844503 1.0258797 -0.020730658 8.1103596e-39
1.7654958 1.0160124 -0.034124102 7.7433833e-39
1.7471255 1.0070046 -0.033819262 9.681288e-39
1.7241662 1.0013558 -0.038271368 1.7613345e-38
1.710819 0.99162769 -0.042199358 1.5390968e-38
1.6952646 0.99821949 -0.054392412 1.6227911e-38
2.0954623 1.2470785 0.018948421 2.9535084e-39
2.0787907 1.2651255 0.028210629 4.4264875e-39
2.0695243 1.287657 0.020190006 5.3477235e-39
2.0874372 1.2292409 0.032842532 4.0569791e-39
2.0794182 1.2491684 0.038278922 3.6917867e-39
2.0876107 1.1931494 0.041360836 3.4116082e-39
2.0761552 1.196931 0.035420779 3.6863973e-39
2.0731325 1.1654899 0.042109739 5.2551691e-39
2.0673921 1.1814678 0.031390157 4.1524089e-39
2.0555835 1.1517285 0.037515022 4.7034275e-39
2.0342774 1.1482673 0.035880134 5.4402778e-39
2.0133562 1.1328062 0.034204926 6.4529948e-39
1.9971206 1.1371083 0.044690743 9.1284408e-39
1.9930634 1.1097567 0.031708337 7.0961978e-39
1.9822217 1.0932144 0.028518181 8.7564352e-39
1.9586043 1.0905007 0.030016474 7.5593438e-39
1.935919 1.0738655 0.026452417 7.8337741e-39
1.923084 1.0585585 0.020551112 1.2259508e-38
1.9071679 1.0572888 0.02181901 9.586926e-39
1.8857907 1.0545702 0.012974693 1.1708147e-38
1.8618903 1.0503675 0.015922483 1.1154262e-38
1.8406172 1.0433137 0.0098383874 1.1610565e-38
1.8204287 1.0403476 0.0055678613 1.2629033e-38
1.7954603 1.0321726 0.0028935298 9.9549924e-39
1.7796276 1.0322311 0.0089175822 7.2849317e-39
1.7671059 1.0190225 -0.001799416 6.8217816e-39
1.7373869 1.0069702 -0.0030906887 1.5393809e-38
1.7198632 1.0010289 -0.014150578 2.1763569e-38
2.0684428 1.2633077 0.051468465 2.8598722e-39
2.0627019 1.2803972 0.045409117 4.3350107e-39
2.0771816 1.2329336 0.062805228 4.7931078e-39
2.0760691 1.2515674 0.054308534 3.6892924e-39
2.0794189 1.193486 0.067862168 4.7012737e-39
2.072176 1.2117748 0.069435723 4.0555511e-39
2.0647924 1.1708471 0.070737556 6.3600789e-39
2.0442853 1.1659336 0.069285356 7.6425473e-39
2.051645 1.1545497 0.056366708 5.3444935e-39
2.0287738 1.1552876 0.063238285 5.9001714e-39
2.007385 1.1403884 0.062386453 5.9909223e-39
1.9947774 1.1411134 0.061178319 6.1778485e-39
1.9860642 1.1124552 0.059961669 6.1742668e-39
1.9806365 1.1207844 0.059845965 5.9902174e-39
1.9739726 1.0950722 0.058822393 6.7288643e-39
1.9570078 1.0964845 0.058102373 5.8973141e-39
1.9323573 1.0838907 0.053082313 6.9100199e-39
1.9145672 1.0862617 0.060716901 5.8047275e-39
1.8997711 1.0702099 0.044364575 1.1156752e-38
1.8735367 1.0727576 0.052773882 9.5728976e-39
1.8809355 1.0570161 0.041910581 1.3183277e-38
1.8576081 1.0527543 0.043226238 1.1431564e-38
1.838346 1.0462948 0.039849035 1.1614166e-38
1.8141845 1.0448203 0.035455965 1.235136e-38
1.7897367 1.0362697 0.026265252 1.0230142e-38
1.7746243 1.0358149 0.032864176 8.3869591e-39
1.7518615 1.0267425 0.029072015 8.1092848e-39
1.7277267 1.0280789 0.031107847 8.9400964e-39
1.7341642 1.0137779 0.022530043 1.8437705e-38
1.7196596 1.0132341 0.022988899 2.1576308e-38
2.0746174 1.2273554 0.085394181 5.8998239e-39
2.0607779 1.2092112 0.091072135 5.6225041e-39
2.0419645 1.1836445 0.093514681 7.7433665e-39
2.0177722 1.1643733 0.087634161 6.4522662e-39
2.0035017 1.1705399 0.10026002 3.5970757e-39
1.9976221 1.1405227 0.087000161 5.0704079e-39
1.9925787 1.1552911 0.10026008 4.3303289e-39
1.9873195 1.1233244 0.080620266 4.050875e-39
1.9682953 1.1265955 0.091965057 5.0697003e-39
1.9423673 1.1104658 0.087216631 9.0294194e-39
1.9235737 1.0907763 0.092007294 1.5382258e-38
1.9107115 1.0924505 0.078694753 1.1976793e-38
