# .PCD v0.7 - Point Cloud Data file format
VERSION 0.7
FIELDS x y z rgb
SIZE 4 4 4 4
TYPE F F F F
COUNT 1 1 1 1
WIDTH 1029
HEIGHT 1
VIEWPOINT 0 0 0 1 0 0 0
POINTS 1029
DATA ascii
6.4214044 -3.1364508 -1.2718838 2.7658689e-40
6.4195719 -3.1045065 -1.2923371 2.7658689e-40
6.3847065 -3.1461079 -1.2842788 2.7658689e-40
6.3945003 -3.1091917 -1.291085 2.7658689e-40
6.3661265 -3.1497617 -1.2842789 2.7658689e-40
6.3319373 -3.1214964 -1.291085 2.7658689e-40
6.3039036 -3.0944839 -1.3104124 6.4536941e-40
6.2998552 -3.0567865 -1.3046873 2.7658689e-40
6.2782145 -3.0245545 -1.3144275 2.7658689e-40
6.266088 -2.9871581 -1.3127114 3.6878252e-40
6.257957 -3.030571 -1.3247557 2.7658689e-40
6.2467737 -2.9922407 -1.319235 1.8439126e-40
6.2206969 -2.9973693 -1.319235 2.7658689e-40
6.2090878 -2.9590425 -1.3133034 2.7658689e-40
6.2013826 -3.0024519 -1.3257586 2.7658689e-40
6.7743101 -3.2290194 -1.2352325 3.6878252e-40
6.7595935 -3.2884259 -1.2006514 3.6878252e-40
6.7533102 -3.2622607 -1.2196486 3.6878252e-40
6.7340779 -3.2962942 -1.2151362 2.7658689e-40
6.7201214 -3.2684045 -1.2176993 4.6097815e-40
6.6967454 -3.2730021 -1.2176993 4.6097815e-40
6.6698194 -3.2780681 -1.2165297 4.6097815e-40
6.6563139 -3.2522273 -1.2352325 2.7658689e-40
6.644074 -3.2523115 -1.2234248 2.7658689e-40
6.6280389 -3.2230365 -1.2274231 2.7658689e-40
6.6138449 -3.1941588 -1.2352803 2.7658689e-40
6.6080327 -3.2261891 -1.2234488 3.6878252e-40
6.4824133 -3.1195734 -1.247094 2.7658689e-40
6.4813881 -3.0884061 -1.2723035 2.7658689e-40
6.4610834 -3.125598 -1.2563902 2.7658689e-40
6.4269047 -3.1317103 -1.2532915 2.7658689e-40
6.4058466 -3.1008003 -1.2597823 3.6878252e-40
6.3928418 -3.1384099 -1.2532915 2.7658689e-40
6.3938003 -3.1056333 -1.2723035 2.7658689e-40
6.3649721 -3.1438913 -1.2532915 2.7658689e-40
6.3421865 -3.1479666 -1.2512256 2.7658689e-40
6.3227406 -3.1187885 -1.2681297 2.7658689e-40
6.298903 -3.0519454 -1.2791334 2.7658689e-40
6.288527 -3.0156667 -1.27957 2.7658689e-40
6.2696238 -2.9821837 -1.2909663 2.7658689e-40
6.2458014 -2.9872973 -1.2931408 2.7658689e-40
6.226244 -2.9911437 -1.2931408 1.8439126e-40
6.7589455 -3.2851331 -1.1832696 3.6878252e-40
6.7484698 -3.2582262 -1.1943076 3.6878252e-40
6.7248759 -3.2617159 -1.1884596 6.4536941e-40
6.6956558 -3.2674627 -1.1884595 4.6097815e-40
6.6664357 -3.2732098 -1.1884596 3.6878252e-40
6.6389675 -3.2471199 -1.1919379 3.6878252e-40
6.6252384 -3.2192857 -1.2055644 2.7658689e-40
6.4834046 -3.1498296 -1.2224956 3.6878252e-40
6.460525 -3.1862521 -1.210651 3.6878252e-40
6.4652371 -3.1546102 -1.2286317 2.7658689e-40
6.4483795 -3.1886408 -1.210651 3.6878252e-40
6.4407091 -3.1594343 -1.2286317 3.6878252e-40
6.4200187 -3.1294062 -1.2346991 3.6878252e-40
6.4032307 -3.1631835 -1.2102231 2.7658689e-40
6.3952456 -3.1342788 -1.234699 1.8439126e-40
6.3728752 -3.1707637 -1.2184048 2.7658689e-40
6.348042 -3.1740379 -1.2102231 2.7658689e-40
6.3372879 -3.1448653 -1.2305673 2.7658689e-40
6.3173256 -3.1132834 -1.2347403 1.8439126e-40
6.7580819 -3.2807424 -1.1600939 8.2976067e-40
6.7509856 -3.2504432 -1.1572704 1.0141519e-39
6.7467179 -3.2841175 -1.1658878 1.1063476e-39
6.7237864 -3.2561765 -1.1592199 7.3756504e-40
6.6945662 -3.2619233 -1.1592199 5.5317378e-40
6.6653466 -3.2676704 -1.1592199 3.6878252e-40
6.6335087 -3.2431037 -1.1660737 2.7658689e-40
6.4925203 -3.174835 -1.1846079 3.6878252e-40
6.465692 -3.1804528 -1.186344 2.7658689e-40
6.4353285 -3.186425 -1.186344 2.7658689e-40
6.4066877 -3.1904638 -1.1782416 2.7658689e-40
6.3966413 -3.1620643 -1.1979507 2.7658689e-40
6.3746023 -3.1983685 -1.186344 2.7658689e-40
6.3841486 -3.1633143 -1.1918145 2.7658689e-40
6.3624568 -3.2007575 -1.186344 2.7658689e-40
6.3473563 -3.1705506 -1.1918145 2.7658689e-40
6.3321581 -3.1405895 -1.2037117 2.7658689e-40
6.3163919 -3.1085391 -1.2096982 1.8439126e-40
6.7521348 -3.2459979 -1.135828 6.4536941e-40
6.7226968 -3.2506371 -1.1299801 5.5317378e-40
6.6934767 -3.2563839 -1.12998 3.6878252e-40
6.664257 -3.262131 -1.12998 3.6878252e-40
6.6404452 -3.264513 -1.1182841 3.6878252e-40
6.6329813 -3.2374544 -1.1368357 2.7658689e-40
6.4949231 -3.168725 -1.1559602 4.6097815e-40
6.4645596 -3.1746969 -1.1559602 3.6878252e-40
6.4341965 -3.1806688 -1.1559602 3.6878252e-40
6.4038334 -3.1866407 -1.1559602 2.7658689e-40
6.3758941 -3.2231932 -1.1449937 2.7658689e-40
6.3856153 -3.1902239 -1.1559602 2.7658689e-40
6.3613248 -3.1950016 -1.1559602 2.7658689e-40
6.3403096 -3.1671069 -1.1672697 3.6878252e-40
6.7441273 -3.2709458 -1.096361 4.6097815e-40
6.7216072 -3.2450976 -1.1007402 2.7658689e-40
6.6923876 -3.2508445 -1.1007402 2.7658689e-40
6.6655488 -3.2563539 -1.1019098 2.7658689e-40
6.6512542 -3.2265027 -1.0994449 1.4751301e-39
6.6368346 -3.2310815 -1.1083006 2.7658689e-40
6.6276417 -3.2000439 -1.110181 2.7658689e-40
6.5191336 -3.1890984 -1.114898 1.4751301e-39
6.503243 -3.1930132 -1.1189108 4.6097815e-40
6.4942436 -3.165271 -1.1377299 3.6878252e-40
6.474133 -3.1985414 -1.1179075 4.6097815e-40
6.4638805 -3.171243 -1.1377299 3.6878252e-40
6.4411626 -3.2056186 -1.1209171 4.6097815e-40
6.4110875 -3.2115343 -1.120917 4.6097815e-40
6.381012 -3.2174492 -1.1209171 2.7658689e-40
6.3590317 -3.2221665 -1.1229235 2.7658689e-40
6.7438941 -3.2349608 -1.0715004 3.6878252e-40
6.7432637 -3.2665553 -1.0731852 3.6878252e-40
6.7205181 -3.2395585 -1.0715004 2.7658689e-40
6.691298 -3.2453053 -1.0715004 2.7658689e-40
6.6653552 -3.2500792 -1.0698296 2.7658689e-40
6.6505942 -3.2231474 -1.0817333 2.7658689e-40
6.6326747 -3.2255101 -1.0758296 1.8439126e-40
6.5182366 -3.1845372 -1.0908216 4.6097815e-40
6.5001917 -3.1880867 -1.0908215 5.5317378e-40
6.4686685 -3.1945827 -1.0923263 4.6097815e-40
6.4400411 -3.1999173 -1.0908215 4.6097815e-40
6.409966 -3.2058327 -1.0908215 4.6097815e-40
6.3763194 -3.2436094 -1.0803736 4.6097815e-40
6.3830104 -3.2117262 -1.0938311 6.4536941e-40
6.3644047 -3.2459528 -1.0803736 2.7658689e-40
6.3622942 -3.217577 -1.1028597 2.7658689e-40
6.7419686 -3.2599692 -1.0384219 2.7658689e-40
6.7194285 -3.234019 -1.0422606 1.8439126e-40
6.6902084 -3.2397659 -1.0422605 2.7658689e-40
6.6609883 -3.245513 -1.0422606 1.8439126e-40
6.6374745 -3.2187576 -1.0463105 2.7658689e-40
6.6256428 -3.1898797 -1.0565279 2.7658689e-40
6.6133556 -3.1599071 -1.060726 4.6097815e-40
6.5171151 -3.1788359 -1.060726 4.6097815e-40
6.5060496 -3.2110553 -1.0446049 5.5317378e-40
6.4971399 -3.1831591 -1.0627325 4.6097815e-40
6.4828863 -3.2191303 -1.0624893 4.6097815e-40
6.47293 -3.1871312 -1.0587196 3.6878252e-40
6.4482408 -3.253653 -1.034503 4.6097815e-40
6.4467421 -3.2241278 -1.0517586 4.6097815e-40
6.4228683 -3.2285888 -1.0505664 3.6878252e-40
6.4028296 -3.201314 -1.060726 5.5317378e-40
6.3754306 -3.2390921 -1.0565279 3.6878252e-40
6.3847847 -3.2048631 -1.060726 3.6878252e-40
6.3635159 -3.2414355 -1.0565279 3.6878252e-40
6.7419329 -3.2249897 -1.0188688 3.6878252e-40
6.7364516 -3.1923201 -1.0108877 2.7658689e-40
6.7169323 -3.229044 -1.0144827 2.7658689e-40
6.6891189 -3.2342265 -1.0130208 1.8439126e-40
6.6598988 -3.2399735 -1.0130208 2.7658689e-40
6.636375 -3.213165 -1.0167915 1.8439126e-40
6.6245317 -3.1842327 -1.0267205 3.6878252e-40
6.6122341 -3.1542053 -1.0306305 4.6097815e-40
6.5994754 -3.1230502 -1.0283482 4.6097815e-40
6.529213 -3.2029803 -1.0267205 4.6097815e-40
6.5162182 -3.1742744 -1.0366496 5.5317378e-40
6.5051613 -3.2065377 -1.0207591 5.5317378e-40
6.4967456 -3.1769202 -1.0306305 4.6097815e-40
6.469861 -3.215827 -1.0326821 4.6097815e-40
6.4750018 -3.180723 -1.0282228 5.5317378e-40
6.4478006 -3.2514162 -1.0226953 3.6878252e-40
6.4455872 -3.218255 -1.0207591 4.6097815e-40
6.4219794 -3.2240713 -1.0267205 2.7658689e-40
6.4017081 -3.1956127 -1.0306304 3.6878252e-40
6.37432 -3.2334452 -1.0267205 3.6878252e-40
6.3836632 -3.1991613 -1.0306305 4.6097815e-40
6.3624053 -3.2357886 -1.0267205 7.3756504e-40
6.7404075 -3.2172348 -0.97793305 2.7658689e-40
6.7360115 -3.1900833 -0.99908006 2.7658689e-40
6.7148685 -3.2231786 -0.98261136 2.7658689e-40
6.6880293 -3.2286873 -0.98378104 2.7658689e-40
6.6588097 -3.2344344 -0.98378098 2.7658689e-40
6.6324348 -3.2087126 -0.99022436 2.7658689e-40
6.623199 -3.1774564 -0.99095184 3.6878252e-40
6.6111131 -3.148504 -1.0005349 1.4751301e-39
6.5985699 -3.1184454 -1.0040412 4.6097815e-40
6.5987296 -3.0885086 -1.0261368 5.5317378e-40
6.5803518 -3.1220286 -1.0040412 7.3756504e-40
6.5246348 -3.1976805 -0.99520999 5.5317378e-40
6.4932394 -3.2331853 -0.97546488 3.6878252e-40
6.4980931 -3.2020626 -0.99095184 4.6097815e-40
6.5030665 -3.1709392 -1.006554 3.6878252e-40
6.4755402 -3.2366664 -0.97546488 4.6097815e-40
6.4744859 -3.2078791 -0.99691331 3.6878252e-40
6.4485769 -3.2428992 -0.98018795 2.7658689e-40
6.4420528 -3.2160172 -1.0058554 3.6878252e-40
6.4208689 -3.2184246 -0.99691331 2.7658689e-40
6.4005866 -3.1899109 -1.0005349 2.7658689e-40
6.3732095 -3.2277985 -0.99691331 2.7658689e-40
6.3825417 -3.19346 -1.0005349 2.7658689e-40
6.3555593 -3.2324426 -1.0028747 2.7658689e-40
6.352242 -3.1982348 -0.99451584 2.7658689e-40
6.7379208 -3.2741866 -0.94837695 2.7658689e-40
6.7329402 -3.2446439 -0.95151317 2.7658689e-40
6.7146444 -3.2174113 -0.95307916 2.7658689e-40
6.6869402 -3.2231479 -0.95454121 1.8439126e-40
6.6577744 -3.2291718 -0.95600319 1.8439126e-40
6.6575541 -3.1962206 -0.95184958 2.7658689e-40
6.6282749 -3.203141 -0.95775342 3.6878252e-40
6.6103959 -3.1752822 -0.96710598 3.6878252e-40
6.5979614 -3.1451683 -0.97043943 1.1985432e-39
6.5810299 -3.148025 -0.9680317 7.3756504e-40
6.5738263 -3.1209204 -0.99188769 7.3756504e-40
6.5527368 -3.1534715 -0.96742982 3.6878252e-40
6.5614548 -3.1221581 -0.98581094 9.219563e-40
6.5230942 -3.1928442 -0.96909314 7.3756504e-40
6.5380354 -3.1581395 -0.97645849 4.6097815e-40
6.5053401 -3.2565639 -0.94284528 7.3756504e-40
6.5044527 -3.2278824 -0.95972133 3.6878252e-40
6.4791508 -3.2622902 -0.94576925 2.7658689e-40
6.4809999 -3.2332692 -0.96365726 3.6878252e-40
6.4529619 -3.2680166 -0.94869328 2.7658689e-40
6.4335814 -3.2414339 -0.95775342 2.7658689e-40
6.4138007 -3.2139492 -0.96710598 1.8439126e-40
6.3934503 -3.1853921 -0.97043943 1.8439126e-40
6.3720989 -3.2221513 -0.96710598 1.8439126e-40
6.3814201 -3.1877582 -0.97043943 2.7658689e-40
6.3601842 -3.2244947 -0.96710598 2.7658689e-40
6.3457785 -3.1971374 -0.98247761 2.7658689e-40
6.7368512 -3.2687497 -0.91967762 2.7658689e-40
6.7372189 -3.2358215 -0.91095573 1.8439126e-40
6.7151141 -3.2120831 -0.92647094 1.8439126e-40
6.7114458 -3.1794252 -0.92036265 1.8439126e-40
6.6839752 -3.2183609 -0.92725068 1.8439126e-40
6.691853 -3.183666 -0.92233056 1.8439126e-40
6.6566305 -3.2233555 -0.92530137 2.7658689e-40
6.6568942 -3.1928654 -0.93413818 2.7658689e-40
6.6271753 -3.1975484 -0.92823446 4.6097815e-40
6.6092854 -3.1696355 -0.93729872 4.6097815e-40
6.5931025 -3.1712544 -0.92935008 4.6097815e-40
6.5768647 -3.1437905 -0.94235021 3.6878252e-40
6.5547352 -3.1477485 -0.9403438 6.4536941e-40
6.5268784 -3.2172756 -0.9282344 5.5317378e-40
6.537796 -3.1836963 -0.93729872 4.6097815e-40
6.5085096 -3.2521045 -0.92335206 3.6878252e-40
6.5155187 -3.2218332 -0.94004202 3.6878252e-40
6.4813104 -3.257838 -0.92530137 3.6878252e-40
6.4579344 -3.2624357 -0.92530137 1.8439126e-40
6.4395614 -3.2344491 -0.9282344 1.8439126e-40
6.4305625 -3.2047873 -0.93729866 1.8439126e-40
6.4139705 -3.2085199 -0.93968326 1.8439126e-40
6.3962641 -3.1785219 -0.9383375 1.8439126e-40
6.3709884 -3.2165046 -0.93729872 1.8439126e-40
6.3802991 -3.1820569 -0.9403438 1.8439126e-40
6.3552499 -3.220382 -0.94127297 1.8439126e-40
6.7373571 -3.2017245 -0.8960616 1.8439126e-40
6.7265921 -3.1733484 -0.90461916 2.7658689e-40
6.7256689 -3.2040234 -0.8960616 2.7658689e-40
6.708673 -3.1757112 -0.89871538 2.7658689e-40
6.6817298 -3.2120898 -0.89313763 1.8439126e-40
6.6911931 -3.1803107 -0.90461916 2.7658689e-40
6.6555409 -3.2178161 -0.8960616 1.8439126e-40
6.6279783 -3.2217028 -0.8882643 3.6878252e-40
6.6123824 -3.1950369 -0.90068328 8.2976067e-40
6.5903025 -3.1675038 -0.90749139 7.3756504e-40
6.5718827 -3.1396379 -0.91626734 6.4536941e-40
6.547823 -3.1443703 -0.91626734 3.6878252e-40
6.5589643 -3.1094949 -0.91896653 4.6097815e-40
6.5257788 -3.2116833 -0.89871538 4.6097815e-40
6.5357928 -3.1467364 -0.91626734 4.6097815e-40
6.5094409 -3.2465515 -0.8960616 4.6097815e-40
6.492744 -3.277065 -0.87619227 2.7658689e-40
6.4788146 -3.2528629 -0.89752358 1.8439126e-40
6.453814 -3.2569168 -0.89313763 1.8439126e-40
6.4353881 -3.2298486 -0.90068328 2.7658689e-40
6.4175367 -3.2014837 -0.90749139 1.8439126e-40
6.3974466 -3.1739466 -0.91626734 1.8439126e-40
6.3733869 -3.1786788 -0.91626734 1.8439126e-40
6.3551173 -3.1810877 -0.91024828 1.8439126e-40
6.7105975 -3.2014642 -0.86799139 2.7658689e-40
6.6836715 -3.2065296 -0.86682183 2.7658689e-40
6.6544514 -3.2122767 -0.86682183 3.6878252e-40
6.6252313 -3.2180238 -0.86682183 3.6878252e-40
6.607276 -3.1898456 -0.8691963 7.3756504e-40
6.5959163 -3.1944029 -0.88100392 4.6097815e-40
6.5890808 -3.1612923 -0.87470335 4.6097815e-40
6.5737691 -3.1333449 -0.88617182 5.5317378e-40
6.5470452 -3.1678002 -0.86576116 4.6097815e-40
6.5527163 -3.1374857 -0.88617182 6.4536941e-40
6.5286121 -3.2053175 -0.8691963 4.6097815e-40
6.5357971 -3.1735318 -0.88364553 4.6097815e-40
6.5083513 -3.2410121 -0.86682183 6.4536941e-40
6.4863067 -3.2749109 -0.85881054 2.7658689e-40
6.4650044 -3.2787204 -0.85687929 1.8439126e-40
6.4480362 -3.2532587 -0.86877114 2.7658689e-40
6.4307218 -3.2268939 -0.88100392 1.8439126e-40
6.4321613 -3.2548466 -0.86097383 2.7658689e-40
6.418262 -3.2258594 -0.86329246 2.7658689e-40
6.4076014 -3.198159 -0.88066483 1.8439126e-40
6.390759 -3.1717088 -0.89821005 2.7658689e-40
6.3710637 -3.2351425 -0.86329246 1.8439126e-40
6.3829761 -3.2019467 -0.87529951 1.8439126e-40
6.3787289 -3.1740749 -0.89821005 2.7658689e-40
6.703145 -3.1975214 -0.84050596 1.8439126e-40
6.6825819 -3.2009902 -0.83758199 1.8439126e-40
6.6533618 -3.2067373 -0.83758205 3.6878252e-40
6.6241417 -3.2124844 -0.83758199 4.6097815e-40
6.6061764 -3.1842532 -0.83967721 5.5317378e-40
6.5941567 -3.1854553 -0.83377343 3.6878252e-40
6.5820494 -3.1570055 -0.84588963 5.5317378e-40
6.5758796 -3.1281924 -0.86209536 1.3829344e-39
6.5473981 -3.1969755 -0.84558105 6.4536941e-40
6.5582938 -3.1620686 -0.84787679 5.5317378e-40
6.5340571 -3.2297428 -0.83524275 8.2976067e-40
6.5116019 -3.262867 -0.82288826 4.6097815e-40
6.5076976 -3.2376885 -0.84927791 4.6097815e-40
6.4852271 -3.269423 -0.8298409 1.8439126e-40
6.4667897 -3.2457345 -0.84927791 1.8439126e-40
6.4637094 -3.2721348 -0.82211578 2.7658689e-40
6.4477401 -3.2476401 -0.83992112 1.8439126e-40
6.4312897 -3.2504151 -0.83758199 2.7658689e-40
6.4133759 -3.2217867 -0.83770931 1.8439126e-40
6.4036231 -3.1936629 -0.85383821 2.7658689e-40
6.3855286 -3.1960485 -0.84787679 1.8439126e-40
6.6990247 -3.1920025 -0.80834222 2.7658689e-40
6.6814923 -3.1954508 -0.80834222 1.8439126e-40
6.6522722 -3.2011979 -0.80834222 3.6878252e-40
6.6230526 -3.2069449 -0.80834222 3.6878252e-40
6.6015515 -3.2107902 -0.80639291 7.3756504e-40
6.5875969 -3.1832604 -0.81606203 4.6097815e-40
6.5814571 -3.1539938 -0.82999241 4.6097815e-40
6.5639977 -3.187902 -0.81606197 5.5317378e-40
6.5362577 -3.2536855 -0.80087143 6.4536941e-40
6.5470805 -3.2218874 -0.80834222 4.6097815e-40
6.5143929 -3.2887847 -0.79914045 6.4536941e-40
6.5130544 -3.2580211 -0.7997126 9.219563e-40
6.4841475 -3.2639346 -0.80087143 1.8439126e-40
6.4574704 -3.2689536 -0.7997126 1.8439126e-40
6.4421062 -3.2436848 -0.81419015 1.8439126e-40
6.4208064 -3.2464933 -0.8071726 1.8439126e-40
6.4049225 -3.220351 -0.82196581 2.7658689e-40
6.392683 -3.2204349 -0.81015819 2.7658689e-40
6.3848619 -3.1926606 -0.82999241 1.8439126e-40
6.6979351 -3.1864631 -0.77910239 2.7658689e-40
6.6793213 -3.1905849 -0.78144151 1.8439126e-40
6.6863537 -3.1557045 -0.77473533 2.7658689e-40
6.6511831 -3.1956584 -0.77910239 3.6878252e-40
6.621963 -3.2014055 -0.77910244 1.0141519e-39
6.5984364 -3.2334752 -0.76031405 6.4536941e-40
6.5929608 -3.2082605 -0.78495038 1.0141519e-39
6.566699 -3.2402875 -0.76321101 1.0141519e-39
6.5657616 -3.2139938 -0.78689969 3.6878252e-40
6.5356255 -3.275573 -0.75322157 5.5317378e-40
6.5409679 -3.2470586 -0.77190185 5.5317378e-40
6.5464268 -3.2185638 -0.79079831 8.2976067e-40
6.5120182 -3.2527528 -0.77190179 7.3756504e-40
6.4830685 -3.2584467 -0.77190179 4.6097815e-40
6.4541183 -3.2641406 -0.77190179 2.7658689e-40
6.4309583 -3.2686954 -0.77190191 3.6878252e-40
6.4115787 -3.2427845 -0.77910239 2.7658689e-40
6.3944826 -3.2484486 -0.79079831 1.8439126e-40
6.7006688 -3.1797884 -0.7479133 2.7658689e-40
6.6793137 -3.1843722 -0.74986261 1.8439126e-40
6.6500936 -3.1901193 -0.74986261 5.5317378e-40
6.6151586 -3.2267659 -0.74293232 3.6878252e-40
6.6267176 -3.1947169 -0.74986261 3.6878252e-40
6.5921297 -3.2599418 -0.7302621 4.6097815e-40
6.5997906 -3.2301683 -0.74486363 4.6097815e-40
6.5751357 -3.2644136 -0.73600197 9.219563e-40
6.5574746 -3.2392514 -0.74872619 4.6097815e-40
6.5434809 -3.2700748 -0.733132 1.0141519e-39
6.5458946 -3.241529 -0.74872619 3.1346514e-39
6.5175624 -3.2746081 -0.7302621 5.5317378e-40
6.5111547 -3.2483616 -0.74872625 1.1985432e-39
6.4827204 -3.3109996 -0.7274068 6.4536941e-40
6.5003543 -3.2779925 -0.7302621 5.5317378e-40
6.4879947 -3.2529171 -0.74872619 5.5317378e-40
6.4604163 -3.2869768 -0.73600197 2.7658689e-40
6.4414587 -3.2609296 -0.74293232 2.7658689e-40
6.4298787 -3.2632072 -0.74293232 2.7658689e-40
6.4104896 -3.2372453 -0.74986261 1.8439126e-40
6.3949232 -3.2689421 -0.73713839 3.6878252e-40
6.7016001 -3.1742351 -0.72062284 3.6878252e-40
6.6782241 -3.1788328 -0.72062284 2.7658689e-40
6.6483874 -3.2122495 -0.70237488 3.6878252e-40
6.6530452 -3.184552 -0.72452146 3.6878252e-40
6.6252627 -3.2466483 -0.69582289 7.3756504e-40
6.6280613 -3.2189839 -0.71628028 4.6097815e-40
6.6025615 -3.2799685 -0.68948925 6.4536941e-40
6.6051264 -3.2533195 -0.70959854 1.0141519e-39
6.5800385 -3.2855177 -0.6951769 5.5317378e-40
6.5744944 -3.2611516 -0.71878237 6.4536941e-40
6.5516195 -3.2911069 -0.6951769 6.4536941e-40
6.5428395 -3.2668126 -0.7159124 3.6878252e-40
6.5202527 -3.2967165 -0.6923331 3.6878252e-40
6.5189037 -3.271332 -0.71495581 8.2976067e-40
6.4893098 -3.3044817 -0.70086449 2.7658689e-40
6.4593468 -3.2815399 -0.70730263 1.8439126e-40
6.4403791 -3.2554412 -0.71396279 1.8439126e-40
6.4240808 -3.2581911 -0.71164513 1.8439126e-40
6.4156799 -3.2327724 -0.73231876 3.6878252e-40
6.3960371 -3.2928624 -0.70156276 2.7658689e-40
6.4028525 -3.2633924 -0.7168597 1.8439126e-40
6.7005105 -3.1686957 -0.691383 3.6878252e-40
6.6706839 -3.2033041 -0.67919928 4.6097815e-40
6.6791549 -3.1732795 -0.69333231 2.7658689e-40
6.6535296 -3.207818 -0.68499315 4.6097815e-40
6.6244488 -3.2711866 -0.66673881 4.6097815e-40
6.6323404 -3.2422445 -0.6805166 4.6097815e-40
6.6076093 -3.2756178 -0.6724264 4.6097815e-40
6.5850558 -3.3068347 -0.66082537 6.4536941e-40
6.5850863 -3.281167 -0.67811406 4.6097815e-40
6.5627322 -3.3123345 -0.66646254 6.4536941e-40
6.5450878 -3.2879148 -0.6724264 6.4536941e-40
6.5223532 -3.2923865 -0.6724264 4.6097815e-40
6.4904814 -3.2984312 -0.67128891 2.7658689e-40
6.4756994 -3.2738061 -0.68434316 2.7658689e-40
6.4525414 -3.277231 -0.67860329 1.8439126e-40
6.4238615 -3.282872 -0.67860329 2.7658689e-40
6.4064398 -3.2851691 -0.67286342 1.8439126e-40
6.4047761 -3.2578838 -0.69078708 1.8439126e-40
6.7041283 -3.1898854 -0.64443576 3.6878252e-40
6.6977634 -3.1650167 -0.66994047 4.6097815e-40
6.6804838 -3.2244928 -0.63842428 4.6097815e-40
6.6813998 -3.1966357 -0.65602368 4.6097815e-40
6.6823249 -3.1688204 -0.67383915 4.6097815e-40
6.65728 -3.2580147 -0.63261306 4.6097815e-40
6.6608353 -3.2306161 -0.64990401 3.6878252e-40
6.6586719 -3.2033865 -0.66761142 6.4536941e-40
6.6334949 -3.2646513 -0.64256644 5.5317378e-40
6.6047311 -3.2977881 -0.63451856 4.6097815e-40
6.6085858 -3.270576 -0.64778012 4.6097815e-40
6.5842156 -3.302563 -0.6382767 4.6097815e-40
6.5560489 -3.3081028 -0.6382767 4.6097815e-40
6.5258641 -3.3132999 -0.63451856 2.7658689e-40
6.5139976 -3.2899261 -0.65157187 2.7658689e-40
6.494082 -3.3202906 -0.6382767 1.8439126e-40
6.4760351 -3.2970195 -0.64967597 1.8439126e-40
6.4767618 -3.3214786 -0.6270023 1.8439126e-40
6.4587722 -3.2992961 -0.64398831 1.8439126e-40
6.4417205 -3.3026493 -0.64398837 1.8439126e-40
6.4285283 -3.2763069 -0.64990401 1.8439126e-40
6.4150605 -3.2490201 -0.65602368 1.8439126e-40
6.4055843 -3.2808194 -0.64990401 1.8439126e-40
6.4034805 -3.251298 -0.65602362 1.8439126e-40
6.7092705 -3.1854539 -0.62705404 5.5317378e-40
6.6793795 -3.2503102 -0.61555022 3.6878252e-40
6.6913142 -3.2189744 -0.62120467 3.6878252e-40
6.6600842 -3.2817249 -0.60821176 3.6878252e-40
6.6682234 -3.2536237 -0.62123787 7.3756504e-40
6.6394987 -3.2861433 -0.61009079 6.4536941e-40
6.6113319 -3.2916832 -0.61009079 4.6097815e-40
6.5831652 -3.2972231 -0.61009079 4.6097815e-40
6.5549984 -3.302763 -0.61009079 2.7658689e-40
6.5211983 -3.3094108 -0.61009079 2.7658689e-40
6.4930315 -3.3149507 -0.61009079 1.8439126e-40
6.4761314 -3.3182747 -0.61009079 1.8439126e-40
6.4577122 -3.2939084 -0.61555022 1.8439126e-40
6.438931 -3.2686136 -0.62120467 1.8439126e-40
6.4197712 -3.2423933 -0.62705404 1.8439126e-40
6.402617 -3.2469075 -0.63284796 2.7658689e-40
6.7189245 -3.2078962 -0.59250534 4.6097815e-40
6.6873288 -3.2427032 -0.58483708 5.5317378e-40
6.6981778 -3.2134826 -0.60015851 3.6878252e-40
6.6633363 -3.2755919 -0.58029431 4.6097815e-40
6.6383643 -3.3088591 -0.57669771 5.5317378e-40
6.6160321 -3.3132515 -0.57669771 4.6097815e-40
6.5917006 -3.3173041 -0.57297325 4.6097815e-40
6.5805173 -3.2936769 -0.58942115 4.6097815e-40
6.5542035 -3.3232133 -0.56552428 4.6097815e-40
6.5540009 -3.2976904 -0.58331424 3.6878252e-40
6.5320802 -3.3286638 -0.57111102 3.6878252e-40
6.5169892 -3.3050096 -0.58351558 2.7658689e-40
6.4919815 -3.3096111 -0.58190495 1.8439126e-40
6.4669738 -3.314213 -0.58029431 1.8439126e-40
6.4511809 -3.2907164 -0.59279978 1.8439126e-40
6.4380755 -3.2642639 -0.5982452 1.8439126e-40
6.4391775 -3.2897193 -0.57573688 2.7658689e-40
6.4199362 -3.2371166 -0.60040206 1.8439126e-40
6.41045 -3.2061832 -0.5919677 2.7658689e-40
6.7350631 -3.199075 -0.563806 4.6097815e-40
6.7252541 -3.2284172 -0.55014265 4.6097815e-40
6.6954241 -3.2893915 -0.53479725 3.6878252e-40
6.7016606 -3.2630463 -0.55484653 5.5317378e-40
6.6753569 -3.3209069 -0.52720028 4.6097815e-40
6.668613 -3.2955809 -0.53945285 5.5317378e-40
6.6714087 -3.2698836 -0.55935627 7.3756504e-40
6.6426983 -3.3014107 -0.54317737 4.6097815e-40
6.6089668 -3.3339646 -0.52720028 4.6097815e-40
6.615983 -3.3071048 -0.54541206 6.4536941e-40
6.5869398 -3.3388419 -0.52996838 4.6097815e-40
6.5871181 -3.3136613 -0.54988146 6.4536941e-40
6.553371 -3.3189797 -0.54317737 4.6097815e-40
6.5264897 -3.323827 -0.54094267 4.6097815e-40
6.5193081 -3.2997992 -0.55935627 2.7658689e-40
6.5011249 -3.3285229 -0.53945285 1.8439126e-40
6.4891233 -3.3049965 -0.55559814 1.8439126e-40
6.4658332 -3.3084154 -0.54969251 1.8439126e-40
6.4494853 -3.2820964 -0.54729879 1.8439126e-40
6.4363647 -3.2555649 -0.55232632 1.8439126e-40
6.4387536 -3.2875645 -0.56436169 1.8439126e-40
6.4231863 -3.2291803 -0.56332105 1.8439126e-40
6.4079227 -3.1732919 -0.58581346 2.7658689e-40
6.7472234 -3.1284385 -0.53348809 6.4536941e-40
6.7335658 -3.191463 -0.52362698 4.6097815e-40
6.7253184 -3.2237408 -0.52644426 5.5317378e-40
6.6968684 -3.3134079 -0.51059139 8.2976067e-40
6.7086525 -3.2829418 -0.51524371 5.5317378e-40
6.6741319 -3.3439422 -0.50061762 3.6878252e-40
6.6776075 -3.3177409 -0.51335955 4.6097815e-40
6.6629596 -3.3450599 -0.49512997 4.6097815e-40
6.6470757 -3.3232012 -0.51059139 7.3756504e-40
6.6194129 -3.3286419 -0.51059139 7.3756504e-40
6.5862174 -3.335171 -0.51059139 3.6878252e-40
6.5642939 -3.3405721 -0.51612771 6.4536941e-40
6.5500555 -3.3139153 -0.51412636 4.6097815e-40
6.5244155 -3.3191781 -0.51524371 1.8439126e-40
6.4993963 -3.3246486 -0.51803708 1.8439126e-40
6.4894609 -3.2967958 -0.51425886 1.8439126e-40
6.4727707 -3.3011878 -0.51989603 1.8439126e-40
6.4600053 -3.2755506 -0.52454835 1.8439126e-40
6.4412451 -3.250087 -0.52936685 1.8439126e-40
6.4256907 -3.2811804 -0.5188607 1.8439126e-40
6.4223228 -3.2247901 -0.54014534 2.7658689e-40
6.7322826 -3.1849389 -0.48918778 6.4536941e-40
6.7452669 -3.1544318 -0.50538194 5.5317378e-40
6.7197986 -3.2481644 -0.49734733 4.6097815e-40
6.7279773 -3.2172489 -0.49611032 7.3756504e-40
6.6964459 -3.2798462 -0.48731008 6.4536941e-40
6.669198 -3.3129673 -0.48069546 5.5317378e-40
6.6460443 -3.3179569 -0.48290998 6.4536941e-40
6.6184745 -3.35057 -0.47866708 4.6097815e-40
6.6183815 -3.3233976 -0.48290998 6.4536941e-40
6.5907187 -3.3288383 -0.48290998 4.6097815e-40
6.5736213 -3.3040037 -0.48731008 4.6097815e-40
6.563056 -3.3342793 -0.48290998 4.6097815e-40
6.5457063 -3.309494 -0.48731005 3.6878252e-40
6.5233746 -3.3138864 -0.48731008 2.7658689e-40
6.4970551 -3.3190629 -0.48731008 1.8439126e-40
6.4886208 -3.2925239 -0.49171016 1.8439126e-40
6.4717207 -3.2958479 -0.49171019 2.7658689e-40
6.4591575 -3.2712405 -0.50179785 2.7658689e-40
6.4516478 -3.2423935 -0.50066751 1.8439126e-40
6.4371533 -3.2145767 -0.50306433 1.8439126e-40
6.4193053 -3.1894822 -0.51594424 1.8439126e-40
6.7318549 -3.1827638 -0.47770804 4.6097815e-40
6.7444034 -3.1500416 -0.48220623 4.6097815e-40
6.718328 -3.240689 -0.45788711 1.0141519e-39
6.730495 -3.2100387 -0.46198454 4.6097815e-40
6.6943927 -3.3008218 -0.44415599 4.6097815e-40
6.6970577 -3.2731297 -0.45378968 4.6097815e-40
6.6722913 -3.3345857 -0.45122886 5.5317378e-40
6.6680431 -3.3070939 -0.44969228 1.0141519e-39
6.6425667 -3.3379123 -0.43842435 7.3756504e-40
6.6469254 -3.3126998 -0.45707399 4.6097815e-40
6.616941 -3.3427727 -0.43750975 5.5317378e-40
6.6173911 -3.3183634 -0.45633581 6.4536941e-40
6.5894194 -3.3476458 -0.43476593 4.6097815e-40
6.5824857 -3.3245442 -0.45285586 3.6878252e-40
6.5562859 -3.3290746 -0.44969228 4.6097815e-40
6.5388741 -3.3042417 -0.45378968 4.6097815e-40
6.5221257 -3.3075359 -0.45378968 2.7658689e-40
6.4997935 -3.3119283 -0.45378968 1.8439126e-40
6.4817271 -3.2872245 -0.45788711 2.7658689e-40
6.4704604 -3.2894404 -0.45788711 1.8439126e-40
6.4546881 -3.2058833 -0.47641233 1.8439126e-40
6.4375505 -3.1793725 -0.48280579 2.7658689e-40
6.4255953 -3.116611 -0.48422775 2.7658689e-40
6.7174878 -3.2364171 -0.43533844 4.6097815e-40
6.7266994 -3.2057493 -0.43639025 4.6097815e-40
6.6935678 -3.2966266 -0.42201084 4.6097815e-40
6.6941562 -3.2682037 -0.42585602 4.6097815e-40
6.6708603 -3.3273082 -0.41281536 5.5317378e-40
6.652 -3.3307097 -0.41124737 6.4536941e-40
6.6271224 -3.3638282 -0.41226408 4.6097815e-40
6.6105371 -3.3391731 -0.41281536 4.6097815e-40
6.5996275 -3.3675539 -0.4037171 5.5317378e-40
6.5867734 -3.3438466 -0.41281536 4.6097815e-40
6.5773845 -3.3194778 -0.42201084 8.2976067e-40
6.5725584 -3.3488023 -0.42379063 4.6097815e-40
6.5552545 -3.3238304 -0.42201084 3.6878252e-40
6.5378337 -3.2989497 -0.42585602 3.6878252e-40
6.5210848 -3.3022439 -0.42585605 2.7658689e-40
6.4987531 -3.3066363 -0.42585605 1.8439126e-40
6.4806767 -3.2818847 -0.42970124 1.8439126e-40
6.4665027 -3.2270479 -0.437529 1.8439126e-40
6.4519725 -3.170399 -0.45161667 2.7658689e-40
6.4540405 -3.2025902 -0.4590306 2.7658689e-40
6.4389224 -3.1439607 -0.46773729 2.7658689e-40
6.7162275 -3.2300096 -0.40151539 4.6097815e-40
6.7283754 -3.1992636 -0.40510842 3.6878252e-40
6.6929488 -3.2934802 -0.405402 6.4536941e-40
6.7042813 -3.2607157 -0.3979224 6.4536941e-40
6.6910143 -3.3442283 -0.37652209 1.0141519e-39
6.6786532 -3.3205926 -0.3864747 4.6097815e-40
6.6818838 -3.2956564 -0.405402 4.6097815e-40
6.647902 -3.3264251 -0.38537711 4.6097815e-40
6.6149988 -3.3328967 -0.38537708 6.4536941e-40
6.5875788 -3.3382893 -0.38537717 6.4536941e-40
6.5708203 -3.3153219 -0.39432946 4.6097815e-40
6.5603638 -3.3447218 -0.39086479 4.6097815e-40
6.5531163 -3.318804 -0.39432943 4.6097815e-40
6.5370007 -3.2947161 -0.40350914 3.6878252e-40
6.5372128 -3.3197529 -0.38325685 3.6878252e-40
6.5211606 -3.2967324 -0.3979224 2.7658689e-40
6.5057755 -3.2706625 -0.39775726 1.8439126e-40
6.4981284 -3.3034611 -0.40909585 1.8439126e-40
6.4840493 -3.2752314 -0.39926052 1.8439126e-40
6.4669223 -3.2506869 -0.40510839 1.8439126e-40
6.4566731 -3.278841 -0.39024106 2.7658689e-40
6.7176423 -3.250026 -0.35695305 3.6878252e-40
6.7208104 -3.2235618 -0.37332952 6.4536941e-40
6.7275281 -3.1949537 -0.3823579 4.6097815e-40
6.701951 -3.2808154 -0.35003912 5.5317378e-40
6.7032404 -3.255424 -0.36998877 3.6878252e-40
6.6754394 -3.3415837 -0.34751409 4.6097815e-40
6.6817479 -3.315089 -0.36159733 5.5317378e-40
6.6531625 -3.3469641 -0.3525905 4.6097815e-40
6.6472888 -3.3233058 -0.36891425 6.4536941e-40
6.62498 -3.3529356 -0.3547661 6.4536941e-40
6.6025996 -3.3277764 -0.34696364 5.5317378e-40
6.5980062 -3.3593109 -0.36020511 7.3756504e-40
6.5837126 -3.3331106 -0.35519513 6.4536941e-40
6.564621 -3.3374057 -0.35793889 3.6878252e-40
6.5474524 -3.3133812 -0.3611117 3.6878252e-40
6.5318789 -3.3160086 -0.35889721 3.6878252e-40
6.5161076 -3.2916801 -0.3671954 1.8439126e-40
6.5008998 -3.2657053 -0.36769235 1.8439126e-40
6.5024624 -3.2960129 -0.37557548 2.7658689e-40
6.4861574 -3.2700839 -0.37520859 1.8439126e-40
6.4770184 -3.2419863 -0.37098265 2.7658689e-40
6.4643641 -3.2161739 -0.38013038 2.7658689e-40
6.4547071 -3.2486129 -0.3823579 3.6878252e-40
6.4526782 -3.2173429 -0.37439051 2.7658689e-40
6.7129493 -3.2458191 -0.33088163 4.6097815e-40
6.7141271 -3.2193301 -0.34514365 5.5317378e-40
6.7011261 -3.2766199 -0.327894 4.6097815e-40
6.7021995 -3.2501318 -0.34205508 4.6097815e-40
6.6750116 -3.3366735 -0.32213211 4.6097815e-40
6.6895242 -3.3063602 -0.3250131 3.6878252e-40
6.6509409 -3.3414075 -0.32213211 6.4536941e-40
6.6253171 -3.3464475 -0.32213211 8.2976067e-40
6.6101098 -3.3225198 -0.32775688 4.6097815e-40
6.6016173 -3.3489683 -0.31125411 6.4536941e-40
6.5853295 -3.3268538 -0.32501304 4.6097815e-40
6.5688777 -3.3300891 -0.3250131 3.6878252e-40
6.5519538 -3.3070493 -0.33343029 4.6097815e-40
6.535356 -3.3103137 -0.33343029 6.4536941e-40
6.5195456 -3.284591 -0.33460611 2.7658689e-40
6.5028763 -3.2608795 -0.34514365 1.8439126e-40
6.4858708 -3.2636695 -0.34232503 2.7658689e-40
6.4723816 -3.2384217 -0.34823221 1.8439126e-40
6.4635086 -3.2118242 -0.35717091 2.7658689e-40
6.4530115 -3.2399931 -0.33685693 2.7658689e-40
6.447999 -3.2137454 -0.35143104 2.7658689e-40
6.4264965 -3.302892 -0.33460611 2.7658689e-40
6.4099259 -3.2791612 -0.34514365 2.7658689e-40
6.4058867 -3.3062129 -0.33088163 2.7658689e-40
6.3902092 -3.2830391 -0.34514365 1.8439126e-40
6.3970218 -3.255482 -0.3596074 1.8439126e-40
6.3719468 -3.2309623 -0.36291075 2.7658689e-40
6.3612232 -3.3149974 -0.33088163 1.8439126e-40
6.3675704 -3.286937 -0.34232503 1.8439126e-40
6.3572354 -3.2633073 -0.3596074 2.7658689e-40
6.3421154 -3.2913892 -0.33950645 1.8439126e-40
6.3279686 -3.2645869 -0.33685693 2.7658689e-40
6.3256311 -3.237813 -0.35143104 2.7658689e-40
6.3111949 -3.2101641 -0.35474014 2.7658689e-40
6.2968388 -3.2991853 -0.33386928 1.8439126e-40
6.3022594 -3.2401507 -0.33995131 1.8439126e-40
6.2996149 -3.2124414 -0.35474014 1.8439126e-40
6.7121162 -3.2415855 -0.30853477 4.6097815e-40
6.6986427 -3.3256042 -0.28949812 4.6097815e-40
6.7007132 -3.2745223 -0.31682143 5.5317378e-40
6.6760869 -3.3544149 -0.27622062 3.6878252e-40
6.6785703 -3.330164 -0.29260615 3.6878252e-40
6.6543112 -3.3852134 -0.27382112 3.6878252e-40
6.6547337 -3.3596756 -0.28161278 4.6097815e-40
6.6518068 -3.3362429 -0.29675013 9.219563e-40
6.6329331 -3.3979168 -0.27305204 7.3756504e-40
6.6198092 -3.3670754 -0.28430885 4.6097815e-40
6.6229534 -3.3426313 -0.30037612 4.6097815e-40
6.5971894 -3.3706403 -0.27981538 4.6097815e-40
6.5880051 -3.3486488 -0.29602495 3.6878252e-40
6.5683169 -3.3756115 -0.27622062 4.6097815e-40
6.5647063 -3.3526604 -0.29312411 3.6878252e-40
6.5516081 -3.3291667 -0.30306253 3.6878252e-40
6.5513349 -3.3039026 -0.31682143 3.6878252e-40
6.5359859 -3.3819704 -0.27622062 2.7658689e-40
6.5354819 -3.3571599 -0.28677866 1.8439126e-40
6.5296726 -3.3334811 -0.30306253 2.7658689e-40
6.5235348 -3.3086441 -0.31313056 1.8439126e-40
6.5115466 -3.2832327 -0.3197082 1.8439126e-40
6.508204 -3.3619897 -0.28405914 1.8439126e-40
6.5018439 -3.3367949 -0.29208726 1.8439126e-40
6.4899611 -3.3132501 -0.30298072 1.8439126e-40
6.4892149 -3.2876248 -0.3197082 1.8439126e-40
6.4689403 -3.343266 -0.29208726 1.8439126e-40
6.4679341 -3.3181272 -0.30574888 1.8439126e-40
6.4554396 -3.2928021 -0.31225923 2.7658689e-40
6.4485192 -3.267134 -0.32259494 1.8439126e-40
6.4398589 -3.3214705 -0.2946763 1.8439126e-40
6.4263525 -3.2982299 -0.31076941 2.7658689e-40
6.3994713 -3.3030772 -0.30853471 1.8439126e-40
6.3681421 -3.3366649 -0.30021262 1.8439126e-40
6.3660331 -3.3099682 -0.31013095 1.8439126e-40
6.3390923 -3.314513 -0.30630007 1.8439126e-40
6.3302188 -3.2904015 -0.32259494 1.8439126e-40
6.3161774 -3.2646675 -0.32548171 2.7658689e-40
6.3183217 -3.2894135 -0.30568343 1.8439126e-40
6.3043861 -3.2647483 -0.31410646 1.8439126e-40
6.2940412 -3.2387552 -0.32464501 1.8439126e-40
6.2751594 -3.2104108 -0.31997669 1.8439126e-40
6.2788877 -3.2424886 -0.32847157 2.7658689e-40
6.7112837 -3.2373519 -0.2861878 3.6878252e-40
6.6976295 -3.3204522 -0.26230311 4.6097815e-40
6.7099218 -3.2629066 -0.26699489 3.6878252e-40
6.679986 -3.3887305 -0.25142133 5.5317378e-40
6.6896524 -3.3475027 -0.25465196 3.6878252e-40
6.6684647 -3.4272161 -0.23767526 5.5317378e-40
6.6641736 -3.3992622 -0.25616735 4.6097815e-40
6.6445417 -3.433162 -0.24398156 4.6097815e-40
6.6323185 -3.4119058 -0.25561309 5.5317378e-40
6.6213956 -3.4375079 -0.24293049 4.6097815e-40
6.6033211 -3.4059298 -0.25277737 4.6097815e-40
6.5831437 -3.4099085 -0.2490615 3.6878252e-40
6.5621247 -3.3725853 -0.25465196 3.6878252e-40
6.5417285 -3.3770213 -0.25680885 2.7658689e-40
6.5236993 -3.3546612 -0.26230311 2.7658689e-40
6.512403 -3.3325584 -0.28111196 2.7658689e-40
6.5073934 -3.3578682 -0.26230311 1.8439126e-40
6.4860606 -3.3080256 -0.27253115 1.8439126e-40
6.4685316 -3.3411868 -0.28111196 1.8439126e-40
6.4556313 -3.3140106 -0.27253118 2.7658689e-40
6.4652176 -3.2835503 -0.27501434 2.7658689e-40
6.4335012 -3.3183632 -0.27253118 1.8439126e-40
6.4209704 -3.2944515 -0.2861878 2.7658689e-40
6.4113712 -3.3227158 -0.27253118 1.8439126e-40
6.3928475 -3.2988834 -0.28060108 2.7658689e-40
6.364933 -3.3043737 -0.28060108 1.8439126e-40
6.3389482 -3.3098509 -0.28246331 1.8439126e-40
6.3285384 -3.2818577 -0.27749756 2.7658689e-40
6.3115931 -3.2270205 -0.28255269 1.8439126e-40
6.3176918 -3.2862096 -0.2887719 1.8439126e-40
6.3039622 -3.2625933 -0.30273122 2.7658689e-40
6.2930431 -3.2336805 -0.29785895 9.219563e-41
6.2747278 -3.2082155 -0.30838886 1.8439126e-40
6.7090969 -3.2587111 -0.24484974 4.6097815e-40
6.6875596 -3.4189103 -0.21455219 6.4536941e-40
6.6676812 -3.4232335 -0.2166543 5.5317378e-40
6.6414227 -3.4283981 -0.21665433 5.5317378e-40
6.611794 -3.4349153 -0.2201578 4.6097815e-40
6.6014214 -3.4027174 -0.21100238 4.6097815e-40
6.5801344 -3.4058902 -0.22563219 3.6878252e-40
6.56112 -3.3674777 -0.2276912 3.6878252e-40
6.5548925 -3.3410342 -0.22423013 3.6878252e-40
6.5336242 -3.3477147 -0.23692115 2.7658689e-40
6.5214624 -3.320698 -0.22989394 1.8439126e-40
6.5122204 -3.353708 -0.24598613 1.8439126e-40
6.5002084 -3.3284779 -0.2481861 1.8439126e-40
6.4986539 -3.2990122 -0.23931345 1.8439126e-40
6.4799337 -3.2758188 -0.25043273 1.8439126e-40
6.4424696 -3.2858257 -0.26384088 2.7658689e-40
6.4548512 -3.2525773 -0.25494885 1.8439126e-40
6.4308872 -3.2859054 -0.25266743 2.7658689e-40
6.392015 -3.2946501 -0.25825414 1.8439126e-40
6.3641 -3.3001404 -0.25825414 2.7658689e-40
6.3619184 -3.2730742 -0.26622322 1.8439126e-40
6.3496881 -3.3304901 -0.250386 1.8439126e-40
6.339385 -3.2775061 -0.26622322 1.8439126e-40
6.3254256 -3.2516568 -0.2686055 1.8439126e-40
6.3081722 -3.194797 -0.27362537 1.8439126e-40
6.291234 -3.2004087 -0.28521323 1.8439126e-40
6.2934914 -3.1670475 -0.27617785 1.8439126e-40
6.7089939 -3.2257097 -0.22473378 4.6097815e-40
6.7207727 -3.1936195 -0.22112584 3.6878252e-40
6.7052031 -3.3317118 -0.1899461 9.219563e-40
6.7076526 -3.2513695 -0.20609576 3.6878252e-40
6.6822615 -3.4141614 -0.18512288 7.3756504e-40
6.6935091 -3.3873551 -0.19200979 6.4536941e-40
6.6714063 -3.4409087 -0.18359976 5.5317378e-40
6.6654563 -3.4174669 -0.18512291 6.4536941e-40
6.6402483 -3.4224248 -0.18512291 4.6097815e-40
6.6191578 -3.4009354 -0.18670949 4.6097815e-40
6.6043015 -3.3940234 -0.18948223 3.6878252e-40
6.5868568 -3.3560495 -0.19533825 4.6097815e-40
6.5754175 -3.3305757 -0.19159614 3.6878252e-40
6.5764818 -3.3602123 -0.20612255 3.6878252e-40
6.5615993 -3.3368611 -0.20972614 3.6878252e-40
6.546236 -3.311506 -0.20794341 1.8439126e-40
6.5227251 -3.2899203 -0.21716835 1.8439126e-40
6.5112443 -3.2620385 -0.21169809 2.7658689e-40
6.4966335 -3.2663779 -0.21914704 1.8439126e-40
6.4787483 -3.2423306 -0.226763 1.8439126e-40
6.4618483 -3.2456546 -0.226763 2.7658689e-40
6.4491973 -3.220598 -0.23447981 2.7658689e-40
6.7035456 -3.3534417 -0.16156949 7.3756504e-40
6.7061439 -3.2750161 -0.18233442 7.3756504e-40
6.6906867 -3.4289119 -0.14190377 9.219563e-40
6.6812825 -3.4091835 -0.15884672 5.5317378e-40
6.6927023 -3.3737471 -0.16600718 6.4536941e-40
6.6698527 -3.4330096 -0.14190377 7.3756504e-40
6.6655273 -3.4122822 -0.15884672 4.6097815e-40
6.6490188 -3.4371073 -0.14190377 4.6097815e-40
6.6378093 -3.4169583 -0.15490529 4.6097815e-40
6.6137867 -3.421011 -0.15148941 3.6878252e-40
6.5951395 -3.3840249 -0.16467926 4.6097815e-40
6.5862541 -3.3529849 -0.17916179 3.6878252e-40
6.5750122 -3.3285146 -0.18071815 3.6878252e-40
6.5748744 -3.3520401 -0.16298531 3.6878252e-40
6.5639391 -3.3296225 -0.17527916 2.7658689e-40
6.5495186 -3.3061302 -0.18390225 2.7658689e-40
6.526917 -3.2820146 -0.18118247 1.8439126e-40
6.5123415 -3.2577918 -0.19121343 1.8439126e-40
6.4900098 -3.2621841 -0.1912134 1.8439126e-40
6.4749866 -3.2380791 -0.20139574 1.8439126e-40
6.4607983 -3.2403152 -0.19857715 2.7658689e-40
6.7025495 -3.3483784 -0.1348429 4.6097815e-40
6.6885343 -3.3998294 -0.1185566 4.6097815e-40
6.70193 -3.3742263 -0.13370675 7.3756504e-40
6.6667633 -3.4310532 -0.12887378 6.4536941e-40
6.6656466 -3.4036415 -0.11505305 4.6097815e-40
6.6398311 -3.4344015 -0.11897097 3.6878252e-40
6.6353703 -3.4114919 -0.1246877 4.6097815e-40
6.616797 -3.4383168 -0.11584375 6.4536941e-40
6.6034431 -3.4175498 -0.12356156 4.6097815e-40
6.5963912 -3.3970697 -0.14430729 3.6878252e-40
6.5825396 -3.3907511 -0.13131811 2.7658689e-40
6.5704117 -3.3483198 -0.13961931 3.6878252e-40
6.5593023 -3.3251832 -0.14808416 1.8439126e-40
6.5479836 -3.301084 -0.15672541 1.8439126e-40
6.5409818 -3.3277161 -0.14264518 1.8439126e-40
6.5294313 -3.303293 -0.14940853 1.8439126e-40
6.5178962 -3.2799759 -0.16180548 1.8439126e-40
6.5084052 -3.2525198 -0.16048643 1.8439126e-40
6.4889688 -3.2568922 -0.16327977 1.8439126e-40
6.4708047 -3.2316914 -0.16475411 2.7658689e-40
6.4584451 -3.207587 -0.17760363 2.7658689e-40
6.459538 -3.2339072 -0.16475411 1.8439126e-40
6.4470778 -3.2098229 -0.17760363 1.8439126e-40
6.689436 -3.3951705 -0.09578383 5.5317378e-40
6.6631775 -3.4003351 -0.09578383 4.6097815e-40
6.6314516 -3.4303064 -0.08978375 4.6097815e-40
6.6474228 -3.4034338 -0.095783859 4.6097815e-40
6.6160202 -3.4343672 -0.094995759 4.6097815e-40
6.6001577 -3.4127302 -0.095783859 5.5317378e-40
6.5842066 -3.4148333 -0.090528622 2.7658689e-40
6.5733299 -3.3785312 -0.1023998 3.6878252e-40
6.5559034 -3.3466461 -0.11661275 2.7658689e-40
6.5403333 -3.347162 -0.10367156 2.7658689e-40
6.529098 -3.3247025 -0.11545016 2.7658689e-40
6.5119572 -3.301331 -0.12197036 2.7658689e-40
6.511332 -3.2758203 -0.13412407 1.8439126e-40
6.5048852 -3.2493646 -0.14093287 2.7658689e-40
6.5069513 -3.3269174 -0.10457214 3.6878252e-40
6.4953008 -3.3035271 -0.1164827 2.7658689e-40
6.4810853 -3.279808 -0.12415873 2.7658689e-40
6.4825535 -3.2537568 -0.14093287 1.8439126e-40
6.4609203 -3.2824669 -0.11751517 3.6878252e-40
6.687191 -3.4111388 -0.048087768 4.6097815e-40
6.6832056 -3.3912256 -0.069507696 4.6097815e-40
6.666357 -3.4152365 -0.048087768 3.6878252e-40
6.6621985 -3.3953571 -0.069507726 4.6097815e-40
6.6356244 -3.424016 -0.061986439 3.6878252e-40
6.6399851 -3.3988991 -0.065303527 1.1985432e-39
6.6044302 -3.4067192 -0.069507696 4.6097815e-40
6.5834236 -3.410851 -0.069507696 4.6097815e-40
6.5724397 -3.3871791 -0.070103414 3.6878252e-40
6.5545373 -3.3396997 -0.079946049 2.7658689e-40
6.5352993 -3.3443325 -0.084259808 2.7658689e-40
6.5196276 -3.3196082 -0.08009661 5.5317378e-40
6.5061407 -3.3227961 -0.082816124 3.6878252e-40
6.4901776 -3.3006475 -0.0967272 3.6878252e-40
6.4745736 -3.2739716 -0.08798831 6.4536941e-40
6.4729562 -3.3057621 -0.10550741 3.6878252e-40
6.4605079 -3.2803693 -0.10644262 3.6878252e-40
6.6868029 -3.409164 -0.037663806 4.6097815e-40
6.6868906 -3.3822281 -0.027465787 3.6878252e-40
6.6684761 -3.4122555 -0.035057798 3.6878252e-40
6.6606321 -3.3873925 -0.027465787 4.6097815e-40
6.6334033 -3.3945577 -0.036662448 4.6097815e-40
6.6032553 -3.4007459 -0.03797631 3.6878252e-40
6.5822487 -3.4048777 -0.03797631 3.6878252e-40
6.5712543 -3.3811543 -0.038301729 3.6878252e-40
6.5544896 -3.3337672 -0.049749963 7.3756504e-40
6.5383244 -3.3369467 -0.049749963 6.4536941e-40
6.5214334 -3.3144372 -0.055621143 6.4536941e-40
6.5040193 -3.2899342 -0.056118652 1.0141519e-39
6.4932561 -3.2931309 -0.061606254 4.6097815e-40
6.4756618 -3.269763 -0.067688629 7.3756504e-40
6.6808558 -3.3792787 -0.0064448602 5.5317378e-40
6.6598487 -3.3834102 -0.0064449189 3.6878252e-40
6.6335902 -3.3885748 -0.0064448602 2.7658689e-40
6.6127186 -3.4175813 -0.0063917921 3.6878252e-40
6.5968289 -3.3958054 -0.0064448602 3.6878252e-40
6.5806823 -3.3969128 0.004065603 4.6097815e-40
6.5721879 -3.3608294 -0.015067731 2.7658689e-40
6.5516219 -3.3286726 -0.020991839 4.6097815e-40
6.5337944 -3.3328862 -0.024586605 2.7658689e-40
6.5205212 -3.3098001 -0.031145733 8.2976067e-40
6.5032015 -3.2857757 -0.034168076 4.6097815e-40
6.4924383 -3.2889726 -0.039655734 3.6878252e-40
6.4802656 -3.2639551 -0.042775344 7.3756504e-40
6.4783902 -3.232589 -0.029198276 3.6878252e-40
6.6796808 -3.3733051 0.02508653 3.6878252e-40
6.696795 -3.348119 0.0041004545 4.6097815e-40
6.6586738 -3.3774366 0.02508653 4.6097815e-40
6.6324153 -3.3826013 0.02508653 8.2976067e-40
6.6117477 -3.4126446 0.019668151 2.7658689e-40
6.5978484 -3.3891046 0.026588017 3.6878252e-40
6.5798988 -3.3929305 0.02508653 3.6878252e-40
6.5689402 -3.3538582 0.014814346 1.8439126e-40
6.5524807 -3.3235521 0.0041715764 1.8439126e-40
6.5365162 -3.3277531 -0.0012205719 1.8439126e-40
6.5282631 -3.3013208 0.004207788 1.8439126e-40
6.513556 -3.2804997 -0.017705157 2.7658689e-40
6.506794 -3.2527459 -0.012325766 4.6097815e-40
6.4998894 -3.2239633 -0.006851376 1.8439126e-40
6.4889317 -3.2272177 -0.012438116 2.7658689e-40
6.6836953 -3.3933656 0.045728151 3.6878252e-40
6.6785059 -3.3673315 0.056617979 3.6878252e-40
6.6732783 -3.3954144 0.045728151 4.6097815e-40
6.6576948 -3.3724587 0.051362775 4.6097815e-40
6.6314363 -3.3776233 0.051362719 3.6878252e-40
6.6069942 -3.3827758 0.049610984 2.7658689e-40
6.5890074 -3.3516042 0.050167955 2.7658689e-40
6.5568647 -3.3173845 0.031132376 1.8439126e-40
6.5451646 -3.291575 0.036841825 2.7658689e-40
6.5334468 -3.265789 0.037171256 1.8439126e-40
6.5346994 -3.295774 0.025963774 1.8439126e-40
6.5232968 -3.2721047 0.015220678 1.8439126e-40
6.5219474 -3.2421396 0.026428163 2.7658689e-40
6.5050559 -3.2207484 0.0043221037 2.7658689e-40
6.5035167 -3.1897614 0.015635472 2.7658689e-40
6.4853425 -3.1642447 0.01577536 2.7658689e-40
6.488307 -3.2240427 0.0043221037 1.8439126e-40
6.6678858 -3.3272064 0.07333684 5.5317378e-40
6.6571074 -3.369472 0.067128502 4.6097815e-40
6.6514592 -3.3413916 0.083604619 4.6097815e-40
6.6357088 -3.3716125 0.077639021 3.6878252e-40
6.6147161 -3.3376641 0.07333684 8.2976067e-40
6.5981646 -3.2997122 0.079661824 1.3829344e-39
6.5884128 -3.3322599 0.061152052 2.7658689e-40
6.5840631 -3.3039007 0.072472237 3.6878252e-40
6.5660954 -3.2831771 0.058597811 2.7658689e-40
6.5545645 -3.2573159 0.059121832 1.8439126e-40
6.543046 -3.2325428 0.054109622 1.8439126e-40
6.5257225 -3.2078888 0.049015906 2.7658689e-40
6.5215349 -3.240042 0.037500747 1.8439126e-40
6.5002022 -3.1856594 0.039794795 1.8439126e-40
6.4833813 -3.1311121 0.033139866 1.8439126e-40
6.6619353 -3.3111382 0.095005721 4.6097815e-40
6.6732016 -3.2828317 0.090446122 3.6878252e-40
6.6739907 -3.2576749 0.080353796 2.7658689e-40
6.6457109 -3.3132772 0.10035105 4.6097815e-40
6.6245432 -3.3184924 0.095005721 2.7658689e-40
6.6083388 -3.294528 0.095838271 3.6878252e-40
6.597086 -3.2685199 0.10210984 3.6878252e-40
6.5811853 -3.2737877 0.091231786 5.5317378e-40
6.5647149 -3.2510006 0.081072412 2.7658689e-40
6.5564933 -3.2229984 0.08917281 2.7658689e-40
6.5424275 -3.2293963 0.070718497 1.8439126e-40
6.5272231 -3.2028825 0.072959043 1.8439126e-40
6.4984984 -3.2618647 0.092047669 1.8439126e-40
6.5085444 -3.232429 0.08917281 1.8439126e-40
6.5025578 -3.2080476 0.071362861 1.8439126e-40
6.4962029 -3.1823258 0.060732853 9.219563e-41
6.4777117 -3.2930691 0.096670814 2.7658689e-40
6.4822512 -3.26614 0.086560011 1.8439126e-40
6.4813633 -3.2403171 0.076254793 1.8439126e-40
6.4858093 -3.2113419 0.071362861 2.7658689e-40
6.4657993 -3.2693756 0.086560011 1.8439126e-40
6.4530816 -3.2426114 0.092863612 2.7658689e-40
6.6292901 -3.2872243 0.11201471 7.3756504e-40
6.617918 -3.2318978 0.12497357 3.6878252e-40
6.6131244 -3.2904036 0.11201471 3.6878252e-40
6.601913 -3.2643595 0.11842686 3.6878252e-40
6.5888071 -3.2383432 0.12131513 3.6878252e-40
6.5716114 -3.2426252 0.11674207 3.6878252e-40
6.559494 -3.2187769 0.107627 2.7658689e-40
6.541307 -3.2478299 0.12058346 1.8439126e-40
6.537364 -3.2231295 0.107627 1.8439126e-40
6.535223 -3.1972258 0.093709819 1.8439126e-40
6.5072265 -3.255559 0.11537028 1.8439126e-40
6.5190597 -3.2274561 0.1039362 2.7658689e-40
6.482244 -3.2603104 0.1161933 1.8439126e-40
6.4603081 -3.2646248 0.1161933 1.8439126e-40
6.4526691 -3.2405138 0.1039362 2.7658689e-40
6.4396882 -3.2127178 0.11046998 2.7658689e-40
6.5951505 -3.2843893 0.16054416 3.6878252e-40
6.5956674 -3.261307 0.14018284 3.6878252e-40
6.5844011 -3.2352507 0.14143649 5.5317378e-40
6.5841885 -3.260354 0.1564998 4.6097815e-40
6.5705891 -3.237427 0.14418031 2.7658689e-40
6.5561371 -3.2114484 0.14822647 2.7658689e-40
6.5386338 -3.2438924 0.14326571 1.8439126e-40
6.5190663 -3.2736974 0.15378033 1.8439126e-40
6.5054736 -3.2509902 0.14033893 1.8439126e-40
6.4863529 -3.2795966 0.1564998 1.8439126e-40
6.4802065 -3.255744 0.14143649 1.8439126e-40
6.4579048 -3.2880459 0.14199585 1.8439126e-40
6.4449978 -3.260149 0.15424097 1.8439126e-40
6.4407787 -3.2384949 0.1260813 2.7658689e-40
6.4274817 -3.2096219 0.13840362 2.7658689e-40
6.4262919 -3.1838741 0.1227418 1.8439126e-40
6.432405 -3.2923474 0.14562181 2.7658689e-40
6.4247537 -3.2634108 0.15789939 1.8439126e-40
6.5945477 -3.2813249 0.17672066 2.7658689e-40
6.5938435 -3.2520335 0.18913378 6.4536941e-40
6.5805588 -3.2562516 0.18097527 2.7658689e-40
6.5684824 -3.2315423 0.17619154 1.8439126e-40
6.5574312 -3.2082887 0.16298991 2.7658689e-40
6.5432487 -3.2626979 0.18550782 1.8439126e-40
6.5466828 -3.2365499 0.17253309 1.8439126e-40
6.5181541 -3.2690609 0.1782558 1.8439126e-40
6.4855423 -3.275475 0.1782558 1.8439126e-40
6.4638009 -3.2797511 0.1782558 1.8439126e-40
6.4479723 -3.2559645 0.17253309 1.8439126e-40
6.4387159 -3.2280066 0.18144423 1.8439126e-40
6.4242377 -3.2323065 0.17406245 2.7658689e-40
6.6002121 -3.2461431 0.21270278 2.7658689e-40
6.6036787 -3.2174215 0.21277575 3.6878252e-40
6.5712914 -3.2521882 0.21088983 1.8439126e-40
6.5606251 -3.2302082 0.19082524 2.7658689e-40
6.5441146 -3.2575333 0.21088983 2.7658689e-40
6.5179033 -3.2900331 0.20907356 2.7658689e-40
6.5169382 -3.2628784 0.21088983 1.8439126e-40
6.4843264 -3.2692926 0.21088983 1.8439126e-40
6.4517145 -3.2757068 0.21088983 2.7658689e-40
6.4454627 -3.2528586 0.19082524 1.8439126e-40
6.427032 -3.2270365 0.19805305 2.7658689e-40
6.4142342 -3.2012341 0.19427097 2.7658689e-40
6.6029305 -3.2408278 0.23699693 2.7658689e-40
6.6024518 -3.2111838 0.24570166 2.7658689e-40
6.5702376 -3.24683 0.2391725 1.8439126e-40
6.5699573 -3.2197344 0.23472634 1.8439126e-40
6.5431013 -3.2523813 0.23808472 1.8439126e-40
6.5124674 -3.2851608 0.23926967 1.8439126e-40
6.5267954 -3.2555883 0.23808478 2.7658689e-40
6.4897552 -3.2892032 0.2414265 1.8439126e-40
