# .PCD v0.7 - Point Cloud Data file format
VERSION 0.7
FIELDS x y z rgb
SIZE 4 4 4 4
TYPE F F F F
COUNT 1 1 1 1
WIDTH 1029
HEIGHT 1
VIEWPOINT 0 0 0 1 0 0 0
POINTS 1029
DATA ascii
5.1673088 -4.7841201 -1.2574774 8.2976067e-40
5.1453395 -4.7650061 -1.2637391 4.6097815e-40
5.1343975 -4.7502284 -1.259321 4.6097815e-40
5.3944168 -4.4018769 -1.2849008 4.6097815e-40
5.3935356 -4.3714094 -1.2950526 3.6878252e-40
5.3926477 -4.3495407 -1.2953945 3.6878252e-40
5.3767395 -4.4374199 -1.2798945 3.6878252e-40
5.378624 -4.4164982 -1.2834953 3.6878252e-40
5.3420639 -4.4447365 -1.2688429 6.4536941e-40
5.346962 -4.4258976 -1.2869798 4.6097815e-40
5.3294988 -4.4475574 -1.2656853 5.5317378e-40
5.3092899 -4.4360647 -1.2860519 3.6878252e-40
5.2786241 -4.4279451 -1.2825353 3.6878252e-40
5.2374506 -4.6637211 -1.237757 3.6878252e-40
5.2288547 -4.7185168 -1.2305915 3.6878252e-40
5.2317286 -4.6922522 -1.2378803 3.6878252e-40
5.2292566 -4.6677356 -1.2465595 2.7658689e-40
5.2267942 -4.6427131 -1.2553618 6.4536941e-40
5.2100382 -4.7658787 -1.2250217 2.7658689e-40
5.2147794 -4.7305961 -1.2340877 2.7658689e-40
5.1915793 -4.7768726 -1.2277434 2.7658689e-40
5.1683722 -4.7501049 -1.2209333 3.6878252e-40
5.1646237 -4.770462 -1.2277809 4.6097815e-40
5.1517758 -4.7555227 -1.2252139 3.6878252e-40
5.4109921 -4.3790655 -1.246475 1.751717e-39
5.3910294 -4.3987827 -1.254248 2.7658689e-40
5.38942 -4.365747 -1.2611288 2.7658689e-40
5.3894176 -4.319437 -1.2566694 3.6878252e-40
5.3745503 -4.4121571 -1.2562244 3.6878252e-40
5.3451777 -4.4390755 -1.2448453 3.6878252e-40
5.3464994 -4.4201393 -1.2575879 2.7658689e-40
5.318984 -4.4457054 -1.2420033 3.6878252e-40
5.3094234 -4.4319668 -1.2657691 4.6097815e-40
5.2863412 -4.436017 -1.2543154 3.6878252e-40
5.2508311 -4.6727743 -1.2116612 1.8439126e-40
5.2290893 -4.71385 -1.2076081 2.7658689e-40
5.2317371 -4.6857271 -1.20938 3.6878252e-40
5.2136235 -4.7548399 -1.20496 4.6097815e-40
5.2089357 -4.7230058 -1.2026548 2.7658689e-40
5.2139063 -4.6991782 -1.2031705 1.8439126e-40
5.1884513 -4.75807 -1.1985978 3.6878252e-40
5.184165 -4.7417641 -1.2009573 3.6878252e-40
5.1603637 -4.7721233 -1.1964694 3.6878252e-40
5.1279688 -4.7566371 -1.1981035 4.6097815e-40
5.4105 -4.377275 -1.2368581 2.7658689e-40
5.3867555 -4.3924794 -1.2274516 3.6878252e-40
5.3905602 -4.3605824 -1.2368973 3.6878252e-40
5.384603 -4.3390379 -1.231901 2.7658689e-40
5.3889136 -4.3176036 -1.2468219 2.7658689e-40
5.3686957 -4.426353 -1.2135851 2.7658689e-40
5.3742571 -4.4065046 -1.2275898 4.6097815e-40
5.3707786 -4.3631072 -1.2223586 3.6878252e-40
5.3596492 -4.3246603 -1.2418982 3.6878252e-40
5.337307 -4.4551964 -1.2090532 3.6878252e-40
5.3469043 -4.433527 -1.2195055 3.6878252e-40
5.3545823 -4.4128666 -1.2323623 8.2976067e-40
5.3234587 -4.4590025 -1.2090532 3.6878252e-40
5.3182573 -4.4430599 -1.2277943 3.6878252e-40
5.3003788 -4.4653454 -1.2090532 5.5317378e-40
5.2991672 -4.4464092 -1.2183214 4.6097815e-40
5.2845249 -4.4330759 -1.2371347 3.6878252e-40
5.2497129 -4.6687059 -1.1898079 2.7658689e-40
5.2515874 -4.6474977 -1.176139 3.6878252e-40
5.2372375 -4.6346807 -1.1821073 2.7658689e-40
5.2268682 -4.7111416 -1.1741549 2.7658689e-40
5.2297964 -4.680933 -1.183681 2.7658689e-40
5.2229223 -4.6559634 -1.1790732 2.7658689e-40
5.2177973 -4.6344171 -1.1857561 2.7658689e-40
5.2099104 -4.7446837 -1.1611983 3.6878252e-40
5.2076015 -4.7245808 -1.1789552 2.7658689e-40
5.2130179 -4.6959462 -1.1858104 3.6878252e-40
5.1842346 -4.7539282 -1.1721268 3.6878252e-40
5.1801567 -4.7365808 -1.1695664 3.6878252e-40
5.162674 -4.760644 -1.1760731 3.6878252e-40
5.1485891 -4.7418513 -1.1736612 2.7658689e-40
5.1300411 -4.7532105 -1.183835 3.6878252e-40
5.1209016 -4.7171931 -1.1782995 4.6097815e-40
5.095984 -4.6902614 -1.176139 5.5317378e-40
5.3862467 -4.3814011 -1.18901 3.6878252e-40
5.3890719 -4.3551683 -1.2078197 2.7658689e-40
5.3694639 -4.3402643 -1.2172488 2.7658689e-40
5.3638005 -4.4432096 -1.1855515 3.6878252e-40
5.370585 -4.421092 -1.1899033 2.7658689e-40
5.3777876 -4.3994818 -1.1973646 2.7658689e-40
5.3484926 -4.4538736 -1.1876552 5.5317378e-40
5.3219595 -4.4655337 -1.1868647 3.6878252e-40
5.2996573 -4.4627199 -1.1949522 2.7658689e-40
5.288168 -4.4427938 -1.1851668 3.6878252e-40
5.2331915 -4.6128812 -1.1626315 2.7658689e-40
5.2282238 -4.5976458 -1.1746743 1.1063476e-39
5.2258654 -4.7059574 -1.1517086 3.6878252e-40
5.226048 -4.6849785 -1.1489202 4.6097815e-40
5.2199802 -4.6508965 -1.1497313 2.7658689e-40
5.2217541 -4.6236496 -1.1600214 2.7658689e-40
5.2193918 -4.6000729 -1.1746743 2.7658689e-40
5.211997 -4.740397 -1.142653 3.6878252e-40
5.2105045 -4.715776 -1.1434904 3.6878252e-40
5.2107973 -4.6878662 -1.1424102 2.7658689e-40
5.1720009 -4.7264676 -1.1453784 2.7658689e-40
5.1519413 -4.7229719 -1.1472764 2.7658689e-40
5.1345224 -4.7105665 -1.1510901 3.6878252e-40
5.1061311 -4.7005806 -1.1519289 3.6878252e-40
5.3920646 -4.4082336 -1.1551698 3.6878252e-40
5.3889022 -4.3910122 -1.1703209 4.6097815e-40
5.377387 -4.4715576 -1.1400491 2.7658689e-40
5.379662 -4.442874 -1.1528953 2.7658689e-40
5.3755751 -4.4149785 -1.1662213 2.7658689e-40
5.3542347 -4.4795218 -1.1480464 3.6878252e-40
5.3639517 -4.459671 -1.1624703 2.7658689e-40
5.3367014 -4.4836664 -1.1446792 3.6878252e-40
5.3141818 -4.4650388 -1.1561351 3.6878252e-40
5.2980881 -4.46176 -1.1528373 3.6878252e-40
5.2282681 -4.6086917 -1.1349525 3.6878252e-40
5.2204475 -4.6989675 -1.12142 3.6878252e-40
5.2194901 -4.6789799 -1.1249061 2.7658689e-40
5.2056618 -4.6495438 -1.1233236 2.7658689e-40
5.2112074 -4.6177158 -1.1328673 2.7658689e-40
5.2170906 -4.5917006 -1.1297066 2.7658689e-40
5.2073011 -4.735189 -1.110199 4.6097815e-40
5.2089701 -4.7126169 -1.1124545 3.6878252e-40
5.2092428 -4.6822104 -1.1120299 3.6878252e-40
5.192966 -4.6174994 -1.1304883 4.6097815e-40
5.177165 -4.7244716 -1.1126575 2.7658689e-40
5.1527343 -4.717577 -1.12142 3.6878252e-40
5.1331902 -4.7057185 -1.1250499 5.5317378e-40
5.122889 -4.724916 -1.1171106 3.6878252e-40
5.1176906 -4.7086263 -1.1182988 2.7658689e-40
5.4055023 -4.4319057 -1.1230353 5.5317378e-40
5.3807497 -4.4659977 -1.1168985 3.6878252e-40
5.389142 -4.4381924 -1.1249435 2.7658689e-40
5.3534679 -4.4734955 -1.1168987 3.6878252e-40
5.3272634 -4.4804659 -1.1157411 3.6878252e-40
5.3032141 -4.4863796 -1.1122686 3.6878252e-40
5.3011265 -4.470088 -1.1282654 3.6878252e-40
5.2184629 -4.6917467 -1.0826354 2.7658689e-40
5.2157145 -4.6684704 -1.0881627 4.6097815e-40
5.2086329 -4.6434398 -1.0969158 3.6878252e-40
5.2044702 -4.6117153 -1.1038232 2.7658689e-40
5.2075863 -4.5832787 -1.1102048 2.7658689e-40
5.2023706 -4.7029142 -1.0861807 3.6878252e-40
5.1886492 -4.732656 -1.0719494 3.6878252e-40
5.1729627 -4.7198691 -1.0846732 3.6878252e-40
5.1458473 -4.7123933 -1.0860831 4.6097815e-40
5.13097 -4.6976385 -1.0816497 2.7658689e-40
5.1091423 -4.6960602 -1.0936264 2.7658689e-40
5.4066105 -4.4533281 -1.0891181 4.6097815e-40
5.4093795 -4.4308729 -1.0985825 3.6878252e-40
5.4044995 -4.3928032 -1.0951756 2.7658689e-40
5.3876801 -4.4632502 -1.0904155 3.6878252e-40
5.3521805 -4.4708252 -1.0892692 3.6878252e-40
5.3247643 -4.4758215 -1.0891181 3.6878252e-40
5.29884 -4.4823279 -1.0860313 2.7658689e-40
5.284585 -4.4696531 -1.103389 2.7658689e-40
5.2175808 -4.6885376 -1.0653979 3.6878252e-40
5.21281 -4.6610188 -1.0623376 3.6878252e-40
5.2118292 -4.638155 -1.0749094 6.4536941e-40
5.2015705 -4.6083245 -1.0727365 3.6878252e-40
5.2018728 -4.5847178 -1.0739466 2.7658689e-40
5.1990314 -4.6958647 -1.0596517 2.7658689e-40
5.1976414 -4.6733561 -1.0518894 2.7658689e-40
5.1879969 -4.7302823 -1.0591995 3.6878252e-40
5.173295 -4.7028179 -1.0564561 3.6878252e-40
5.1718149 -4.6794615 -1.0469294 2.7658689e-40
5.1496472 -4.7063446 -1.0610884 3.6878252e-40
5.1325526 -4.6922789 -1.0570562 3.6878252e-40
5.1139398 -4.6906137 -1.0680296 2.7658689e-40
5.0942264 -4.6669502 -1.0573043 2.7658689e-40
5.0762196 -4.6563034 -1.0690936 3.6878252e-40
5.4274402 -4.4128666 -1.0686134 2.7658689e-40
5.4123487 -4.3849564 -1.0667573 3.6878252e-40
5.405189 -4.4481564 -1.0613376 6.4536941e-40
5.4100409 -4.4195986 -1.067802 3.6878252e-40
5.3887529 -4.4669728 -1.0592556 4.6097815e-40
5.3604074 -4.4774799 -1.0561211 3.6878252e-40
5.3277678 -4.4776587 -1.0578731 3.6878252e-40
5.2972569 -4.4780502 -1.0624951 3.6878252e-40
5.2760115 -4.4623585 -1.055191 2.7658689e-40
5.2066898 -4.6498995 -1.036835 2.7658689e-40
5.2054806 -4.631968 -1.0352979 3.6878252e-40
5.2032881 -4.6052999 -1.0430344 2.7658689e-40
5.2041173 -4.5790586 -1.0487647 2.7658689e-40
5.1913743 -4.6692333 -1.0301697 4.6097815e-40
5.163949 -4.696867 -1.0333852 3.6878252e-40
5.1634932 -4.6777754 -1.0270892 3.6878252e-40
5.1343303 -4.686038 -1.0283294 5.5317378e-40
5.1093082 -4.6803532 -1.0328485 3.6878252e-40
5.0892286 -4.6656795 -1.0441005 2.7658689e-40
5.4111366 -4.380547 -1.0430754 2.7658689e-40
5.4093099 -4.4486923 -1.0295814 3.6878252e-40
5.4119868 -4.4105549 -1.0358551 1.8439126e-40
5.4020762 -4.3839855 -1.0478119 2.7658689e-40
5.4015446 -4.3636475 -1.0510106 2.7658689e-40
5.3777218 -4.4872189 -1.018275 5.5317378e-40
5.3860631 -4.4663877 -1.0259161 5.5317378e-40
5.3600364 -4.4929924 -1.0228366 5.5317378e-40
5.3684797 -4.4730606 -1.0351077 3.6878252e-40
5.3390527 -4.4984546 -1.0213161 3.6878252e-40
5.3162231 -4.486042 -1.028214 3.6878252e-40
5.2946396 -4.4729753 -1.0335571 3.6878252e-40
5.2750568 -4.4588847 -1.0365338 2.7658689e-40
5.2348356 -4.6203756 -1.0176928 3.6878252e-40
5.2243814 -4.6049356 -1.0159107 2.7658689e-40
5.2098517 -4.6517563 -1.0056132 3.6878252e-40
5.2026882 -4.6274476 -1.0088903 4.6097815e-40
5.2066517 -4.6018162 -1.0105203 2.7658689e-40
5.1929841 -4.5731144 -1.0037971 2.7658689e-40
5.1909046 -4.665524 -1.0035292 5.5317378e-40
5.187027 -4.59589 -1.0144155 2.7658689e-40
5.1634417 -4.6728234 -1.0022892 3.6878252e-40
5.1366878 -4.6775765 -1.0056115 2.7658689e-40
5.1105123 -4.6821074 -1.0059 2.7658689e-40
5.4193535 -4.3983927 -1.0028105 1.8439126e-40
5.4098949 -4.4440141 -1.0015548 2.7658689e-40
5.4105349 -4.3964834 -1.0163389 2.7658689e-40
5.3822169 -4.4801989 -0.98938459 2.7658689e-40
5.3878179 -4.4609976 -1.0014049 3.6878252e-40
5.3499494 -4.5069728 -0.98386079 2.7658689e-40
5.3586359 -4.4878969 -0.99546671 4.6097815e-40
5.3670692 -4.467927 -1.0075326 6.4536941e-40
5.3318739 -4.4957085 -0.99774754 2.7658689e-40
5.3119678 -4.4793892 -0.98914915 3.6878252e-40
5.2937679 -4.4769416 -1.0020587 3.6878252e-40
5.2750301 -4.4728017 -1.0057765 6.4536941e-40
5.2001252 -4.639451 -0.97564572 4.6097815e-40
5.1982307 -4.6225038 -0.97808123 3.6878252e-40
5.1996584 -4.5927873 -0.99251622 2.7658689e-40
5.1931105 -4.569253 -0.98468584 1.8439126e-40
5.1893506 -4.6598682 -0.97314894 3.6878252e-40
5.1854281 -4.5900722 -0.98316509 1.8439126e-40
5.1595154 -4.6680679 -0.97314888 3.6878252e-40
5.1321278 -4.6728277 -0.97427827 4.6097815e-40
5.1096087 -4.6747971 -0.98309273 3.6878252e-40
5.0940447 -4.649374 -0.96927863 2.7658689e-40
5.4215136 -4.4032269 -0.97716618 2.7658689e-40
5.4046307 -4.4682536 -0.96049434 2.7658689e-40
5.4131875 -4.4399776 -0.97300673 2.7658689e-40
5.3885899 -4.4909115 -0.9566856 2.7658689e-40
5.3864708 -4.4752235 -0.97037786 3.6878252e-40
5.3922682 -4.4536395 -0.97076577 3.6878252e-40
5.3592463 -4.500185 -0.96272457 2.7658689e-40
5.3619485 -4.4824195 -0.97265863 2.7658689e-40
5.33003 -4.4889994 -0.96171075 3.6878252e-40
5.3112626 -4.4768224 -0.97536159 4.6097815e-40
5.3089066 -4.4939518 -0.95745325 2.7658689e-40
5.2914505 -4.4824514 -0.97628081 2.7658689e-40
5.199007 -4.6353827 -0.95379245 4.6097815e-40
5.1968794 -4.6175871 -0.95167351 2.7658689e-40
5.1923695 -4.5810137 -0.9474504 2.7658689e-40
5.192452 -4.5598469 -0.96054184 2.7658689e-40
5.180954 -4.6449041 -0.94453949 3.6878252e-40
5.1848278 -4.6188431 -0.94140387 2.7658689e-40
5.184433 -4.5883288 -0.95410329 3.6878252e-40
5.1579194 -4.6569347 -0.93981528 2.7658689e-40
5.1256289 -4.653944 -0.94577962 3.6878252e-40
5.0986819 -4.6436934 -0.94727224 2.7658689e-40
5.0737171 -4.6203871 -0.94958818 4.6097815e-40
5.425838 -4.416522 -0.93169522 3.6878252e-40
5.4204745 -4.40242 -0.95413089 2.7658689e-40
5.4093542 -4.4850521 -0.9242726 2.7658689e-40
5.4072361 -4.4631228 -0.93844646 3.6878252e-40
5.4146886 -4.4351177 -0.94244558 3.6878252e-40
5.3932481 -4.4938602 -0.93560374 2.7658689e-40
5.3598423 -4.4947662 -0.93647844 4.6097815e-40
5.3362117 -4.5042849 -0.92784661 3.6878252e-40
5.3202305 -4.4884043 -0.94528896 2.7658689e-40
5.304471 -4.4911699 -0.93746889 2.7658689e-40
5.2823009 -4.4774199 -0.93859476 3.6878252e-40
5.2712398 -4.4590101 -0.93169522 3.6878252e-40
5.2162595 -4.5541124 -0.94084233 2.7658689e-40
5.1957536 -4.6134901 -0.92966706 3.6878252e-40
5.1916838 -4.5785198 -0.93405735 4.6097815e-40
5.1865392 -4.5512829 -0.93339717 2.7658689e-40
5.1808906 -4.5248718 -0.93616569 2.7658689e-40
5.1739798 -4.5071888 -0.93859476 2.7658689e-40
5.1759806 -4.6355848 -0.92319787 3.6878252e-40
5.1780138 -4.6166029 -0.92086452 3.6878252e-40
5.1814175 -4.5919189 -0.91906244 3.6878252e-40
5.1716385 -4.5645742 -0.93184882 3.6878252e-40
5.1545191 -4.6414828 -0.92319787 3.6878252e-40
5.1475325 -4.6240988 -0.91646326 4.6097815e-40
5.1405964 -4.6066637 -0.90954477 4.6097815e-40
5.1330581 -4.6473808 -0.92319787 3.6878252e-40
5.1176515 -4.6337795 -0.92379874 2.7658689e-40
5.1103563 -4.6158619 -0.91397673 2.7658689e-40
5.0868163 -4.6172633 -0.92426872 3.6878252e-40
5.4249868 -4.4224057 -0.90979934 3.6878252e-40
5.408412 -4.482749 -0.90514714 4.6097815e-40
5.4079585 -4.4569874 -0.90879595 2.7658689e-40
5.4120135 -4.43717 -0.91561562 4.6097815e-40
5.3919878 -4.4949245 -0.90000498 3.6878252e-40
5.3623714 -4.503541 -0.89831942 2.7658689e-40
5.3353319 -4.5047092 -0.89974535 3.6878252e-40
5.3034306 -4.4857144 -0.90879595 2.7658689e-40
5.2856388 -4.4719009 -0.9156155 2.7658689e-40
5.2707658 -4.4572859 -0.92243505 2.7658689e-40
5.2118764 -4.5267801 -0.89327687 1.8439126e-40
5.1893997 -4.5702085 -0.88941395 2.7658689e-40
5.1845899 -4.5443697 -0.90146965 1.8439126e-40
5.1871119 -4.5182905 -0.91183704 1.8439126e-40
5.1727905 -4.6145134 -0.90325934 8.2976067e-40
5.1723428 -4.5908489 -0.8931222 2.7658689e-40
5.1394725 -4.6201448 -0.88565421 2.7658689e-40
5.1433525 -4.6030664 -0.89536273 2.7658689e-40
5.1241193 -4.6234827 -0.88125294 5.5317378e-40
5.1071596 -4.6127472 -0.89403313 2.7658689e-40
5.0856986 -4.6139956 -0.89454842 4.6097815e-40
5.4235706 -4.4172535 -0.8821215 2.7658689e-40
5.4124346 -4.4674301 -0.87214065 2.7658689e-40
5.4193573 -4.4483747 -0.88142616 3.6878252e-40
5.3875189 -4.4808021 -0.87307686 2.7658689e-40
5.3587861 -4.5173998 -0.8581636 3.6878252e-40
5.3653145 -4.4989986 -0.87017888 2.7658689e-40
5.332386 -4.5055132 -0.87108332 3.6878252e-40
5.308804 -4.4965148 -0.8751601 3.6878252e-40
5.2900839 -4.483902 -0.88142622 3.6878252e-40
5.2595396 -4.4520273 -0.88076425 2.7658689e-40
5.2114816 -4.5285959 -0.87467319 2.7658689e-40
5.2134609 -4.5031328 -0.87230295 2.7658689e-40
5.2025166 -4.4873834 -0.87884867 2.7658689e-40
5.1910286 -4.5646954 -0.86411607 2.7658689e-40
5.1975031 -4.5451174 -0.87017888 2.7658689e-40
5.1714692 -4.5846457 -0.86569238 4.6097815e-40
5.1407328 -4.6162729 -0.86804909 3.6878252e-40
5.1394424 -4.597599 -0.86269331 2.7658689e-40
5.111083 -4.5990925 -0.86287165 3.6878252e-40
5.0894146 -4.5953031 -0.87750912 3.6878252e-40
5.072794 -4.5746946 -0.87046063 3.6878252e-40
5.0477095 -4.5486856 -0.87230295 7.3756504e-40
5.4314923 -4.4555416 -0.83892649 3.6878252e-40
5.4318032 -4.43856 -0.84949481 2.7658689e-40
5.4125481 -4.4656343 -0.84606344 3.6878252e-40
5.4230766 -4.4418716 -0.85405642 3.6878252e-40
5.3881054 -4.5039783 -0.83137757 2.7658689e-40
5.3912311 -4.4844441 -0.84492886 3.6878252e-40
5.3632154 -4.5114574 -0.83456641 2.7658689e-40
5.3659906 -4.4940538 -0.84641021 3.6878252e-40
5.3449478 -4.5185208 -0.84477061 3.6878252e-40
5.3317509 -4.5019631 -0.83891559 3.6878252e-40
5.3077474 -4.4962626 -0.84871542 2.7658689e-40
5.2884502 -4.4779568 -0.84949481 2.7658689e-40
5.2773628 -4.4594517 -0.84208179 2.7658689e-40
5.2638178 -4.456542 -0.85907376 2.7658689e-40
5.2374644 -4.527575 -0.83741665 1.8439126e-40
5.2155824 -4.5510941 -0.82988948 2.7658689e-40
5.2170482 -4.5290041 -0.84365737 2.7658689e-40
5.1954274 -4.5578251 -0.83584189 2.7658689e-40
5.202826 -4.5397959 -0.85090703 2.7658689e-40
5.1688948 -4.5808506 -0.83446127 2.7658689e-40
5.1340914 -4.5865993 -0.83839077 3.6878252e-40
5.1110382 -4.5872478 -0.84322029 5.5317378e-40
5.0952282 -4.5604286 -0.83791995 4.6097815e-40
5.0906625 -4.5884047 -0.84477061 2.7658689e-40
5.0761213 -4.5550203 -0.84798491 3.6878252e-40
5.0642281 -4.5386658 -0.84493315 2.7658689e-40
5.0516934 -4.521471 -0.84208179 2.7658689e-40
5.0368338 -4.5170689 -0.84981364 3.6878252e-40
5.4415483 -4.4598422 -0.81486398 2.7658689e-40
5.4344158 -4.4305348 -0.81300181 2.7658689e-40
5.4201527 -4.3958344 -0.82057315 2.7658689e-40
5.4162555 -4.469543 -0.8149004 3.6878252e-40
5.3913474 -4.4986176 -0.80905586 3.6878252e-40
5.3952928 -4.4796977 -0.81493282 2.7658689e-40
5.3719964 -4.5041914 -0.8103314 2.7658689e-40
5.3509021 -4.4909973 -0.81043607 4.6097815e-40
5.3334675 -4.4966888 -0.81493282 2.7658689e-40
5.2997837 -4.4869018 -0.81477082 2.7658689e-40
5.2872834 -4.473711 -0.82668668 2.7658689e-40
5.2628822 -4.4597502 -0.8236984 2.7658689e-40
5.2363138 -4.5233889 -0.81493282 1.8439126e-40
5.2377982 -4.4440956 -0.81131297 2.7658689e-40
5.2120504 -4.5496807 -0.81798452 1.8439126e-40
5.2186499 -4.528244 -0.81493282 1.8439126e-40
5.1933894 -4.5548048 -0.80846822 1.8439126e-40
5.2007551 -4.5322614 -0.81043607 1.8439126e-40
5.1801281 -4.5904646 -0.79322731 2.7658689e-40
5.16675 -4.5753536 -0.80489701 2.7658689e-40
5.128293 -4.5709114 -0.80905586 3.6878252e-40
5.0986643 -4.5563068 -0.81413746 2.7658689e-40
5.0675411 -4.5331879 -0.82212502 2.7658689e-40
5.0512228 -4.5197601 -0.83289009 2.7658689e-40
5.4377031 -4.4540472 -0.7830174 2.7658689e-40
5.4283023 -4.4258213 -0.78107047 2.7658689e-40
5.4252319 -4.3967099 -0.79851007 1.8439126e-40
5.4148335 -4.467845 -0.78255612 3.6878252e-40
5.3932734 -4.4915872 -0.77658802 3.6878252e-40
5.3943725 -4.4763489 -0.79694575 1.3829344e-39
5.3656807 -4.4989324 -0.77540171 3.6878252e-40
5.3502116 -4.4884853 -0.79694575 3.6878252e-40
5.3410649 -4.5043917 -0.76887685 3.6878252e-40
5.3298793 -4.4922729 -0.78795218 2.7658689e-40
5.3025193 -4.4984064 -0.78103411 3.6878252e-40
5.2709169 -4.5236702 -0.76887685 1.8439126e-40
5.2761388 -4.5007725 -0.7803793 1.8439126e-40
5.2540655 -4.5309825 -0.78226984 1.8439126e-40
5.238039 -4.513155 -0.77975196 1.8439126e-40
5.2131824 -4.5400734 -0.77155548 1.8439126e-40
5.2188978 -4.522233 -0.78525418 1.8439126e-40
5.1943026 -4.5468702 -0.77959132 2.7658689e-40
5.1816339 -4.5318136 -0.78195655 2.7658689e-40
5.1656938 -4.5673342 -0.77724308 2.7658689e-40
5.1633558 -4.5344357 -0.76996517 2.7658689e-40
5.1269226 -4.5659246 -0.78226984 2.7658689e-40
5.1102629 -4.5705032 -0.78226984 5.5317378e-40
5.0931587 -4.5555286 -0.77895868 2.7658689e-40
5.4361334 -4.4483347 -0.75233561 1.8439126e-40
5.4278355 -4.4241228 -0.77194721 2.7658689e-40
5.4245634 -4.3907032 -0.76091152 1.8439126e-40
5.409842 -4.4801264 -0.74209082 2.7658689e-40
5.4168482 -4.4613485 -0.75287747 4.6097815e-40
5.3935666 -4.4874859 -0.74595982 3.6878252e-40
5.3639498 -4.4954257 -0.74687982 3.6878252e-40
5.3328629 -4.514328 -0.74394643 3.6878252e-40
5.3042622 -4.516984 -0.74564582 2.7658689e-40
5.2807512 -4.5208006 -0.74905497 1.8439126e-40
5.2593594 -4.5035496 -0.74748135 1.8439126e-40
5.2327504 -4.4958267 -0.75679123 1.8439126e-40
5.21278 -4.5351777 -0.74655515 2.7658689e-40
5.2198448 -4.5153093 -0.7519781 1.8439126e-40
5.1908588 -4.5412021 -0.74655515 2.7658689e-40
5.1611481 -4.5625448 -0.74533796 3.6878252e-40
5.1628957 -4.5327616 -0.76097161 2.7658689e-40
5.1322064 -4.5761356 -0.74556422 2.7658689e-40
5.0995755 -4.5659313 -0.74476939 2.7658689e-40
5.0834064 -4.5546074 -0.76097161 2.7658689e-40
5.0851803 -4.5684576 -0.73762649 2.7658689e-40
5.4348392 -4.4418387 -0.72761166 2.7658689e-40
5.4371362 -4.4112148 -0.72024876 1.8439126e-40
5.4315062 -4.3962302 -0.73790908 1.8439126e-40
5.4178987 -4.5083752 -0.70960289 2.7658689e-40
5.4167223 -4.4807744 -0.71679139 3.6878252e-40
5.4239268 -4.4542704 -0.72724587 3.6878252e-40
5.3948507 -4.530509 -0.69883752 2.7658689e-40
5.4005342 -4.5128531 -0.70813584 2.7658689e-40
5.3965683 -4.4990444 -0.72340459 5.5317378e-40
5.3739896 -4.5371904 -0.70357245 2.7658689e-40
5.3710289 -4.5238996 -0.72280681 4.6097815e-40
5.3481245 -4.5438609 -0.70138711 2.7658689e-40
5.3406973 -4.5319414 -0.7213397 3.6878252e-40
5.3188725 -4.5508065 -0.69592369 3.6878252e-40
5.3111467 -4.5385942 -0.71400422 2.7658689e-40
5.2730322 -4.517303 -0.71624607 1.8439126e-40
5.2584391 -4.5002012 -0.72949427 1.8439126e-40
5.2395644 -4.5211124 -0.7130726 1.8439126e-40
5.2390652 -4.502533 -0.73037648 1.8439126e-40
5.2153368 -4.5273237 -0.7108404 2.7658689e-40
5.2125578 -4.5129905 -0.73039365 1.8439126e-40
5.1863523 -4.5388775 -0.71689153 2.7658689e-40
5.1921978 -4.5184059 -0.72949427 2.7658689e-40
5.1753988 -4.5732574 -0.70080036 2.7658689e-40
5.1624928 -4.5591106 -0.71671373 2.7658689e-40
5.1293321 -4.5617304 -0.71715492 2.7658689e-40
5.1033025 -4.5623703 -0.72023165 2.7658689e-40
5.0813355 -4.5470724 -0.72050071 2.7658689e-40
5.0842667 -4.5651331 -0.71976912 2.7658689e-40
5.4507642 -4.4212246 -0.69399226 2.7658689e-40
5.4385452 -4.436296 -0.69552064 2.7658689e-40
5.4192624 -4.518549 -0.67261356 2.7658689e-40
5.4208698 -4.5022707 -0.68319523 2.7658689e-40
5.4225874 -4.474762 -0.6921013 2.7658689e-40
5.4246397 -4.4482222 -0.69801688 3.6878252e-40
5.3975739 -4.5271783 -0.67597717 3.6878252e-40
5.4040308 -4.5086608 -0.69199777 6.4536941e-40
5.3722386 -4.5377426 -0.67702717 2.7658689e-40
5.3468041 -4.5500107 -0.67648119 2.7658689e-40
5.3136854 -4.5487309 -0.67844117 1.8439126e-40
5.2877083 -4.5549951 -0.67407054 1.8439126e-40
5.2786837 -4.5431089 -0.69199777 1.8439126e-40
5.2705398 -4.5597138 -0.67407042 2.7658689e-40
5.2491179 -4.5482969 -0.67732686 2.7658689e-40
5.242723 -4.535409 -0.69385856 1.8439126e-40
5.2153578 -4.5327492 -0.69049054 2.7658689e-40
5.1826925 -4.5659652 -0.67439264 8.2976067e-40
5.18752 -4.5397415 -0.69151855 2.7658689e-40
5.1701756 -4.5711675 -0.68319517 2.7658689e-40
5.1579247 -4.5577841 -0.68921566 3.6878252e-40
5.1300688 -4.5623627 -0.68741143 2.7658689e-40
5.1018944 -4.554925 -0.69298309 3.6878252e-40
5.0804152 -4.5437241 -0.70251364 2.7658689e-40
5.0693107 -4.544795 -0.69262075 2.7658689e-40
5.4493737 -4.4161654 -0.66681707 1.8439126e-40
5.4406796 -4.4897757 -0.64798492 2.7658689e-40
5.4364204 -4.4567313 -0.66173273 3.6878252e-40
5.4404707 -4.42764 -0.6644299 2.7658689e-40
5.4264951 -4.5140076 -0.6508922 3.6878252e-40
5.4327106 -4.4946098 -0.66118878 2.7658689e-40
5.4327917 -4.4775529 -0.66578978 2.7658689e-40
5.4006219 -4.5323715 -0.64880472 2.7658689e-40
5.3730173 -4.5442152 -0.64764678 2.7658689e-40
5.3474445 -4.5512433 -0.64764678 3.6878252e-40
5.3187313 -4.5589762 -0.64685768 2.7658689e-40
5.2896099 -4.5628805 -0.64880472 1.8439126e-40
5.2569723 -4.5588722 -0.65124601 2.7658689e-40
5.2427545 -4.5476961 -0.66559005 3.6878252e-40
5.2346363 -4.5634546 -0.64347589 2.7658689e-40
5.2205796 -4.5515871 -0.65458685 5.5317378e-40
5.209445 -4.5392303 -0.66726708 3.6878252e-40
5.1817913 -4.5626879 -0.65678751 4.6097815e-40
5.1854029 -4.5404491 -0.66145557 2.7658689e-40
5.1708732 -4.5652475 -0.65458685 3.6878252e-40
5.14888 -4.5550466 -0.66313064 2.7658689e-40
5.1295028 -4.559485 -0.65869868 2.7658689e-40
5.1003718 -4.5493841 -0.66322082 3.6878252e-40
5.0812883 -4.5353804 -0.66204274 2.7658689e-40
5.0638642 -4.5315876 -0.6666621 2.7658689e-40
5.0459328 -4.5071583 -0.66246819 2.7658689e-40
5.4532022 -4.4129305 -0.63692731 1.8439126e-40
5.4395537 -4.4856787 -0.62597853 2.7658689e-40
5.442554 -4.4576139 -0.62708449 3.6878252e-40
5.4414091 -4.4224138 -0.63961667 2.7658689e-40
5.4305153 -4.5127215 -0.6197226 3.6878252e-40
5.401298 -4.5303597 -0.61726654 3.6878252e-40
5.3754778 -4.5587749 -0.61296302 3.6878252e-40
5.3741493 -4.5399933 -0.62811667 5.5317378e-40
5.3467841 -4.5624256 -0.61291063 3.6878252e-40
5.3422942 -4.5491829 -0.63028663 2.7658689e-40
5.3137646 -4.555459 -0.62247461 2.7658689e-40
5.2957788 -4.5755801 -0.60860121 1.8439126e-40
5.2864976 -4.5629959 -0.62269163 1.8439126e-40
5.2550445 -4.5665474 -0.61794972 2.7658689e-40
5.2265363 -4.5703912 -0.61808801 3.6878252e-40
5.2068248 -4.5522823 -0.63918239 2.7658689e-40
5.1901484 -4.5695548 -0.6128813 2.7658689e-40
5.1875362 -4.5565262 -0.63390082 2.7658689e-40
5.1612873 -4.5625057 -0.62773907 2.7658689e-40
5.1266651 -4.5476637 -0.62741834 2.7658689e-40
5.1036973 -4.5414677 -0.62825018 2.7658689e-40
5.0790405 -4.5245686 -0.63661039 3.6878252e-40
5.0624962 -4.5170474 -0.63964188 3.6878252e-40
5.0449991 -4.5037608 -0.64422172 2.7658689e-40
5.0332608 -4.489727 -0.65824759 1.8439126e-40
5.463912 -4.4366608 -0.59923196 1.8439126e-40
5.4558268 -4.4234438 -0.61707509 2.7658689e-40
5.4499087 -4.4934406 -0.58927971 2.7658689e-40
5.4470725 -4.4792061 -0.60397214 4.6097815e-40
5.4481859 -4.453969 -0.60078365 2.7658689e-40
5.4465346 -4.4241962 -0.60808152 2.7658689e-40
5.4287715 -4.5067348 -0.58929724 3.6878252e-40
5.40449 -4.5405264 -0.58274478 2.7658689e-40
5.408268 -4.5223613 -0.58688635 3.6878252e-40
5.3799891 -4.557189 -0.58485794 4.6097815e-40
5.346415 -4.5880308 -0.56620532 2.7658689e-40
5.3500319 -4.5690203 -0.58398736 3.6878252e-40
5.3326478 -4.5923815 -0.56903869 4.6097815e-40
5.320632 -4.5751562 -0.58784276 2.7658689e-40
5.2926593 -4.5792799 -0.58662313 1.8439126e-40
5.2635174 -4.5837831 -0.57715529 2.7658689e-40
5.2510128 -4.567317 -0.59556639 2.7658689e-40
5.2432299 -4.5831184 -0.57412601 4.6097815e-40
5.2239857 -4.5732241 -0.58797139 2.7658689e-40
5.2066989 -4.5937338 -0.57699889 3.6878252e-40
5.1992698 -4.5775261 -0.59048027 2.7658689e-40
5.1701808 -4.5777602 -0.58802176 2.7658689e-40
5.139513 -4.5610876 -0.59076828 3.6878252e-40
5.1230731 -4.549715 -0.60108387 2.7658689e-40
5.09723 -4.5474005 -0.60152799 2.7658689e-40
5.0787849 -4.5451856 -0.612625 1.0141519e-39
5.4515591 -4.4119663 -0.57763565 1.8439126e-40
5.4456701 -4.4914551 -0.57354534 2.7658689e-40
5.44383 -4.4730468 -0.56876183 2.7658689e-40
5.446269 -4.4461517 -0.56815648 2.7658689e-40
5.4449239 -4.4183364 -0.57660419 2.7658689e-40
5.427434 -4.5018687 -0.56316006 3.6878252e-40
5.4039283 -4.5426931 -0.55443263 5.5317378e-40
5.4111977 -4.5163422 -0.56084621 3.6878252e-40
5.3787174 -4.5748982 -0.54495561 3.6878252e-40
5.3824148 -4.5557365 -0.55807441 3.6878252e-40
5.3525529 -4.5842772 -0.54382455 2.7658689e-40
5.3490357 -4.5684576 -0.56172454 2.7658689e-40
5.3260789 -4.594779 -0.54897809 2.7658689e-40
5.2985744 -4.6031632 -0.54798305 3.6878252e-40
5.2674913 -4.6057496 -0.54637223 2.7658689e-40
5.2565527 -4.593874 -0.56172454 2.7658689e-40
5.2384439 -4.6161427 -0.54434443 3.6878252e-40
5.2322907 -4.595161 -0.56298542 3.6878252e-40
5.2157259 -4.6188412 -0.54070568 2.7658689e-40
5.2025251 -4.6021986 -0.55727792 2.7658689e-40
5.1764088 -4.6044664 -0.55285412 4.6097815e-40
5.1601748 -4.5870676 -0.56952626 3.6878252e-40
5.1496787 -4.6108084 -0.55025017 2.7658689e-40
5.1312275 -4.5860128 -0.5693658 4.6097815e-40
5.1171708 -4.6130171 -0.55042428 2.7658689e-40
5.1215935 -4.5968018 -0.5651862 2.7658689e-40
5.0769444 -4.5978775 -0.55411446 1.8439126e-40
5.0584745 -4.5943651 -0.5560627 2.7658689e-40
5.4775972 -4.4549541 -0.52474898 1.8439126e-40
5.4697399 -4.4416637 -0.53726435 2.7658689e-40
5.4526057 -4.4117231 -0.5541203 2.7658689e-40
5.4488735 -4.4835272 -0.52340269 3.6878252e-40
5.4452853 -4.4670653 -0.54088706 3.6878252e-40
5.4490156 -4.4374943 -0.54496729 2.7658689e-40
5.4249635 -4.5230112 -0.5233708 3.6878252e-40
5.429368 -4.4958134 -0.53707051 3.6878252e-40
5.4092679 -4.5600586 -0.51277745 4.6097815e-40
5.4103889 -4.5449295 -0.52843106 3.6878252e-40
5.383636 -4.5736723 -0.51744878 3.6878252e-40
5.3855553 -4.553278 -0.53604108 3.6878252e-40
5.3538203 -4.58676 -0.51727551 2.7658689e-40
5.3291163 -4.6001248 -0.5184654 2.7658689e-40
5.3001833 -4.6061716 -0.51498038 2.7658689e-40
5.2671003 -4.6076565 -0.51918489 3.6878252e-40
5.2368464 -4.6178937 -0.51748669 3.6878252e-40
5.211256 -4.6239166 -0.51771593 2.7658689e-40
5.1889443 -4.6193938 -0.50670606 3.6878252e-40
5.1740007 -4.6093616 -0.52576762 2.7658689e-40
5.1434922 -4.6077843 -0.52525216 2.7658689e-40
5.1159582 -4.6086044 -0.52672255 2.7658689e-40
5.1027684 -4.5950232 -0.53046596 2.7658689e-40
5.0795574 -4.5998793 -0.52975953 2.7658689e-40
5.058754 -4.598525 -0.53238368 2.7658689e-40
5.4676018 -4.4524131 -0.49834132 3.6878252e-40
5.4649878 -4.4379997 -0.51244569 2.7658689e-40
5.444006 -4.4820571 -0.50639337 3.6878252e-40
5.4508381 -4.4590769 -0.50861096 3.6878252e-40
5.4461637 -4.4410434 -0.50180906 4.6097815e-40
5.4259748 -4.5508475 -0.48970625 2.7658689e-40
5.4244695 -4.5179935 -0.49763408 3.6878252e-40
5.4320412 -4.492116 -0.49835861 6.4536941e-40
5.4056439 -4.5600443 -0.48897451 3.6878252e-40
5.4126821 -4.5368233 -0.49109501 3.6878252e-40
5.3855152 -4.5767479 -0.48756698 2.7658689e-40
5.3556638 -4.5864053 -0.48638484 2.7658689e-40
5.3307014 -4.6108999 -0.49005049 3.6878252e-40
5.3315344 -4.5926991 -0.48469633 7.3756504e-40
5.2976284 -4.602355 -0.48638484 4.6097815e-40
5.2617259 -4.6284571 -0.48306334 3.6878252e-40
5.2686105 -4.6103296 -0.48638484 3.6878252e-40
5.2452574 -4.6329832 -0.48306334 2.7658689e-40
5.239593 -4.6183043 -0.48638484 2.7658689e-40
5.2115574 -4.6257982 -0.48532957 2.7658689e-40
5.1786289 -4.6186113 -0.48864377 2.7658689e-40
5.1652074 -4.6069784 -0.50179642 3.6878252e-40
5.1584234 -4.6226759 -0.48120636 2.7658689e-40
5.1452975 -4.6113071 -0.49608895 3.6878252e-40
5.1134577 -4.6050549 -0.49618772 1.8439126e-40
5.0911384 -4.6093855 -0.49655673 1.8439126e-40
5.0671167 -4.5987377 -0.50008577 1.8439126e-40
5.0585923 -4.6010804 -0.50008577 2.7658689e-40
5.0267262 -4.5735769 -0.49834132 1.8439126e-40
5.4660563 -4.4648485 -0.4686496 2.7658689e-40
5.474895 -4.4451208 -0.4719336 1.8439126e-40
5.4654589 -4.4329009 -0.48762697 2.7658689e-40
5.4481058 -4.4752002 -0.47329196 8.2976067e-40
5.4497118 -4.4549799 -0.48660454 2.7658689e-40
5.4500628 -4.4381971 -0.49294525 2.7658689e-40
5.4242353 -4.5445175 -0.45570666 4.6097815e-40
5.4240694 -4.5171137 -0.46857774 3.6878252e-40
5.4299746 -4.4893608 -0.47749022 3.6878252e-40
5.4059734 -4.5553064 -0.46341938 2.7658689e-40
5.4159002 -4.5320816 -0.47183242 3.6878252e-40
5.3833857 -4.5737152 -0.46105811 3.6878252e-40
5.3505859 -4.5973206 -0.44952494 4.6097815e-40
5.3555374 -4.5815225 -0.46182558 3.6878252e-40
5.3281565 -4.6043243 -0.45371726 3.6878252e-40
5.3268042 -4.5895472 -0.46246514 4.6097815e-40
5.3033466 -4.610723 -0.45162112 2.7658689e-40
5.2959871 -4.5987005 -0.46588224 3.6878252e-40
5.2710257 -4.6208644 -0.45790955 2.7658689e-40
5.2693872 -4.6050448 -0.46105805 3.6878252e-40
5.2428722 -4.6305423 -0.45629779 1.0141519e-39
5.2453499 -4.6122146 -0.46387213 4.6097815e-40
5.2270737 -4.6312647 -0.44952494 1.1063476e-39
5.2082968 -4.6220455 -0.46211338 3.6878252e-40
5.1787448 -4.6209188 -0.46281368 3.6878252e-40
5.1575537 -4.6195107 -0.46420658 2.7658689e-40
5.1347895 -4.6030579 -0.46860135 2.7658689e-40
5.1109757 -4.5987558 -0.47070032 1.8439126e-40
5.0898151 -4.6045713 -0.47070032 2.7658689e-40
5.0657845 -4.5938902 -0.4740456 2.7658689e-40
5.0522652 -4.5932837 -0.47488195 2.7658689e-40
5.0253749 -4.5686607 -0.4719336 3.6878252e-40
5.4727297 -4.4907084 -0.42760631 3.6878252e-40
5.468214 -4.4628243 -0.44356617 2.7658689e-40
5.470161 -4.4423933 -0.45181346 2.7658689e-40
5.4743629 -4.4244194 -0.45749 1.8439126e-40
5.4559207 -4.5007324 -0.43048286 3.6878252e-40
5.4529309 -4.4809341 -0.4512569 3.6878252e-40
5.4238005 -4.5429354 -0.44720677 3.6878252e-40
5.4303293 -4.5174313 -0.43794516 5.5317378e-40
5.4312196 -4.4891138 -0.45234546 1.1985432e-39
5.40344 -4.550199 -0.43605867 2.7658689e-40
5.4104786 -4.5255146 -0.431595 2.7658689e-40
5.3824301 -4.5666108 -0.43075612 3.6878252e-40
5.3548098 -4.5942936 -0.43031767 3.6878252e-40
5.3578024 -4.5743604 -0.42916515 5.5317378e-40
5.329277 -4.6010756 -0.42848179 3.6878252e-40
5.3025908 -4.6076736 -0.42744607 3.6878252e-40
5.2826004 -4.5963426 -0.43573129 4.6097815e-40
5.2636981 -4.6195202 -0.44114035 2.7658689e-40
5.2664976 -4.5996923 -0.43035901 3.6878252e-40
5.2406549 -4.6271544 -0.42785934 3.6878252e-40
5.2443914 -4.6056356 -0.42970118 5.5317378e-40
5.2157512 -4.6297274 -0.42630607 2.7658689e-40
5.2001247 -4.6206994 -0.44417354 4.6097815e-40
5.1813235 -4.6236687 -0.43319869 2.7658689e-40
5.1504426 -4.6154137 -0.4339847 3.6878252e-40
5.1280727 -4.6034698 -0.43330723 2.7658689e-40
5.112505 -4.6016493 -0.44035634 1.8439126e-40
5.0857491 -4.5989776 -0.43718275 2.7658689e-40
5.0675898 -4.5893383 -0.45379212 2.7658689e-40
5.0538673 -4.59056 -0.44106138 2.7658689e-40
5.0130095 -4.5512109 -0.45749 3.6878252e-40
5.4800577 -4.5189648 -0.40470725 2.7658689e-40
5.4767513 -4.4890785 -0.40810752 3.6878252e-40
5.4754229 -4.4590712 -0.41678342 4.6097815e-40
5.4726434 -4.4369268 -0.42792076 1.8439126e-40
5.4642668 -4.5251198 -0.40439582 2.7658689e-40
5.4352655 -4.5340948 -0.40344593 2.7658689e-40
5.4298682 -4.5171003 -0.41618493 3.6878252e-40
5.407352 -4.5492001 -0.40220872 4.6097815e-40
5.3718562 -4.5780439 -0.38244817 1.0141519e-39
5.3811927 -4.5610204 -0.40308687 8.2976067e-40
5.3561172 -4.5908566 -0.39318612 5.5317378e-40
5.3637805 -4.5672708 -0.40196231 1.1063476e-39
5.3317728 -4.6047473 -0.39384416 5.5317378e-40
5.3050432 -4.6125636 -0.39061511 7.3756504e-40
5.2895956 -4.5893488 -0.41040456 6.4536941e-40
5.2760773 -4.6054859 -0.38803789 4.6097815e-40
5.2632303 -4.5953875 -0.40437442 5.5317378e-40
5.2374167 -4.6173415 -0.39418662 5.5317378e-40
5.2375283 -4.6017799 -0.40102434 6.4536941e-40
5.2111244 -4.6247911 -0.39530456 5.5317378e-40
5.2141147 -4.6067123 -0.39352006 3.6878252e-40
5.1855011 -4.6303782 -0.38803789 5.5317378e-40
5.1704731 -4.6209593 -0.40477645 4.6097815e-40
5.1662169 -4.6353979 -0.38664046 4.6097815e-40
5.1497645 -4.6219997 -0.4026486 4.6097815e-40
5.1271968 -4.6002817 -0.41618493 5.5317378e-40
5.12925 -4.6145244 -0.40045732 4.6097815e-40
5.107604 -4.6041975 -0.40884674 5.5317378e-40
5.0763636 -4.5980148 -0.408941 4.6097815e-40
5.0568838 -4.6006784 -0.40605929 4.6097815e-40
5.050333 -4.587708 -0.42196524 3.6878252e-40
5.4883347 -4.542675 -0.36567897 5.5317378e-40
5.4908462 -4.5223374 -0.37305743 3.6878252e-40
5.4868231 -4.4940195 -0.37908658 5.5317378e-40
5.4767551 -4.5749426 -0.3526881 6.4536941e-40
5.4737363 -4.556715 -0.36630866 5.5317378e-40
5.4665508 -4.5356455 -0.3850778 4.6097815e-40
5.457931 -4.5806684 -0.35544693 8.2976067e-40
5.4382005 -4.55937 -0.36894333 6.4536941e-40
5.4375334 -4.5436206 -0.3850778 5.5317378e-40
5.4152365 -4.5682454 -0.36140385 1.1985432e-39
5.4061193 -4.5509863 -0.37874618 9.219563e-40
5.3825569 -4.5748205 -0.36521295 5.5317378e-40
5.3824687 -4.5574017 -0.378324 1.1063476e-39
5.3657694 -4.6073384 -0.36214688 6.4536941e-40
5.3613009 -4.5926247 -0.36165571 6.4536941e-40
5.3223233 -4.6173844 -0.3526881 5.5317378e-40
5.3293362 -4.6000338 -0.36357769 7.3756504e-40
5.3141956 -4.6196184 -0.3526881 6.4536941e-40
5.3001132 -4.6101074 -0.36498791 7.3756504e-40
5.2643833 -4.6059008 -0.37406358 7.3756504e-40
5.2584901 -4.5897264 -0.36960042 5.5317378e-40
5.2351346 -4.6122603 -0.36567897 4.6097815e-40
5.2420526 -4.5948076 -0.3724145 5.5317378e-40
5.2104321 -4.6190491 -0.36567897 4.6097815e-40
5.1816125 -4.6269698 -0.36567897 4.6097815e-40
5.1592016 -4.6328888 -0.36448118 4.6097815e-40
5.1413975 -4.6233158 -0.37663555 4.6097815e-40
5.1236801 -4.6169996 -0.37141341 4.6097815e-40
5.1024332 -4.6006594 -0.38408059 6.4536941e-40
5.0742631 -4.5934587 -0.37978867 4.6097815e-40
5.0532241 -4.595644 -0.37589347 3.6878252e-40
5.0398102 -4.5827789 -0.38290501 2.7658689e-40
5.0242233 -4.5705223 -0.38997778 2.7658689e-40
5.4987998 -4.5637054 -0.32682404 5.5317378e-40
5.4933143 -4.5425196 -0.3453652 4.6097815e-40
5.4936252 -4.5205984 -0.34708768 5.5317378e-40
5.4753876 -4.6013861 -0.31935146 8.2976067e-40
5.4802456 -4.5812874 -0.33073413 5.5317378e-40
5.4848857 -4.5556574 -0.3466607 8.2976067e-40
5.4619541 -4.6048059 -0.31799066 4.6097815e-40
5.4499111 -4.5879545 -0.33394036 5.5317378e-40
5.424551 -4.5890169 -0.32721436 7.3756504e-40
5.412982 -4.5741677 -0.3404128 8.2976067e-40
5.3787956 -4.6002073 -0.34441158 8.2976067e-40
5.3837242 -4.572392 -0.33660156 6.4536941e-40
5.3619046 -4.6023631 -0.33199686 1.0141519e-39
5.3694983 -4.584033 -0.3299996 5.5317378e-40
5.3311543 -4.6103678 -0.32976866 5.5317378e-40
5.3347573 -4.5963607 -0.34388387 1.1985432e-39
5.3047438 -4.6170368 -0.32682404 5.5317378e-40
5.293108 -4.607029 -0.33999628 5.5317378e-40
5.2664204 -4.6043596 -0.33399591 6.4536941e-40
5.2534089 -4.587461 -0.35130882 5.5317378e-40
5.2360177 -4.6058059 -0.33465597 7.3756504e-40
5.2394466 -4.5907345 -0.34849474 5.5317378e-40
5.2089305 -4.6135859 -0.33633289 5.5317378e-40
5.181159 -4.6264844 -0.33437428 4.6097815e-40
5.152473 -4.6293311 -0.33747625 6.4536941e-40
5.1166792 -4.6194525 -0.3445144 5.5317378e-40
5.0925989 -4.6118321 -0.33670807 8.2976067e-40
5.072392 -4.5954027 -0.35035601 4.6097815e-40
5.0497851 -4.5914121 -0.35003707 3.6878252e-40
5.5015078 -4.5697336 -0.30438074 5.5317378e-40
5.48243 -4.6028242 -0.29312035 6.4536941e-40
5.4886112 -4.5782175 -0.30091831 6.4536941e-40
5.4586396 -4.629077 -0.28167975 8.2976067e-40
5.4589047 -4.610806 -0.29946432 7.3756504e-40
5.4413514 -4.6332898 -0.27899304 6.4536941e-40
5.4258156 -4.6092882 -0.29077464 5.5317378e-40
5.4158936 -4.5944977 -0.30351517 9.219563e-40
5.3948607 -4.5870914 -0.30095994 6.4536941e-40
5.3807044 -4.5767832 -0.30917323 6.4536941e-40
5.3563585 -4.5980873 -0.30302909 5.5317378e-40
5.3641291 -4.5805044 -0.30500796 6.4536941e-40
5.3319745 -4.6047883 -0.30302909 7.3756504e-40
5.2994623 -4.6137238 -0.30302912 7.3756504e-40
5.2760372 -4.6227961 -0.29930785 6.4536941e-40
5.2592807 -4.6098757 -0.3077848 6.4536941e-40
5.239254 -4.6084442 -0.30706155 5.5317378e-40
5.2095037 -4.6134953 -0.306234 5.5317378e-40
5.1795392 -4.6256175 -0.30572751 5.5317378e-40
5.1478596 -4.6279273 -0.30655304 4.6097815e-40
5.1246586 -4.6291909 -0.29860219 7.3756504e-40
5.1152067 -4.6165714 -0.3190639 5.5317378e-40
5.0870719 -4.6106443 -0.31381357 4.6097815e-40
5.0556602 -4.5975103 -0.31621513 4.6097815e-40
5.0236931 -4.574173 -0.31780455 3.6878252e-40
5.5007362 -4.5837936 -0.26628023 5.5317378e-40
5.5001297 -4.5701151 -0.27626175 3.6878252e-40
5.4796982 -4.6339808 -0.26122725 1.1063476e-39
5.4790077 -4.5964861 -0.26627934 7.3756504e-40
5.485332 -4.574182 -0.27626175 4.6097815e-40
5.4651289 -4.6341562 -0.25914615 7.3756504e-40
5.4383159 -4.6357169 -0.25925174 8.2976067e-40
5.4163318 -4.6214476 -0.26463509 7.3756504e-40
5.4057994 -4.614707 -0.26574868 6.4536941e-40
5.3838997 -4.5926247 -0.27737731 6.4536941e-40
5.3581438 -4.5915699 -0.27293271 7.3756504e-40
5.3591862 -4.5785265 -0.28834686 8.2976067e-40
5.3302774 -4.6029434 -0.27273035 7.3756504e-40
5.296299 -4.6090288 -0.27524376 1.0141519e-39
5.2720056 -4.6458368 -0.26219782 4.6097815e-40
5.2758136 -4.6271949 -0.27292451 6.4536941e-40
5.246099 -4.6320915 -0.26876959 9.219563e-40
5.2321663 -4.6126013 -0.28418159 4.6097815e-40
5.220129 -4.6272402 -0.26164657 1.751717e-39
5.2055802 -4.6137772 -0.27994117 5.5317378e-40
5.1773887 -4.6135993 -0.27728277 5.5317378e-40
5.1476188 -4.6226273 -0.27651492 4.6097815e-40
5.1227145 -4.6274872 -0.28742275 4.6097815e-40
5.1085782 -4.6120501 -0.27532858 3.6878252e-40
5.0876131 -4.605741 -0.28537607 5.5317378e-40
5.0602522 -4.6160145 -0.2850627 2.7658689e-40
5.05757 -4.5937037 -0.28776756 3.6878252e-40
5.4993157 -4.5873356 -0.24509609 9.219563e-40
5.4831257 -4.6150255 -0.23034249 4.6097815e-40
5.482501 -4.595459 -0.23909289 5.5317378e-40
5.460228 -4.6233773 -0.23267096 8.2976067e-40
5.4299479 -4.6326118 -0.23357721 9.219563e-40
5.3935184 -4.6118269 -0.23450907 6.4536941e-40
5.3746862 -4.5980077 -0.24338637 5.5317378e-40
5.355895 -4.59306 -0.23977518 6.4536941e-40
5.330821 -4.6066647 -0.24048111 7.3756504e-40
5.3026166 -4.6317024 -0.233621 7.3756504e-40
5.3017182 -4.6158085 -0.23981093 5.5317378e-40
5.2673454 -4.6423297 -0.23828661 6.4536941e-40
5.2776194 -4.6238613 -0.23927692 9.219563e-40
5.2529869 -4.6456685 -0.23525396 8.2976067e-40
5.2414036 -4.6342258 -0.24133164 1.0141519e-39
5.2190061 -4.6314845 -0.2391032 6.4536941e-40
5.1963024 -4.6155071 -0.24947096 6.4536941e-40
5.1768284 -4.6181555 -0.24585958 6.4536941e-40
5.1477814 -4.6248331 -0.24771258 4.6097815e-40
5.1165924 -4.6241055 -0.2463084 4.6097815e-40
5.1024752 -4.611474 -0.26407224 6.4536941e-40
5.0984688 -4.6251965 -0.24270485 5.5317378e-40
5.0785465 -4.6130595 -0.25790465 5.5317378e-40
5.0605626 -4.6127501 -0.25511983 3.6878252e-40
5.478785 -4.606863 -0.19838992 5.5317378e-40
5.4756432 -4.591363 -0.21425594 5.5317378e-40
5.4605722 -4.6190343 -0.2018705 6.4536941e-40
5.432869 -4.6339149 -0.20123711 9.219563e-40
5.4001503 -4.6279354 -0.19570307 8.2976067e-40
5.3876305 -4.6147385 -0.21019877 1.3829344e-39
5.3627281 -4.6144104 -0.19811852 6.4536941e-40
5.3554993 -4.5976849 -0.21544227 1.1063476e-39
5.3330188 -4.616807 -0.20096181 7.3756504e-40
5.3301034 -4.602932 -0.21616708 6.4536941e-40
5.3005843 -4.631114 -0.20328224 6.4536941e-40
5.3065205 -4.61057 -0.21256566 6.4536941e-40
5.286417 -4.6581163 -0.1903296 5.5317378e-40
5.2747679 -4.6399651 -0.20589612 5.5317378e-40
5.268497 -4.6222544 -0.21872979 5.5317378e-40
5.2478523 -4.6429195 -0.20627269 6.4536941e-40
5.2116575 -4.6285467 -0.21434574 5.5317378e-40
5.1795568 -4.6319056 -0.21519488 7.3756504e-40
5.1714182 -4.6156735 -0.21614876 5.5317378e-40
5.1568928 -4.6448221 -0.21577168 4.6097815e-40
5.1434946 -4.6261277 -0.23003303 4.6097815e-40
5.1363087 -4.6403327 -0.21198757 3.6878252e-40
5.1160889 -4.622385 -0.21893872 4.6097815e-40
5.0878325 -4.6271229 -0.21662652 3.6878252e-40
5.0730395 -4.6125197 -0.2288962 5.5317378e-40
5.0677047 -4.6314125 -0.23152542 2.7658689e-40
5.0649648 -4.6155844 -0.23311734 3.6878252e-40
5.4902649 -4.6258583 -0.15603894 4.6097815e-40
5.4797397 -4.6124516 -0.16853085 5.5317378e-40
5.4622049 -4.6368065 -0.15743223 5.5317378e-40
5.4602962 -4.6178455 -0.17415337 6.4536941e-40
5.4324403 -4.6494732 -0.16178703 7.3756504e-40
5.4340467 -4.6294866 -0.17612238 5.5317378e-40
5.4083729 -4.6524096 -0.15778053 6.4536941e-40
5.3976717 -4.6349516 -0.17458889 7.3756504e-40
5.3725138 -4.6340661 -0.16992514 6.4536941e-40
5.360383 -4.6205759 -0.1834915 9.219563e-40
5.332777 -4.6409369 -0.16816376 6.4536941e-40
5.3349681 -4.623517 -0.18176071 9.219563e-40
5.3091331 -4.6478386 -0.17017882 5.5317378e-40
5.3035479 -4.6326361 -0.18048401 6.4536941e-40
5.285542 -4.6595111 -0.16655385 6.4536941e-40
5.2739162 -4.6437974 -0.1807867 4.6097815e-40
5.2614326 -4.6601405 -0.16614866 7.3756504e-40
5.2449837 -4.6441998 -0.18000978 6.4536941e-40
5.2228251 -4.6447754 -0.17462645 5.5317378e-40
5.2087851 -4.632411 -0.18749817 5.5317378e-40
5.1814284 -4.631649 -0.18232022 6.4536941e-40
5.1542592 -4.6358795 -0.18369539 5.5317378e-40
5.1330738 -4.6349244 -0.18053685 4.6097815e-40
5.1168203 -4.6251183 -0.18838024 3.6878252e-40
5.0859632 -4.6194172 -0.18948637 5.5317378e-40
5.0715275 -4.6070185 -0.19934835 8.2976067e-40
5.0653453 -4.6228266 -0.18541011 2.7658689e-40
5.518743 -4.6406603 -0.126626 5.5317378e-40
5.5009608 -4.6476851 -0.13114451 6.4536941e-40
5.4896173 -4.6287823 -0.14513499 1.0141519e-39
5.4687805 -4.6551781 -0.13055526 5.5317378e-40
5.4663711 -4.6381316 -0.14761364 5.5317378e-40
5.4346576 -4.6497083 -0.13633887 6.4536941e-40
5.4080009 -4.6530132 -0.13566896 7.3756504e-40
5.3842673 -4.6498919 -0.13058034 9.219563e-40
5.3665957 -4.6385627 -0.14733395 7.3756504e-40
5.3371587 -4.6380353 -0.14583759 6.4536941e-40
5.3093309 -4.6440516 -0.14482258 7.3756504e-40
5.2914028 -4.6346588 -0.15914844 5.5317378e-40
5.29742 -4.6732817 -0.12819359 6.4536941e-40
5.286778 -4.6582155 -0.14432409 5.5317378e-40
5.2576609 -4.6656656 -0.14548376 5.5317378e-40
5.2320781 -4.6617527 -0.13390744 6.4536941e-40
5.2147617 -4.6479335 -0.14979185 1.0141519e-39
5.1879964 -4.6449852 -0.1426418 5.5317378e-40
5.1732874 -4.6359129 -0.15626654 4.6097815e-40
5.1544394 -4.6404343 -0.152979 7.3756504e-40
5.1266413 -4.6316652 -0.15543149 4.6097815e-40
5.1070762 -4.6216803 -0.15783492 1.0141519e-39
5.0830774 -4.6168256 -0.15999584 4.6097815e-40
5.0604372 -4.6187792 -0.15845966 2.7658689e-40
5.5178785 -4.6531773 -0.11410104 6.4536941e-40
5.4972215 -4.6516767 -0.10510924 6.4536941e-40
5.4681296 -4.652729 -0.10266116 6.4536941e-40
5.432344 -4.6452389 -0.10768805 5.5317378e-40
5.4099321 -4.6530275 -0.1076173 8.2976067e-40
5.3934536 -4.6680121 -0.091262594 6.4536941e-40
5.3793654 -4.6465793 -0.10730955 7.3756504e-40
5.3624001 -4.6381502 -0.12105457 7.3756504e-40
5.3545933 -4.6519933 -0.10034823 6.4536941e-40
5.3415442 -4.6414633 -0.11389821 5.5317378e-40
5.3118248 -4.6645432 -0.10432612 6.4536941e-40
5.3136191 -4.6504869 -0.11571468 5.5317378e-40
5.2923942 -4.6702819 -0.10631511 5.5317378e-40
5.2756677 -4.6611843 -0.11704964 6.4536941e-40
5.2647429 -4.6766863 -0.10034823 6.4536941e-40
5.2558999 -4.6662164 -0.11504716 5.5317378e-40
5.2286568 -4.6647568 -0.11652172 5.5317378e-40
5.1875587 -4.6453142 -0.11906808 6.4536941e-40
5.1651845 -4.6462564 -0.11768081 5.5317378e-40
5.1474128 -4.6374283 -0.12832244 5.5317378e-40
5.1211948 -4.6344638 -0.1235675 4.6097815e-40
5.0811272 -4.6145344 -0.13174643 4.6097815e-40
5.0625567 -4.6126804 -0.13091026 6.4536941e-40
5.0394912 -4.5967226 -0.13209116 2.7658689e-40
5.481379 -4.6242776 -0.086714722 1.0141519e-39
5.4700675 -4.598937 -0.072995357 6.4536941e-40
5.4636908 -4.6457195 -0.076331355 1.0141519e-39
5.4677796 -4.6204739 -0.073667109 8.2976067e-40
5.4619961 -4.6003532 -0.068990432 9.219563e-40
5.4366918 -4.6527572 -0.074422866 7.3756504e-40
5.4306908 -4.6401281 -0.083998837 6.4536941e-40
5.3999648 -4.6615019 -0.067686982 1.9361082e-39
5.4041452 -4.6483669 -0.081677176 8.2976067e-40
5.3894815 -4.6656418 -0.073973812 9.219563e-40
5.3660951 -4.6547318 -0.080577299 1.3829344e-39
5.3404994 -4.654325 -0.081290402 8.2976067e-40
5.3160477 -4.6633668 -0.079629838 7.3756504e-40
5.3050833 -4.645081 -0.07700029 6.4536941e-40
5.2842016 -4.6933165 -0.067686982 5.5317378e-40
5.2883697 -4.6732655 -0.080938317 8.2976067e-40
5.2764845 -4.6954374 -0.067686982 6.4536941e-40
5.2561865 -4.6781535 -0.081162259 5.5317378e-40
5.2298141 -4.6667295 -0.081806205 5.5317378e-40
5.2086015 -4.6452293 -0.098290719 6.4536941e-40
5.187633 -4.6420307 -0.090465128 6.4536941e-40
5.1549854 -4.6436639 -0.090736985 6.4536941e-40
5.1182885 -4.6335921 -0.093306564 4.6097815e-40
5.0974445 -4.6261549 -0.087840021 5.5317378e-40
5.080267 -4.6135206 -0.10289707 4.6097815e-40
5.0576329 -4.6076541 -0.099048801 6.4536941e-40
5.0399389 -4.5975275 -0.10859417 2.7658689e-40
5.0357094 -4.6116643 -0.088987246 2.7658689e-40
5.0219898 -4.5835819 -0.098710895 1.8439126e-40
5.4693341 -4.5922565 -0.057084236 7.3756504e-40
5.4557557 -4.6430221 -0.051969893 1.1063476e-39
5.4554453 -4.6212845 -0.048481189 1.1063476e-39
5.4579482 -4.5979376 -0.051368739 8.2976067e-40
5.4333906 -4.6482248 -0.047254749 6.4536941e-40
5.4407425 -4.6334796 -0.052279666 7.3756504e-40
5.4050531 -4.6558552 -0.046468947 8.2976067e-40
5.4073029 -4.6434608 -0.056232363 6.4536941e-40
5.3803973 -4.6627884 -0.047254778 7.3756504e-40
5.3609238 -4.6569986 -0.06018506 1.1985432e-39
5.3543825 -4.6693087 -0.044111375 1.1985432e-39
5.3391967 -4.6585007 -0.056328375 9.219563e-40
5.31141 -4.6899629 -0.043971743 8.2976067e-40
5.3150549 -4.6632524 -0.048155803 1.1063476e-39
5.303854 -4.6406074 -0.052970681 6.4536941e-40
5.2909141 -4.6875381 -0.048040636 7.3756504e-40
5.2758808 -4.693243 -0.05589918 5.5317378e-40
5.2568517 -4.681438 -0.046784323 6.4536941e-40
5.2343445 -4.6730928 -0.04067957 7.3756504e-40
5.2171006 -4.6603498 -0.057112068 6.4536941e-40
5.2004557 -4.6551104 -0.057334442 6.4536941e-40
5.1837873 -4.6440406 -0.058298513 6.4536941e-40
5.1535659 -4.639287 -0.060775843 7.3756504e-40
5.1334777 -4.6438532 -0.062160108 6.4536941e-40
5.109973 -4.6269717 -0.066914901 6.4536941e-40
5.0965977 -4.6230736 -0.071287036 5.5317378e-40
5.0781288 -4.6123986 -0.071752541 7.3756504e-40
5.0595536 -4.6017537 -0.072218075 8.2976067e-40
