# .PCD v0.7 - Point Cloud Data file format
VERSION 0.7
FIELDS x y z rgb
SIZE 4 4 4 4
TYPE F F F F
COUNT 1 1 1 1
WIDTH 1028
HEIGHT 1
VIEWPOINT 0 0 0 1 0 0 0
POINTS 1028
DATA ascii
6.1709046 -2.2248554 -1.2123969 6.4536941e-40
6.1521058 -2.1940181 -1.2216375 4.6097815e-40
6.1422348 -2.2300804 -1.1965879 4.6097815e-40
6.1352248 -2.1981103 -1.2173786 1.1063476e-39
6.112021 -2.2414834 -1.2092351 5.5317378e-40
6.0869565 -2.24756 -1.2029115 3.6878252e-40
6.0560555 -2.2566202 -1.2029115 3.6878252e-40
6.0309916 -2.2626965 -1.1965879 2.7658689e-40
6.0206432 -2.231277 -1.2152491 1.8439126e-40
6.0100489 -2.1989636 -1.2343844 2.7658689e-40
6.0015655 -2.2355852 -1.2088606 2.7658689e-40
5.9726367 -2.1696107 -1.2344288 2.7658689e-40
6.2654099 -2.2959771 -1.1549972 3.6878252e-40
6.2452464 -2.2681231 -1.1665269 4.6097815e-40
6.2331324 -2.2716751 -1.1665269 3.6878252e-40
6.21099 -2.2426524 -1.1746392 3.6878252e-40
6.1876035 -2.2490053 -1.1721351 9.219563e-40
6.165925 -2.2193172 -1.1776172 5.5317378e-40
6.1444664 -2.2262454 -1.180779 7.3756504e-40
6.1312928 -2.1924081 -1.1833068 3.6878252e-40
6.1103034 -2.2356253 -1.1776172 3.6878252e-40
6.0855827 -2.2428734 -1.1776172 3.6878252e-40
6.0546818 -2.2519336 -1.1776171 3.6878252e-40
6.0237808 -2.2609935 -1.1776172 2.7658689e-40
6.0048966 -2.2652581 -1.1712936 3.6878252e-40
5.9880376 -2.2356956 -1.1896954 2.7658689e-40
5.9707937 -2.2052782 -1.2085639 2.7658689e-40
5.9581761 -2.2089777 -1.2085639 2.7658689e-40
6.2704067 -2.2908082 -1.1365886 6.4536941e-40
6.2520881 -2.2615452 -1.1438028 3.6878252e-40
6.2348514 -2.2288544 -1.1408324 3.6878252e-40
6.2260656 -2.2700059 -1.1479344 4.6097815e-40
6.2103772 -2.2360301 -1.1408324 3.6878252e-40
6.1797843 -2.2449996 -1.1408325 5.5317378e-40
6.1460104 -2.2200668 -1.1523228 3.6878252e-40
6.123661 -2.1895039 -1.1577531 3.6878252e-40
6.1027493 -2.2327509 -1.1523228 2.7658689e-40
6.1111741 -2.1931651 -1.1577531 2.7658689e-40
6.0842085 -2.2381873 -1.1523229 2.7658689e-40
6.0577526 -2.2820385 -1.1470929 2.7658689e-40
6.0532389 -2.2470131 -1.1510581 3.6878252e-40
6.0224066 -2.2563074 -1.1523229 2.7658689e-40
5.9976854 -2.2635553 -1.1523228 1.8439126e-40
5.973815 -2.2334383 -1.1577531 2.7658689e-40
5.9606338 -2.2347324 -1.1449763 2.7658689e-40
5.9560723 -2.2018018 -1.1698334 1.8439126e-40
6.2579656 -2.2170386 -1.1157904 4.6097815e-40
6.2610302 -2.1774375 -1.1080577 3.6878252e-40
6.2550039 -2.2565336 -1.1231446 3.6878252e-40
6.2334909 -2.2242146 -1.1157904 3.6878252e-40
6.2177687 -2.1901217 -1.1080577 3.6878252e-40
6.2090168 -2.2313902 -1.1157904 3.6878252e-40
6.1930475 -2.1973696 -1.1080577 4.6097815e-40
6.1809397 -2.2398744 -1.1170424 4.6097815e-40
6.1664958 -2.2060027 -1.1122735 6.4536941e-40
6.1456666 -2.2143152 -1.1232344 6.4536941e-40
6.1259727 -2.1819708 -1.1236814 7.3756504e-40
6.10395 -2.2254012 -1.1175431 2.7658689e-40
6.109786 -2.1884308 -1.1321994 4.6097815e-40
6.0824909 -2.2323291 -1.1207049 2.7658689e-40
6.05159 -2.2413893 -1.1207049 2.7658689e-40
6.0195904 -2.2512803 -1.1232344 1.8439126e-40
5.9959683 -2.2576973 -1.1207049 1.8439126e-40
5.9724269 -2.228704 -1.1321994 2.7658689e-40
5.9767404 -2.2607901 -1.1080577 2.7658689e-40
5.9553146 -2.2320073 -1.1236814 1.8439126e-40
5.9420524 -2.2007172 -1.144013 2.7658689e-40
6.258244 -2.1397619 -1.1066457 3.6878252e-40
6.2504864 -2.2141931 -1.0907482 4.6097815e-40
6.2340569 -2.2185905 -1.0886613 4.6097815e-40
6.2109013 -2.1895905 -1.0954106 4.6097815e-40
6.2127547 -2.221477 -1.0719666 4.6097815e-40
6.1920171 -2.1938546 -1.089087 3.6878252e-40
6.1672964 -2.2011027 -1.089087 4.6097815e-40
6.1487556 -2.2065387 -1.089087 5.5317378e-40
6.1267815 -2.177021 -1.1002572 4.6097815e-40
6.1033196 -2.2194364 -1.0869792 2.7658689e-40
6.1083975 -2.1836963 -1.1066457 3.6878252e-40
6.078146 -2.2609439 -1.0719666 2.7658689e-40
6.0829482 -2.2262576 -1.0911949 2.7658689e-40
6.0579777 -2.2676971 -1.0761404 2.7658689e-40
6.0625763 -2.2330787 -1.0954106 1.8439126e-40
6.0380359 -2.2752235 -1.0844877 2.7658689e-40
6.0189714 -2.244591 -1.089087 2.7658689e-40
5.9942508 -2.2518392 -1.089087 2.7658689e-40
5.9757099 -2.2572751 -1.089087 2.7658689e-40
5.951961 -2.2282777 -1.1002572 1.8439126e-40
6.2088404 -2.1825607 -1.0574691 3.6878252e-40
6.2055187 -2.1449378 -1.0555382 8.2976067e-40
6.2274094 -2.2521548 -1.06117 4.6097815e-40
6.2120748 -2.2191572 -1.0594456 3.6878252e-40
6.1906433 -2.1891682 -1.0637927 3.6878252e-40
6.1867881 -2.1504297 -1.0555382 5.5317378e-40
6.1600857 -2.1993999 -1.0701163 5.5317378e-40
6.1561484 -2.1615555 -1.0661855 3.6878252e-40
6.1477251 -2.2030239 -1.0701163 6.4536941e-40
6.1264338 -2.1712103 -1.0708704 6.4536941e-40
6.1144891 -2.1345739 -1.0665519 4.6097815e-40
6.1021748 -2.2155311 -1.0659006 2.7658689e-40
6.1059685 -2.175411 -1.0619266 3.6878252e-40
6.0810919 -2.2558815 -1.0510982 2.7658689e-40
6.0859232 -2.2211442 -1.0701163 2.7658689e-40
6.0587702 -2.2628458 -1.0531851 2.7658689e-40
6.0310664 -2.2703385 -1.0500548 2.7658689e-40
6.017941 -2.2410762 -1.0701163 1.8439126e-40
5.9928765 -2.2471528 -1.0637927 1.8439126e-40
5.9743357 -2.2525887 -1.0637927 2.7658689e-40
5.9491158 -2.2231994 -1.0708704 1.8439126e-40
5.9308009 -2.2254844 -1.0555382 3.6878252e-40
5.9259281 -2.1924567 -1.0794621 2.7658689e-40
6.2074661 -2.1778741 -1.0321748 4.6097815e-40
6.2041306 -2.1402032 -1.0299844 4.6097815e-40
6.1857471 -2.1468787 -1.0363729 6.4536941e-40
6.1703849 -2.1887462 -1.0321748 4.6097815e-40
6.1482854 -2.1578622 -1.0363729 4.6097815e-40
6.1295547 -2.1633542 -1.0363729 3.6878252e-40
6.1071281 -2.1328356 -1.0471866 3.6878252e-40
6.0965657 -2.2116618 -1.0384984 3.6878252e-40
6.0917463 -2.1731541 -1.0299844 4.6097815e-40
6.0818839 -2.2510304 -1.028143 2.7658689e-40
6.0831752 -2.2117712 -1.0195277 5.5317378e-40
6.0574098 -2.2582064 -1.028143 2.7658689e-40
6.0268168 -2.2671759 -1.028143 2.7658689e-40
6.0020027 -2.2731917 -1.0218825 2.7658689e-40
5.9895568 -2.2434607 -1.0406063 2.7658689e-40
5.9664383 -2.2485425 -1.0321748 2.7658689e-40
5.9422469 -2.218272 -1.0363729 2.7658689e-40
5.9257131 -2.2235479 -1.0385023 1.8439126e-40
5.9048982 -2.19083 -1.0407315 2.7658689e-40
6.200006 -2.0991104 -1.0149112 6.4536941e-40
6.1868644 -2.1762805 -0.99423337 5.5317378e-40
6.1847057 -2.143328 -1.0172075 3.6878252e-40
6.168324 -2.1817167 -0.99423337 4.6097815e-40
6.150713 -2.152266 -1.0120968 1.1985432e-39
6.1238885 -2.1594453 -1.0086896 3.6878252e-40
6.1123853 -2.127398 -1.0278213 2.3970864e-39
6.0969486 -2.1677725 -1.0108191 6.4536941e-40
6.0744052 -2.2481847 -1.0031009 2.7658689e-40
6.0779099 -2.209074 -0.99844903 4.6097815e-40
6.0557094 -2.2524064 -0.99684042 2.7658689e-40
6.0251164 -2.2613759 -0.99684042 1.8439126e-40
5.9945235 -2.2703457 -0.99684042 2.7658689e-40
5.9754877 -2.2734077 -0.98431933 2.7658689e-40
5.9585404 -2.2444971 -1.0005569 2.7658689e-40
5.941206 -2.2147212 -1.0172075 2.7658689e-40
5.9272957 -2.2523851 -0.99423337 2.7658689e-40
5.9224749 -2.2202132 -1.0172075 2.7658689e-40
5.8904557 -2.1490788 -1.0126278 2.7658689e-40
5.9090986 -2.2589931 -1.0005569 2.7658689e-40
6.1880083 -2.1725523 -0.9773705 3.6878252e-40
6.1763802 -2.1380568 -0.97887695 4.6097815e-40
6.1579962 -2.144732 -0.98526537 5.5317378e-40
6.1384954 -2.1113002 -0.98586321 4.6097815e-40
6.110281 -2.1202223 -0.98909074 1.0141519e-39
6.089664 -2.1660523 -0.9916538 3.6878252e-40
6.0846958 -2.126425 -0.98263568 1.0141519e-39
6.0684099 -2.2071941 -0.97526264 2.7658689e-40
6.0768299 -2.1685297 -0.98526537 2.7658689e-40
6.052083 -2.2475917 -0.9676246 2.7658689e-40
6.055706 -2.2096465 -0.96893907 2.7658689e-40
6.023416 -2.2555766 -0.96553785 1.8439126e-40
5.9928231 -2.2645464 -0.96553779 2.7658689e-40
5.9741273 -2.2687681 -0.95927721 2.7658689e-40
5.9547629 -2.2407699 -0.97652733 2.7658689e-40
5.9269834 -2.2124643 -0.98526537 1.8439126e-40
5.9084015 -2.1794126 -0.9890908 1.8439126e-40
5.8890381 -2.1442442 -0.98653364 2.7658689e-40
5.8837104 -2.1102111 -1.0100707 2.7658689e-40
6.1841164 -2.1669075 -0.94364476 4.6097815e-40
6.1753387 -2.1345057 -0.95971161 4.6097815e-40
6.1625047 -2.1369832 -0.95332319 1.3829344e-39
6.1422915 -2.1047757 -0.95896697 4.6097815e-40
6.1235199 -2.0702446 -0.96043938 1.751717e-39
6.1088786 -2.115438 -0.96327037 5.5317378e-40
6.0980172 -2.0777218 -0.96043938 4.6097815e-40
6.0769844 -2.1234908 -0.9568153 1.1985432e-39
6.0788903 -2.0833299 -0.96043938 2.5814776e-39
6.0666924 -2.2013359 -0.94364476 4.6097815e-40
6.0754414 -2.1637952 -0.95971161 3.6878252e-40
6.0465298 -2.2437611 -0.94049567 2.7658689e-40
6.0543323 -2.2049599 -0.94364476 1.8439126e-40
6.0265169 -2.2848697 -0.93102312 1.8439126e-40
6.0342927 -2.247349 -0.94049567 2.7658689e-40
6.0144029 -2.2884214 -0.93102312 2.7658689e-40
5.9914627 -2.2599065 -0.94049567 1.8439126e-40
5.9669886 -2.2670825 -0.94049567 1.8439126e-40
5.9430885 -2.2375762 -0.94364476 1.8439126e-40
5.9261498 -2.2408462 -0.93521333 2.7658689e-40
5.9193516 -2.2095604 -0.95971161 2.7658689e-40
6.1765623 -2.1640332 -0.9183504 6.4536941e-40
6.1415834 -2.0610106 -0.94086874 5.5317378e-40
6.1607695 -2.1310654 -0.921381 6.4536941e-40
6.1224566 -2.0666184 -0.94086874 9.219563e-40
6.0969539 -2.0740957 -0.94086874 1.0141519e-39
6.068922 -2.1193604 -0.9245398 6.4536941e-40
6.077827 -2.0797038 -0.94086874 7.3756504e-40
6.0649748 -2.195478 -0.91202682 8.2976067e-40
6.0737062 -2.1578772 -0.92776942 6.4536941e-40
6.047719 -2.2364845 -0.90606278 2.7658689e-40
6.052958 -2.2002735 -0.9183504 2.7658689e-40
6.0203552 -2.2451372 -0.9091931 1.8439126e-40
6.0073361 -2.2867527 -0.9124307 3.6878252e-40
5.9884024 -2.2540019 -0.90668887 1.8439126e-40
5.9652882 -2.2612827 -0.9091931 1.8439126e-40
5.9410272 -2.2305467 -0.90570325 2.7658689e-40
5.9469323 -2.2666647 -0.90919304 1.8439126e-40
5.9228301 -2.2371542 -0.91202682 1.8439126e-40
5.9039459 -2.2414188 -0.90570325 2.7658689e-40
6.139812 -2.0549674 -0.90825099 6.4536941e-40
6.1206846 -2.0605752 -0.90825099 5.5317378e-40
6.0951824 -2.0680525 -0.90825099 5.5317378e-40
6.0712576 -2.0340016 -0.90459841 5.5317378e-40
6.0685463 -2.0763874 -0.91086036 4.6097815e-40
6.0598311 -2.1568038 -0.90221566 3.6878252e-40
6.0545516 -2.11708 -0.89226431 3.6878252e-40
6.0492477 -2.2303679 -0.87789041 2.7658689e-40
6.0324039 -2.2712975 -0.87214714 1.8439126e-40
6.0128765 -2.2422915 -0.88415092 1.8439126e-40
6.004643 -2.2775667 -0.86285096 2.7658689e-40
5.9884019 -2.2494671 -0.88415092 2.7658689e-40
5.9804149 -2.2846701 -0.86285096 2.7658689e-40
5.9616613 -2.2564678 -0.87997723 2.7658689e-40
5.94034 -2.2282033 -0.89305609 3.6878252e-40
5.9448919 -2.2597051 -0.87162989 2.7658689e-40
5.9276361 -2.2306557 -0.88673252 2.7658689e-40
5.9096379 -2.1995549 -0.89582723 2.7658689e-40
5.8901734 -2.1639764 -0.88580924 2.7658689e-40
5.8851404 -2.1309488 -0.91477454 2.7658689e-40
6.1342506 -2.010227 -0.87823033 6.4536941e-40
6.1192675 -2.0557406 -0.88215673 8.2976067e-40
6.114923 -2.0158937 -0.87823033 6.4536941e-40
6.0997858 -2.0601399 -0.87563318 6.4536941e-40
6.0766258 -2.0284486 -0.88482237 5.5317378e-40
6.0572982 -2.0341153 -0.88482237 3.6878252e-40
6.0487809 -2.0750945 -0.87563318 4.6097815e-40
6.042109 -2.228682 -0.85910887 9.219563e-40
6.046433 -2.1894634 -0.85511464 3.6878252e-40
6.0221405 -2.2699425 -0.85045606 2.7658689e-40
6.0253391 -2.2319195 -0.85076147 2.7658689e-40
6.003633 -2.274122 -0.84425855 2.7658689e-40
5.9757037 -2.2820613 -0.84301907 2.7658689e-40
5.9564486 -2.2537973 -0.85910887 2.7658689e-40
5.9396791 -2.2570348 -0.85076147 2.7658689e-40
5.91682 -2.2281015 -0.85827643 1.8439126e-40
5.9008546 -2.2308743 -0.84879106 2.7658689e-40
6.1138487 -2.0122294 -0.85845429 4.6097815e-40
6.0987229 -2.056514 -0.85606253 5.5317378e-40
6.0789871 -2.0221856 -0.85713589 6.4536941e-40
6.0601149 -2.0665212 -0.84953898 4.6097815e-40
6.0517464 -2.107512 -0.84062356 6.4536941e-40
6.0400686 -2.2217226 -0.82154572 3.6878252e-40
6.0478053 -2.1826994 -0.8234967 3.6878252e-40
6.015594 -2.2288978 -0.82154578 2.7658689e-40
5.9958925 -2.2701569 -0.81327116 2.7658689e-40
5.9716649 -2.2772601 -0.81327128 1.8439126e-40
5.9392819 -2.2519026 -0.82467598 2.7658689e-40
5.9180212 -2.2207518 -0.8234967 1.8439126e-40
5.8961115 -2.2633002 -0.81841546 2.7658689e-40
5.8998241 -2.2273595 -0.82982028 3.6878252e-40
6.1281919 -1.9631107 -0.84095514 8.2976067e-40
6.1120582 -2.0061226 -0.82549423 6.4536941e-40
6.0836291 -2.0148368 -0.82737768 4.6097815e-40
6.0628295 -2.0600376 -0.82127023 4.6097815e-40
6.0546255 -2.1390495 -0.80638915 4.6097815e-40
6.0383677 -2.2159228 -0.79024309 4.6097815e-40
6.0464315 -2.1780128 -0.7982024 3.6878252e-40
6.0223627 -2.2557452 -0.78021801 2.7658689e-40
6.0264707 -2.2206707 -0.7965036 2.7658689e-40
6.0027494 -2.29603 -0.77250654 2.7658689e-40
6.00666 -2.2620118 -0.78848135 2.7658689e-40
5.982759 -2.3018911 -0.77250654 2.7658689e-40
5.962018 -2.2742696 -0.78434962 2.7658689e-40
5.9311228 -2.2467368 -0.78711283 1.8439126e-40
5.9169903 -2.2172368 -0.80452597 2.7658689e-40
5.8919263 -2.2233133 -0.7982024 2.7658689e-40
6.1379194 -2.0327709 -0.79517597 5.5317378e-40
6.1362114 -2.0684605 -0.7696175 4.6097815e-40
6.1135974 -2.0364022 -0.77777982 4.6097815e-40
6.1106257 -2.0012374 -0.79912615 4.6097815e-40
6.086206 -2.0453084 -0.78212887 6.4536941e-40
6.0912981 -2.0069041 -0.79912615 4.6097815e-40
6.0771708 -2.1234417 -0.76167005 4.6097815e-40
6.0678673 -2.0923955 -0.78898281 3.6878252e-40
6.0703855 -2.054322 -0.80387408 3.6878252e-40
6.061142 -2.2029474 -0.75894052 2.7658689e-40
6.0632544 -2.166719 -0.76658452 6.4536941e-40
6.0653777 -2.1294701 -0.77444696 3.6878252e-40
6.0409818 -2.244467 -0.75129652 2.7658689e-40
6.045279 -2.2092781 -0.76728785 2.7658689e-40
6.0218506 -2.2871373 -0.75614327 2.7658689e-40
6.0250545 -2.2499683 -0.75542814 1.8439126e-40
6.0038595 -2.2924123 -0.75614327 2.7658689e-40
5.9985828 -2.2568982 -0.75129652 1.8439126e-40
5.9738741 -2.3012037 -0.75614327 1.8439126e-40
5.9685674 -2.266696 -0.75625449 1.8439126e-40
5.944407 -2.2740295 -0.75749397 2.7658689e-40
5.9207544 -2.245368 -0.76520103 1.8439126e-40
5.8898215 -2.2531779 -0.75894052 2.7658689e-40
5.8934708 -2.2171352 -0.7697463 1.8439126e-40
6.122191 -2.0673764 -0.74379712 3.6878252e-40
6.1128883 -2.0339847 -0.76473272 4.6097815e-40
6.1007566 -2.1113849 -0.73611635 3.6878252e-40
6.1036158 -2.0741212 -0.75025225 4.6097815e-40
6.0859141 -2.1524413 -0.72864306 4.6097815e-40
6.0827203 -2.1192439 -0.7488932 6.4536941e-40
6.0626707 -2.196831 -0.73076814 7.3756504e-40
6.0680604 -2.1602204 -0.74129021 6.4536941e-40
6.043673 -2.2386904 -0.72650659 2.7658689e-40
6.0478845 -2.2030554 -0.74015892 2.7658689e-40
6.0283465 -2.2759728 -0.71012169 1.8439126e-40
6.023932 -2.246141 -0.73476988 1.8439126e-40
6.0056868 -2.3156452 -0.70020312 1.8439126e-40
5.9975729 -2.2534537 -0.7327041 1.8439126e-40
5.9748015 -2.2257428 -0.74641943 1.8439126e-40
5.9712076 -2.2921085 -0.7070536 1.8439126e-40
5.9695091 -2.2609334 -0.72898567 1.8439126e-40
5.9496627 -2.3000717 -0.71523523 1.8439126e-40
5.9309464 -2.2729883 -0.7327041 2.7658689e-40
5.9132757 -2.2425222 -0.74015892 1.8439126e-40
5.9178224 -2.2730951 -0.71411175 2.7658689e-40
5.8913507 -2.2470615 -0.73076814 1.8439126e-40
5.8950148 -2.2109568 -0.74129021 1.8439126e-40
6.1243429 -2.0993278 -0.71056259 4.6097815e-40
6.1034241 -2.1434903 -0.70967227 4.6097815e-40
6.1122031 -2.1041727 -0.71695101 4.6097815e-40
6.0870581 -2.1487129 -0.71178013 6.4536941e-40
6.0678029 -2.1894057 -0.70134366 3.6878252e-40
6.0500655 -2.230581 -0.69551933 3.6878252e-40
6.034061 -2.3024352 -0.67589611 2.7658689e-40
6.0382857 -2.2691493 -0.69069034 2.7658689e-40
6.0147047 -2.3097408 -0.68399847 2.7658689e-40
6.0020809 -2.2789412 -0.68659955 1.8439126e-40
5.9762044 -2.2869396 -0.68864495 1.8439126e-40
5.9634533 -2.3255827 -0.68804961 2.7658689e-40
5.946219 -2.2957313 -0.68864495 1.8439126e-40
5.9285898 -2.2649505 -0.68932188 3.6878252e-40
5.9168124 -2.2696505 -0.69551933 1.8439126e-40
5.8928795 -2.2409444 -0.70259577 1.8439126e-40
6.1391315 -2.1279318 -0.68437797 5.5317378e-40
6.1169515 -2.1346896 -0.68564272 5.5317378e-40
6.0992107 -2.1741507 -0.67129314 4.6097815e-40
6.0900331 -2.1435995 -0.69070154 4.6097815e-40
6.0714731 -2.1837947 -0.67880577 3.6878252e-40
6.0528336 -2.2595339 -0.66410011 6.4536941e-40
6.0604963 -2.2212882 -0.66453201 1.1985432e-39
6.0386796 -2.2961905 -0.65158904 3.6878252e-40
6.0351753 -2.2659457 -0.67023629 3.6878252e-40
6.009315 -2.3060229 -0.65766579 2.7658689e-40
5.9748712 -2.282392 -0.66410011 1.8439126e-40
5.9568801 -2.287667 -0.66410011 1.8439126e-40
5.9336367 -2.2597296 -0.67072946 1.8439126e-40
5.9095345 -2.229763 -0.67129314 2.7658689e-40
5.9158025 -2.2662055 -0.67692691 2.7658689e-40
5.8915191 -2.2363048 -0.67755365 1.8439126e-40
6.1614475 -2.1124823 -0.64011294 4.6097815e-40
6.1400003 -2.1546335 -0.63372999 7.3756504e-40
6.1435938 -2.1202617 -0.65276009 4.6097815e-40
6.1472354 -2.0849037 -0.67223197 4.6097815e-40
6.1251025 -2.194864 -0.62734717 4.6097815e-40
6.120512 -2.1637068 -0.65042472 4.6097815e-40
6.1257405 -2.1280408 -0.66540724 5.5317378e-40
6.1012115 -2.2031157 -0.63354462 4.6097815e-40
6.1003432 -2.1704597 -0.65459841 7.3756504e-40
6.0864825 -2.2410254 -0.62114662 5.5317378e-40
6.0776572 -2.2125158 -0.64593959 4.6097815e-40
6.0586953 -2.2838011 -0.61917967 5.5317378e-40
6.059607 -2.2530208 -0.64160067 5.5317378e-40
6.0373592 -2.291687 -0.62728202 3.6878252e-40
6.0076642 -2.3003938 -0.62728196 2.7658689e-40
5.9760532 -2.3400049 -0.60929269 2.7658689e-40
5.9792891 -2.309202 -0.6297127 1.8439126e-40
5.9570179 -2.3146315 -0.62424362 2.7658689e-40
5.9392209 -2.2866714 -0.63341904 2.7658689e-40
5.9262333 -2.2569127 -0.64593959 2.7658689e-40
5.9088545 -2.2274432 -0.65877211 2.7658689e-40
5.9185638 -2.2902586 -0.62114662 1.8439126e-40
5.9073892 -2.259944 -0.63354462 1.8439126e-40
5.888731 -2.2313278 -0.64875525 1.8439126e-40
6.1644225 -2.1073689 -0.61903435 5.5317378e-40
6.1393199 -2.1523139 -0.62120897 3.6878252e-40
6.1480565 -2.1125915 -0.62114221 5.5317378e-40
6.1340756 -2.188077 -0.60668886 4.6097815e-40
6.1185246 -2.2605536 -0.59082144 4.6097815e-40
6.1158013 -2.2299602 -0.60887414 6.4536941e-40
6.0947685 -2.2675188 -0.59082144 3.6878252e-40
6.0918131 -2.2369933 -0.60887414 5.5317378e-40
6.0654035 -2.2773511 -0.5968982 3.6878252e-40
6.0335717 -2.3182967 -0.58521628 6.4536941e-40
6.0377984 -2.2858524 -0.5989238 5.5317378e-40
6.0181026 -2.3236392 -0.58922905 1.8439126e-40
6.0004048 -2.2976313 -0.60297495 2.7658689e-40
5.9982762 -2.3286455 -0.58521628 2.7658689e-40
5.9763188 -2.3034706 -0.5968982 1.8439126e-40
5.9525628 -2.3104358 -0.5968982 1.8439126e-40
5.9295583 -2.2833312 -0.60273796 1.8439126e-40
5.9175639 -2.2868478 -0.60273796 1.8439126e-40
5.8999853 -2.2571266 -0.60875475 1.8439126e-40
5.8819995 -2.2264996 -0.61494845 1.8439126e-40
6.1823053 -2.1656227 -0.56537247 3.6878252e-40
6.1739907 -2.1345901 -0.58364582 4.6097815e-40
6.1551142 -2.2085567 -0.55978447 6.4536941e-40
6.1605458 -2.1736655 -0.5736357 6.4536941e-40
6.1563153 -2.1422923 -0.59616685 6.4536941e-40
6.1402998 -2.2468333 -0.55436087 5.5317378e-40
6.1360126 -2.2174494 -0.57614768 4.6097815e-40
6.1412535 -2.182647 -0.59016234 5.5317378e-40
6.1181068 -2.2870519 -0.55311441 5.5317378e-40
6.1196237 -2.2569711 -0.57461673 6.4536941e-40
6.0969729 -2.2948637 -0.56113976 5.5317378e-40
6.0734425 -2.3017628 -0.56113976 4.6097815e-40
6.0440292 -2.3103867 -0.56113976 3.6878252e-40
6.014616 -2.3190105 -0.56113976 2.7658689e-40
5.9890156 -2.3261127 -0.55913341 2.7658689e-40
5.972909 -2.2991722 -0.57056558 1.8439126e-40
5.9484615 -2.3058746 -0.56825054 1.8439126e-40
5.9275584 -2.27651 -0.56592065 1.8439126e-40
5.9105668 -2.2851956 -0.58432931 1.8439126e-40
5.89819 -2.2510026 -0.57570165 1.8439126e-40
5.8796191 -2.2183802 -0.57112479 2.7658689e-40
6.204308 -2.2231755 -0.53005385 4.6097815e-40
6.1900969 -2.1945961 -0.54137582 4.6097815e-40
6.1755753 -2.1651022 -0.55297756 4.6097815e-40
6.168674 -2.2336233 -0.53005385 4.6097815e-40
6.1721053 -2.1998711 -0.54137582 4.6097815e-40
6.1479549 -2.2726493 -0.52502513 4.6097815e-40
6.1532769 -2.2397678 -0.53815615 4.6097815e-40
6.1335125 -2.309835 -0.51999646 4.6097815e-40
6.1219735 -2.2820837 -0.5340538 6.4536941e-40
6.0953383 -2.2892873 -0.53104424 5.5317378e-40
6.0718074 -2.2961864 -0.53104424 4.6097815e-40
6.0423946 -2.3048105 -0.53104419 3.6878252e-40
6.0129809 -2.3134341 -0.53104424 2.7658689e-40
5.9835682 -2.3220582 -0.53104419 1.8439126e-40
5.9456325 -2.2999964 -0.53491527 1.8439126e-40
5.926558 -2.2730992 -0.54751205 2.7658689e-40
5.9138975 -2.2743421 -0.53523964 2.7658689e-40
5.9026756 -2.2438686 -0.54678011 2.7658689e-40
5.8850574 -2.2142663 -0.5586037 1.8439126e-40
5.8723488 -2.1794326 -0.55158281 1.8439126e-40
6.1970487 -2.2204134 -0.50574678 3.6878252e-40
6.1950936 -2.1894271 -0.52296716 5.5317378e-40
6.1719728 -2.2272763 -0.50331604 4.6097815e-40
6.1771026 -2.1947021 -0.52296716 4.6097815e-40
6.1490483 -2.2980831 -0.48422775 4.6097815e-40
6.1525297 -2.2664638 -0.50094873 4.6097815e-40
6.156136 -2.234854 -0.51790029 1.1063476e-39
6.1322174 -2.3054171 -0.49615064 4.6097815e-40
6.1046581 -2.3131542 -0.49444738 4.6097815e-40
6.0940304 -2.2848268 -0.50696784 5.5317378e-40
6.0756807 -2.3211937 -0.49217635 3.6878252e-40
6.0684299 -2.2919285 -0.50496149 4.6097815e-40
6.0407596 -2.2992346 -0.50094867 3.6878252e-40
6.0113463 -2.3078585 -0.50094867 2.7658689e-40
5.9891229 -2.3148584 -0.50335634 1.8439126e-40
5.9682326 -2.28689 -0.50270838 1.8439126e-40
5.9584026 -2.3233809 -0.50094879 1.8439126e-40
5.9357333 -2.2970302 -0.50574678 1.8439126e-40
5.9179163 -2.302254 -0.50574678 1.8439126e-40
5.9125643 -2.2697945 -0.51069474 1.8439126e-40
5.883357 -2.2084665 -0.52730113 1.8439126e-40
6.2082138 -2.1418161 -0.48480541 6.4536941e-40
6.2066212 -2.1099076 -0.50851953 3.6878252e-40
6.1908727 -2.1824338 -0.48205909 3.6878252e-40
6.1926231 -2.1484656 -0.49513447 3.6878252e-40
6.1685429 -2.2557132 -0.47085315 4.6097815e-40
6.1775813 -2.2200079 -0.47536299 4.6097815e-40
6.1484008 -2.2958741 -0.47230482 7.3756504e-40
6.1527467 -2.2599409 -0.46884686 3.6878252e-40
6.1320157 -2.3329303 -0.46380141 3.6878252e-40
6.1361008 -2.2970815 -0.4603819 4.6097815e-40
6.1107521 -2.3387687 -0.46183348 5.5317378e-40
6.0898142 -2.311852 -0.46634334 4.6097815e-40
6.0741692 -2.3160393 -0.46435621 4.6097815e-40
6.0629821 -2.2878745 -0.47687227 5.5317378e-40
6.0391245 -2.2936585 -0.47085309 3.6878252e-40
6.0097113 -2.3022821 -0.47085315 2.7658689e-40
5.9803638 -2.3111291 -0.47205698 1.8439126e-40
5.9753256 -2.2780857 -0.46928623 2.7658689e-40
5.940022 -2.2896595 -0.47536299 1.8439126e-40
5.916266 -2.2966247 -0.47536299 1.8439126e-40
5.8985701 -2.26649 -0.47387746 2.7658689e-40
5.8875318 -2.2370858 -0.49100286 2.7658689e-40
5.8823366 -2.2049868 -0.50851953 1.8439126e-40
6.2193174 -2.1348195 -0.46621299 2.7658689e-40
6.198122 -2.1035821 -0.46469587 3.6878252e-40
6.1829758 -2.1454749 -0.46621299 4.6097815e-40
6.1794262 -2.1078038 -0.45843536 6.4536941e-40
6.1675615 -2.2523677 -0.4527958 3.6878252e-40
6.1703219 -2.2172458 -0.45105594 3.6878252e-40
6.1731024 -2.1810594 -0.44933262 5.5317378e-40
6.1471052 -2.291456 -0.44845897 4.6097815e-40
6.14926 -2.255312 -0.4407576 4.6097815e-40
6.1295037 -2.3279252 -0.43526635 5.5317378e-40
6.1344814 -2.291559 -0.4305746 7.3756504e-40
6.1091485 -2.3332992 -0.43231452 4.6097815e-40
6.0918388 -2.3383746 -0.43231446 6.4536941e-40
6.0707159 -2.3114541 -0.43653604 4.6097815e-40
6.0435262 -2.3179867 -0.42938229 3.6878252e-40
6.0350389 -2.2906175 -0.44978625 3.6878252e-40
6.0118055 -2.3263276 -0.42461312 3.6878252e-40
6.0084038 -2.2978215 -0.44677672 2.7658689e-40
5.9904284 -2.3018804 -0.44075766 2.7658689e-40
5.9683962 -2.2764497 -0.45105594 1.8439126e-40
5.941143 -2.2846847 -0.45227128 9.219563e-41
5.9212251 -2.254909 -0.44933262 1.8439126e-40
5.9093366 -2.2949882 -0.4571327 1.8439126e-40
5.9092307 -2.2584257 -0.44933262 1.8439126e-40
6.2028804 -2.0971484 -0.43965378 4.6097815e-40
6.1830969 -2.1707213 -0.41251534 5.5317378e-40
6.1900415 -2.1359217 -0.42902818 3.6878252e-40
6.1787462 -2.1054842 -0.44591433 3.6878252e-40
6.1627321 -2.2133574 -0.42067212 5.5317378e-40
6.1717691 -2.1765115 -0.42478776 3.6878252e-40
6.145555 -2.2499387 -0.40865573 5.5317378e-40
6.1511846 -2.2179658 -0.4267489 6.4536941e-40
6.1306248 -2.3210633 -0.4027954 3.6878252e-40
6.1335096 -2.2882454 -0.41269022 3.6878252e-40
6.1160064 -2.3551307 -0.38728914 3.6878252e-40
6.1078658 -2.3289239 -0.40869921 3.6878252e-40
6.0862818 -2.3336689 -0.40082747 3.6878252e-40
6.0672626 -2.306869 -0.40871593 4.6097815e-40
6.0399652 -2.3144729 -0.40672874 5.5317378e-40
6.0128837 -2.3228128 -0.40871593 3.6878252e-40
6.0002322 -2.2917397 -0.40464294 2.7658689e-40
5.9847631 -2.2970824 -0.40865573 2.7658689e-40
5.9656901 -2.2716186 -0.42310283 1.8439126e-40
5.9429898 -2.2777853 -0.42067212 1.8439126e-40
5.920558 -2.252635 -0.43706021 2.7658689e-40
5.9141135 -2.2155759 -0.42283073 1.8439126e-40
5.8966112 -2.1856859 -0.43339327 2.7658689e-40
5.9030094 -2.2225723 -0.44142312 2.7658689e-40
5.8843741 -2.1892738 -0.43339327 1.8439126e-40
6.2035003 -2.1257408 -0.39804083 5.5317378e-40
6.20186 -2.0936685 -0.42087221 4.6097815e-40
6.188427 -2.1666889 -0.40024292 6.4536941e-40
6.1849928 -2.12992 -0.39184338 4.6097815e-40
6.1614118 -2.208854 -0.39636508 4.6097815e-40
6.1659932 -2.1716204 -0.39206129 5.5317378e-40
6.143867 -2.2804108 -0.38884437 3.6878252e-40
6.1459904 -2.2441599 -0.38056651 3.6878252e-40
6.1347914 -2.3139024 -0.37327635 8.2976067e-40
6.1147361 -2.3507969 -0.36389729 5.5317378e-40
6.078454 -2.3301232 -0.37180045 4.6097815e-40
6.0622988 -2.3043263 -0.38884437 3.6878252e-40
6.0536914 -2.3364925 -0.36737251 3.6878252e-40
6.0351095 -2.3102419 -0.37862474 3.6878252e-40
6.0121279 -2.3166373 -0.37692145 2.7658689e-40
5.9989243 -2.2872791 -0.38056651 2.7658689e-40
5.9914117 -2.3215117 -0.37096 2.7658689e-40
5.9721255 -2.2954824 -0.38228619 1.8439126e-40
5.9518633 -2.3010771 -0.38056657 2.7658689e-40
5.9354005 -2.2738972 -0.39028829 1.8439126e-40
5.9127669 -2.210983 -0.39804083 1.8439126e-40
5.8952513 -2.1810462 -0.40835118 1.8439126e-40
5.8774958 -2.1512048 -0.41878766 1.8439126e-40
6.1797633 -2.1593521 -0.35115317 1.1985432e-39
6.1839828 -2.1264753 -0.37325099 5.5317378e-40
6.1624389 -2.1669011 -0.36342558 5.5317378e-40
6.1412764 -2.2715745 -0.3411527 5.5317378e-40
6.1387997 -2.2414236 -0.35649005 4.6097815e-40
6.1475534 -2.2055812 -0.3599045 7.3756504e-40
6.1331878 -2.3084331 -0.3437573 4.6097815e-40
6.1131477 -2.3453794 -0.33465749 3.6878252e-40
6.0754881 -2.3253503 -0.34375739 4.6097815e-40
6.0524082 -2.3321173 -0.3437573 3.6878252e-40
6.0309005 -2.305136 -0.34711415 3.6878252e-40
6.0075955 -2.3119688 -0.34711415 3.6878252e-40
5.9861245 -2.3178644 -0.34512699 2.7658689e-40
5.9660244 -2.2912734 -0.35247737 1.8439126e-40
5.9502282 -2.2955012 -0.35047093 1.8439126e-40
5.9337497 -2.2682676 -0.3599045 1.8439126e-40
5.9165583 -2.2389925 -0.36342561 1.8439126e-40
5.8938909 -2.1764064 -0.38330907 1.8439126e-40
5.9045639 -2.2425091 -0.36342561 1.8439126e-40
5.8764648 -2.1476901 -0.3998169 1.8439126e-40
6.2024183 -2.1477711 -0.32660833 5.5317378e-40
6.2008071 -2.1165545 -0.34846109 4.6097815e-40
6.1847606 -2.1541831 -0.33274454 7.3756504e-40
6.1890297 -2.1212549 -0.35465854 4.6097815e-40
6.1577806 -2.1964691 -0.3295207 4.6097815e-40
6.166769 -2.1594582 -0.33274454 4.6097815e-40
6.1399808 -2.2671564 -0.31730688 4.6097815e-40
6.1427202 -2.2330079 -0.32037538 5.5317378e-40
6.1462326 -2.2010777 -0.33559749 7.3756504e-40
6.1344204 -2.3332591 -0.30541769 5.5317378e-40
6.1322255 -2.3051515 -0.3260459 4.6097815e-40
6.1115589 -2.339962 -0.30541769 5.5317378e-40
6.0829821 -2.3483407 -0.30541769 5.5317378e-40
6.0714808 -2.3223681 -0.32309398 3.6878252e-40
6.0581098 -2.3552411 -0.30346838 4.6097815e-40
6.0431118 -2.3289042 -0.31423828 5.5317378e-40
6.0299292 -2.3018224 -0.32922977 3.6878252e-40
6.0206728 -2.3350079 -0.31187674 2.7658689e-40
6.0001497 -2.3081543 -0.31730685 2.7658689e-40
5.9724512 -2.2841415 -0.32639444 2.7658689e-40
5.9485931 -2.2899253 -0.32037538 2.7658689e-40
5.9297895 -2.2635598 -0.33073604 2.7658689e-40
5.9080133 -2.2684774 -0.32344395 2.7658689e-40
5.8367457 -2.2893729 -0.32344395 2.7658689e-40
5.83638 -2.2196629 -0.3298687 1.8439126e-40
5.8248677 -2.2928555 -0.32344395 2.7658689e-40
5.8000383 -2.2303181 -0.3298687 2.7658689e-40
6.1917639 -2.1803923 -0.29913685 4.6097815e-40
6.1620693 -2.1890986 -0.29913688 4.6097815e-40
6.1424584 -2.2277558 -0.29389131 5.5317378e-40
6.1328321 -2.3278415 -0.27617788 3.6878252e-40
6.112937 -2.3638358 -0.26783147 4.6097815e-40
6.1100616 -2.3348541 -0.27784872 4.6097815e-40
6.0813937 -2.3429232 -0.27617788 4.6097815e-40
6.0616593 -2.3777044 -0.26203755 4.6097815e-40
6.0531349 -2.3523853 -0.28202584 3.6878252e-40
6.0390096 -2.3843453 -0.26203755 2.7658689e-40
6.02424 -2.3596804 -0.27617788 2.7658689e-40
6.0149021 -2.3324232 -0.29062304 2.7658689e-40
5.9988546 -2.3037364 -0.29346102 3.6878252e-40
6.005034 -2.3943067 -0.26203755 1.8439126e-40
5.9956632 -2.3680589 -0.27617785 1.8439126e-40
5.9872017 -2.307153 -0.29346102 2.7658689e-40
5.9688554 -2.2805934 -0.30352187 1.8439126e-40
5.9880466 -2.3992875 -0.26203755 1.8439126e-40
5.9685678 -2.3744345 -0.26838061 1.8439126e-40
5.9565616 -2.3471527 -0.27881539 2.7658689e-40
5.9399438 -2.3186097 -0.2815381 2.7658689e-40
5.94173 -2.2883043 -0.30231807 1.8439126e-40
5.9282913 -2.3220263 -0.2815381 1.8439126e-40
5.9142118 -2.2946768 -0.29389131 1.8439126e-40
5.9010839 -2.2668412 -0.30521366 1.8439126e-40
5.8899031 -2.2369306 -0.31433591 2.7658689e-40
5.8713751 -2.2044146 -0.30507883 1.8439126e-40
5.8599825 -2.1372545 -0.32393396 2.7658689e-40
5.8417921 -2.0690632 -0.34358126 2.7658689e-40
5.87604 -2.303931 -0.28426072 1.8439126e-40
5.882277 -2.2686875 -0.28698337 1.8439126e-40
5.859261 -2.2079666 -0.30507883 2.7658689e-40
5.8476596 -2.1773648 -0.32070383 1.8439126e-40
5.8294969 -2.1112239 -0.34003329 2.7658689e-40
5.8466268 -2.3125548 -0.28426072 1.8439126e-40
5.8473029 -2.2813869 -0.29913688 1.8439126e-40
5.8357067 -2.2173662 -0.31747377 1.8439126e-40
5.8204126 -2.2886598 -0.2960985 1.8439126e-40
5.8052773 -2.2592733 -0.30206347 1.8439126e-40
5.7929711 -2.2286491 -0.31127632 1.8439126e-40
5.7806954 -2.1982582 -0.32696435 2.7658689e-40
5.7677784 -2.1995261 -0.31444335 1.8439126e-40
6.1901135 -2.1747625 -0.26875308 4.6097815e-40
6.1604185 -2.1834691 -0.26875308 4.6097815e-40
6.1406269 -2.2549722 -0.25769225 4.6097815e-40
6.1456604 -2.2212462 -0.26620337 6.4536941e-40
6.1336989 -2.350754 -0.23306802 5.5317378e-40
6.1315613 -2.3235078 -0.25278604 5.5317378e-40
6.1392756 -2.2864544 -0.24339256 8.2976067e-40
6.1258817 -2.3856037 -0.23663375 5.5317378e-40
6.1158934 -2.3571401 -0.23886193 3.6878252e-40
6.0955477 -2.3929577 -0.22898062 6.4536941e-40
6.096683 -2.3643267 -0.24658722 5.5317378e-40
6.0768552 -2.4596229 -0.23240018 3.6878252e-40
6.0803814 -2.4277637 -0.22689639 3.6878252e-40
6.0760179 -2.4025333 -0.24811348 3.6878252e-40
6.0553675 -2.3772175 -0.25044975 5.5317378e-40
6.056397 -2.4351776 -0.22879218 4.6097815e-40
6.039866 -2.4108231 -0.23663372 2.7658689e-40
6.0270548 -2.3855188 -0.25044975 2.7658689e-40
6.0245953 -2.4141457 -0.23089388 2.7658689e-40
6.0037751 -2.390013 -0.23886187 1.8439126e-40
5.9786983 -2.3973656 -0.23886184 1.8439126e-40
5.9601002 -2.3737795 -0.25278604 1.8439126e-40
5.9443798 -2.3483489 -0.2670078 1.8439126e-40
5.9483519 -2.3760474 -0.24693808 1.8439126e-40
5.9224644 -2.3194165 -0.26007682 1.8439126e-40
5.8985896 -2.2936864 -0.26620337 1.8439126e-40
5.8803854 -2.3312743 -0.25769225 1.8439126e-40
5.8868241 -2.2971361 -0.26620337 9.219563e-41
5.8687329 -2.3346906 -0.25769225 1.8439126e-40
5.8515282 -2.3074846 -0.26620337 1.8439126e-40
5.8341045 -2.2803659 -0.27482983 1.8439126e-40
5.8218966 -2.2827225 -0.26875308 1.8439126e-40
5.7894936 -2.2242656 -0.28442052 1.8439126e-40
5.7731171 -2.2282357 -0.28028896 1.8439126e-40
5.7583733 -2.1976652 -0.29148805 1.8439126e-40
5.7480516 -2.1675279 -0.31128681 1.8439126e-40
5.7419434 -2.2020621 -0.2894012 2.7658689e-40
6.213963 -2.1927423 -0.22406961 4.6097815e-40
6.2031789 -2.1995375 -0.24212694 1.0141519e-39
6.1828542 -2.1720006 -0.24444605 4.6097815e-40
6.1551371 -2.20999 -0.22406961 8.2976067e-40
6.1590981 -2.1789658 -0.24444605 4.6097815e-40
6.1347995 -2.2494841 -0.2219235 7.3756504e-40
6.1436987 -2.214555 -0.23008873 3.6878252e-40
6.1324401 -2.3464601 -0.20989236 3.6878252e-40
6.1386342 -2.2842667 -0.23158495 4.6097815e-40
6.1154523 -2.3514407 -0.20989239 5.5317378e-40
6.0906644 -2.3901548 -0.20793444 5.5317378e-40
6.098465 -2.3564215 -0.20989236 6.4536941e-40
6.0753241 -2.4544008 -0.2042143 3.6878252e-40
6.0797119 -2.4220476 -0.19751027 5.5317378e-40
6.0548525 -2.4299088 -0.20035411 3.6878252e-40
6.0345674 -2.4066024 -0.20793444 3.6878252e-40
6.0233479 -2.4098918 -0.20793444 2.7658689e-40
6.0022016 -2.3846455 -0.20989236 1.8439126e-40
5.9804206 -2.3584087 -0.20600235 1.8439126e-40
5.9855285 -2.3906996 -0.21568628 2.7658689e-40
5.9626398 -2.365505 -0.21535902 1.8439126e-40
5.9421349 -2.340692 -0.22568116 1.8439126e-40
5.9088287 -2.285033 -0.23811412 1.8439126e-40
5.8855162 -2.2926753 -0.24212694 1.8439126e-40
5.8581729 -2.3010957 -0.24413341 1.8439126e-40
5.8363037 -2.2732005 -0.24242045 1.8439126e-40
5.8146048 -2.2466614 -0.25297379 1.8439126e-40
5.7962227 -2.2173047 -0.25963068 9.219563e-41
5.7830729 -2.1837049 -0.2580986 1.8439126e-40
5.7721071 -2.224791 -0.26169655 1.8439126e-40
5.7531605 -2.1949944 -0.27061963 1.8439126e-40
6.2290292 -2.2506361 -0.1961621 1.5673257e-39
6.2133093 -2.1905122 -0.21203141 3.6878252e-40
6.2147484 -2.220046 -0.19211622 4.6097815e-40
6.1953344 -2.1945713 -0.20601229 4.6097815e-40
6.1826553 -2.1669233 -0.21892364 7.3756504e-40
6.1600385 -2.2049198 -0.20601229 4.6097815e-40
6.1640468 -2.1738467 -0.22621576 8.2976067e-40
6.1445088 -2.2394407 -0.18615475 7.3756504e-40
6.1423907 -2.2100942 -0.20601229 9.219563e-40
6.1308661 -2.3410926 -0.18092288 5.5317378e-40
6.1391802 -2.3071544 -0.18261054 5.5317378e-40
6.1370306 -2.2787976 -0.20206593 4.6097815e-40
6.1115441 -2.3782585 -0.1792351 8.2976067e-40
6.1195412 -2.344413 -0.18092288 5.5317378e-40
6.0947151 -2.3831928 -0.1792351 4.6097815e-40
6.0734868 -2.4481339 -0.17039129 6.4536941e-40
6.0811005 -2.4164906 -0.17191601 7.3756504e-40
6.050034 -2.4258285 -0.17305353 3.6878252e-40
6.0330081 -2.4012849 -0.17923513 2.7658689e-40
6.0169859 -2.3721504 -0.16933499 2.7658689e-40
6.0221004 -2.405638 -0.18497497 2.7658689e-40
6.0062904 -2.3776178 -0.18092288 1.8439126e-40
5.9851828 -2.3534825 -0.1884585 1.8439126e-40
5.9636116 -2.3284557 -0.1961621 1.8439126e-40
5.9525652 -2.2969174 -0.19211622 1.8439126e-40
5.9306154 -2.2721858 -0.20601229 2.7658689e-40
5.9132891 -2.2424772 -0.20190874 1.8439126e-40
5.9191775 -2.2767508 -0.21203141 2.7658689e-40
5.9024014 -2.2493377 -0.22013901 1.8439126e-40
5.7885113 -2.1795912 -0.24557754 2.7658689e-40
6.2162066 -2.2496443 -0.17254688 3.6878252e-40
6.1936994 -2.1889954 -0.1759167 6.4536941e-40
6.1658387 -2.1974669 -0.17742147 3.6878252e-40
6.1463256 -2.2677574 -0.16073926 4.6097815e-40
6.149364 -2.2344189 -0.16827038 5.5317378e-40
6.1292925 -2.3357251 -0.15195328 4.6097815e-40
6.1379094 -2.3028202 -0.1592187 4.6097815e-40
6.1132054 -2.3700724 -0.14096932 3.6878252e-40
6.1140876 -2.3397942 -0.15002206 5.5317378e-40
6.0903645 -2.4069085 -0.13779031 3.6878252e-40
6.0958052 -2.3765213 -0.14766587 4.6097815e-40
6.0788932 -2.4393654 -0.13468918 3.6878252e-40
6.072556 -2.4147997 -0.15106149 3.6878252e-40
6.0504036 -2.4188538 -0.13892783 3.6878252e-40
6.0370588 -2.3943231 -0.15053582 3.6878252e-40
6.0160418 -2.3689299 -0.15195328 1.8439126e-40
6.0233512 -2.4254122 -0.1321027 2.7658689e-40
6.0080748 -2.3993564 -0.13331619 2.7658689e-40
6.0047164 -2.3722503 -0.15195328 2.7658689e-40
5.9846106 -2.3472967 -0.15687947 1.8439126e-40
5.9738684 -2.3206971 -0.17254688 1.8439126e-40
5.9570961 -2.2907913 -0.16827038 1.8439126e-40
5.9360399 -2.26454 -0.17591676 1.8439126e-40
5.9161482 -2.2375636 -0.18165286 1.8439126e-40
5.8948975 -2.2095389 -0.18547545 1.8439126e-40
5.8714509 -2.1451964 -0.19549339 2.7658689e-40
6.1920648 -2.1834192 -0.14582118 5.5317378e-40
6.1685343 -2.1903183 -0.14582118 4.6097815e-40
6.1450429 -2.2633822 -0.137124 4.6097815e-40
6.1538949 -2.2282925 -0.14442454 4.6097815e-40
6.1277189 -2.3303578 -0.12298369 1.1985432e-39
6.1363211 -2.2974031 -0.1299789 4.6097815e-40
6.1215534 -2.3897533 -0.097976923 3.6878252e-40
6.1231775 -2.362529 -0.11800985 8.2976067e-40
6.1057758 -2.4256234 -0.10556376 6.4536941e-40
6.1113629 -2.3961744 -0.1150398 6.4536941e-40
6.0811372 -2.4334145 -0.10838235 4.6097815e-40
6.051652 -2.4416811 -0.10650324 3.6878252e-40
6.0371447 -2.4175534 -0.11314398 2.7658689e-40
6.0260434 -2.4495678 -0.10838233 3.6878252e-40
6.0154452 -2.4231527 -0.10935216 2.7658689e-40
5.9918175 -2.3702033 -0.12298375 1.8439126e-40
5.9762907 -2.3443234 -0.1299789 2.7658689e-40
5.9604044 -2.3175175 -0.137124 1.8439126e-40
5.9441481 -2.2897897 -0.14442454 1.8439126e-40
5.9273458 -2.2610338 -0.14582118 1.8439126e-40
5.9109783 -2.2345963 -0.15937139 1.8439126e-40
5.9093709 -2.2650931 -0.13980208 1.8439126e-40
5.8878598 -2.1709015 -0.1625371 1.8439126e-40
5.8700905 -2.1405568 -0.17045128 1.8439126e-40
6.2238979 -2.2331347 -0.10170113 4.6097815e-40
6.2087317 -2.1748993 -0.12776379 4.6097815e-40
6.2102146 -2.2045829 -0.10865574 5.5317378e-40
6.1904297 -2.1778433 -0.11572556 6.4536941e-40
6.1661983 -2.250052 -0.10170113 4.6097815e-40
6.1642518 -2.220458 -0.12057867 1.2907388e-39
6.1727819 -2.183017 -0.11572562 3.6878252e-40
6.1458459 -2.2875507 -0.094891079 4.6097815e-40
6.1512394 -2.256022 -0.10957288 4.6097815e-40
6.1529231 -2.2249789 -0.12654014 4.6097815e-40
6.1371555 -2.3205965 -0.088220231 4.6097815e-40
6.1350503 -2.2930689 -0.10658705 4.6097815e-40
6.1233745 -2.4142253 -0.074559294 6.4536941e-40
6.1209354 -2.3876457 -0.086601712 4.6097815e-40
6.1289945 -2.3546641 -0.087397255 4.6097815e-40
6.1068463 -2.4190712 -0.074559294 5.5317378e-40
6.0792999 -2.4271479 -0.074559294 3.6878252e-40
6.0462437 -2.4368398 -0.074559346 3.6878252e-40
6.0239 -2.4422569 -0.068922102 2.7658689e-40
6.0132618 -2.4184523 -0.082810014 4.6097815e-40
5.9937372 -2.3920114 -0.07591752 3.6878252e-40
5.9902439 -2.3648362 -0.094014145 3.6878252e-40
5.9747024 -2.3389058 -0.10073906 2.7658689e-40
5.962954 -2.3411739 -0.094891079 4.6097815e-40
5.9512143 -2.3146687 -0.10957288 2.7658689e-40
5.9367027 -2.2859752 -0.1146172 2.7658689e-40
5.9260378 -2.2565732 -0.12174468 2.7658689e-40
5.912641 -2.325582 -0.10760496 3.6878252e-40
5.9189 -2.2899954 -0.10865574 2.7658689e-40
5.9087172 -2.2628627 -0.12776379 2.7658689e-40
5.9061179 -2.3590145 -0.10073906 2.7658689e-40
5.901422 -2.3300593 -0.11350872 2.7658689e-40
6.2064428 -2.1670928 -0.085630052 1.4751301e-39
6.1887951 -2.1722672 -0.085630052 1.5673257e-39
6.1652641 -2.1791663 -0.085630052 1.0141519e-39
6.1445751 -2.2832167 -0.071499236 3.6878252e-40
6.154017 -2.2512479 -0.08989349 7.3756504e-40
6.1503325 -2.2161427 -0.078848451 6.4536941e-40
6.1358967 -2.3163023 -0.065044634 3.6878252e-40
6.1190815 -2.3813229 -0.052476082 3.6878252e-40
6.1274352 -2.3493469 -0.05869795 3.6878252e-40
6.1053152 -2.4138489 -0.046373412 4.6097815e-40
6.0777688 -2.4219255 -0.046373412 4.6097815e-40
6.0476203 -2.4313323 -0.049192034 5.5317378e-40
6.0350838 -2.4036622 -0.041100755 3.6878252e-40
6.0229812 -2.4391234 -0.0520106 2.7658689e-40
6.0105333 -2.4125769 -0.049632177 3.6878252e-40
5.9928021 -2.3888209 -0.05869795 2.7658689e-40
5.9773455 -2.3627889 -0.065044634 3.6878252e-40
5.9559679 -2.3385158 -0.071499288 3.6878252e-40
5.9462986 -2.31215 -0.08989349 3.6878252e-40
5.9292574 -2.2821608 -0.084809922 6.4536941e-40
5.9121022 -2.2883902 -0.090771392 7.3756504e-40
5.9061012 -2.2539411 -0.079610944 6.4536941e-40
5.9001389 -2.3256838 -0.08989349 3.6878252e-40
6.2051349 -2.1626322 -0.061553601 4.6097815e-40
6.1874871 -2.1678066 -0.061553601 5.5317378e-40
6.1600418 -2.2060993 -0.043079708 4.6097815e-40
6.1639566 -2.1747057 -0.061553601 5.5317378e-40
6.1467972 -2.2766819 -0.042259458 7.3756504e-40
6.151772 -2.2435911 -0.048566855 3.6878252e-40
6.1496849 -2.2139337 -0.066925518 3.6878252e-40
6.1379929 -2.3094702 -0.034143779 3.6878252e-40
6.1211395 -2.3746164 -0.022142148 3.6878252e-40
6.1261883 -2.345093 -0.035738479 3.6878252e-40
6.1043968 -2.4107158 -0.029461909 3.6878252e-40
6.0949931 -2.3815193 -0.018350391 3.6878252e-40
6.0720749 -2.4188313 -0.02269732 2.7658689e-40
6.0727587 -2.3880386 -0.018350331 4.6097815e-40
6.0515985 -2.4244947 -0.021006158 2.7658689e-40
6.0322008 -2.4006929 -0.022142148 2.7658689e-40
6.0136719 -2.4061255 -0.022142148 1.8439126e-40
5.9971642 -2.3829222 -0.035738479 4.6097815e-40
5.9867821 -2.3530281 -0.030281089 2.7658689e-40
5.9757714 -2.3574219 -0.036075003 2.7658689e-40
5.957396 -2.3328023 -0.045183424 2.7658689e-40
5.9437332 -2.3033993 -0.042663034 3.6878252e-40
5.9276381 -2.276638 -0.055002581 3.6878252e-40
5.9053669 -2.2154562 -0.05606645 2.7658689e-40
5.9113302 -2.2499859 -0.067572713 3.6878252e-40
5.8941488 -2.2211905 -0.068219967 4.6097815e-40
6.1858521 -2.1622307 -0.031457972 3.6878252e-40
6.161067 -2.2325504 -0.0072402223 4.6097815e-40
6.1590705 -2.2027857 -0.025195362 3.6878252e-40
6.1682043 -2.1674044 -0.031458091 5.5317378e-40
6.1467957 -2.2696223 -0.0071717533 3.6878252e-40
6.1501684 -2.2381217 -0.019047806 6.4536941e-40
6.1357379 -2.3052745 -0.01000242 6.4536941e-40
6.1203156 -2.3690598 0.0066752024 3.6878252e-40
6.124629 -2.3397758 -0.0070391735 9.219563e-40
6.1074562 -2.4007449 0.015635472 3.6878252e-40
6.0939341 -2.3779068 0.0011500882 3.6878252e-40
6.0743999 -2.4104369 0.015635472 4.6097815e-40
6.0680227 -2.3856125 0.00060839084 3.6878252e-40
6.052669 -2.4179425 0.0099982843 3.6878252e-40
6.0326123 -2.3952322 0.0044001485 1.8439126e-40
6.0113654 -2.4010036 0.0066752024 1.8439126e-40
5.9952936 -2.3765416 -0.0012993356 1.8439126e-40
5.9858379 -2.3498075 -0.012899349 1.8439126e-40
5.971209 -2.3523479 -0.0042085066 1.8439126e-40
5.9545903 -2.326761 -0.011070374 1.8439126e-40
5.9390311 -2.3016107 -0.026919549 2.7658689e-40
6.1855469 -2.1895053 0.0022273648 5.5317378e-40
6.1638446 -2.227777 0.012439163 4.6097815e-40
6.1694279 -2.1949511 -0.0013494922 5.5317378e-40
6.1398101 -2.2669644 0.016220089 4.6097815e-40
6.1485648 -2.2326527 0.010471242 8.2976067e-40
6.1311755 -2.3002005 0.021864077 4.6097815e-40
6.1144471 -2.3655162 0.032838263 6.4536941e-40
6.1224465 -2.3323314 0.033139866 5.5317378e-40
6.0992937 -2.4001138 0.030667892 3.6878252e-40
6.1030211 -2.3677223 0.038525838 1.1985432e-39
6.0734816 -2.4073036 0.032546975 3.6878252e-40
6.0468526 -2.4144306 0.0359293 2.7658689e-40
6.0255084 -2.3915927 0.032838263 2.7658689e-40
6.0105824 -2.3955874 0.034734081 2.7658689e-40
5.9909296 -2.3720465 0.02740003 1.8439126e-40
5.9702311 -2.4089444 0.027150629 1.8439126e-40
5.9735813 -2.3786728 0.019746874 2.7658689e-40
6.1766996 -2.1528032 0.028733043 4.6097815e-40
6.1588221 -2.2248936 0.034086414 7.3756504e-40
6.1674848 -2.188324 0.034419253 8.2976067e-40
6.1382217 -2.2615469 0.045459863 4.6097815e-40
6.1469612 -2.2271836 0.039990235 6.4536941e-40
6.1260366 -2.2966554 0.04697096 4.6097815e-40
6.1026039 -2.3339145 0.054186076 4.6097815e-40
6.1063223 -2.2993271 0.062421534 9.219563e-40
6.0798593 -2.3710799 0.055588745 1.0141519e-39
6.0834894 -2.3379791 0.061839174 4.6097815e-40
6.0631833 -2.3759692 0.055588685 5.5317378e-40
6.052947 -2.3446243 0.073318966 3.6878252e-40
6.0354929 -2.3844693 0.053692807 6.4536941e-40
6.0255222 -2.354975 0.061839234 2.7658689e-40
6.0043964 -2.3292115 0.062421534 2.7658689e-40
6.0037069 -2.3636808 0.050359439 1.8439126e-40
5.9823756 -2.3379993 0.050833646 2.7658689e-40
6.1607399 -2.1185734 0.053315219 4.6097815e-40
6.1488619 -2.122056 0.053315219 4.6097815e-40
6.1341386 -2.2261915 0.063605517 5.5317378e-40
6.1364102 -2.190238 0.07018806 4.6097815e-40
6.1184711 -2.2619252 0.07236062 4.6097815e-40
6.0979328 -2.2986782 0.077871934 4.6097815e-40
6.1017056 -2.2640166 0.086395614 7.3756504e-40
6.0740767 -2.3047011 0.08270026 3.6878252e-40
6.049067 -2.3137825 0.074009359 5.5317378e-40
6.0331211 -2.2841253 0.086395673 3.6878252e-40
6.0207543 -2.3220837 0.074009359 3.6878252e-40
6.0048618 -2.2935877 0.080547683 2.7658689e-40
5.9841199 -2.2701764 0.063605517 1.8439126e-40
5.9787765 -2.2352562 0.076149531 1.8439126e-40
5.9677715 -2.2408817 0.06422659 2.7658689e-40
5.9462767 -2.1790082 0.065468796 1.8439126e-40
6.1125011 -2.2584984 0.098091535 3.6878252e-40
6.121316 -2.2251997 0.087220751 8.2976067e-40
6.0893221 -2.2641177 0.10393953 5.5317378e-40
6.0627561 -2.2722991 0.10199016 3.6878252e-40
6.0450239 -2.2428167 0.11083598 4.6097815e-40
6.0439167 -2.2786071 0.098091535 3.6878252e-40
6.0242949 -2.2504787 0.10296423 3.6878252e-40
5.9975581 -2.2898457 0.10978746 2.7658689e-40
5.9995055 -2.2585382 0.099028394 1.8439126e-40
5.9778047 -2.2319427 0.094033875 1.8439126e-40
5.980412 -2.294873 0.10978746 3.6878252e-40
5.9584742 -2.2681928 0.11083598 2.7658689e-40
5.9621601 -2.23613 0.096021049 1.8439126e-40
5.9542475 -2.2075293 0.080898635 1.8439126e-40
5.9411645 -2.273268 0.11083598 2.7658689e-40
5.9388552 -2.2429628 0.096021049 1.8439126e-40
5.91394 -2.2153106 0.10096241 1.8439126e-40
6.0870981 -2.2565331 0.14487523 4.6097815e-40
6.078681 -2.2293849 0.12854739 4.6097815e-40
6.0528059 -2.2665875 0.14487523 3.6878252e-40
6.0498314 -2.2378435 0.12854733 3.6878252e-40
6.0209818 -2.2463021 0.12854744 2.7658689e-40
6.0117912 -2.2183797 0.11191827 1.1063476e-39
5.9962873 -2.285512 0.13317925 2.7658689e-40
6.0036716 -2.2513773 0.12854744 2.7658689e-40
5.9747753 -2.2915249 0.13464135 1.8439126e-40
5.9578328 -2.266005 0.12264362 2.7658689e-40
5.9442139 -2.2984264 0.14487523 1.8439126e-40
5.9366765 -2.2707827 0.12972821 1.8439126e-40
5.9182463 -2.244607 0.11787974 1.8439126e-40
5.9136052 -2.3083425 0.14019695 2.7658689e-40
5.9059033 -2.2812307 0.12264362 1.8439126e-40
5.9069176 -2.2491281 0.11191827 2.7658689e-40
6.0575681 -2.2616615 0.16241908 4.6097815e-40
6.0488696 -2.2345622 0.14625885 4.6097815e-40
6.040422 -2.2666886 0.16241908 8.2976067e-40
6.0193782 -2.2408328 0.15806644 3.6878252e-40
5.9984035 -2.2786162 0.16436839 1.8439126e-40
6.002389 -2.2470021 0.15216261 1.8439126e-40
5.9718375 -2.2867973 0.16241908 1.8439126e-40
5.9432607 -2.295176 0.16241908 2.7658689e-40
5.921289 -2.2695925 0.15806644 1.8439126e-40
5.925797 -2.2991195 0.16826707 1.8439126e-40
5.9036584 -2.2735739 0.16397025 2.7658689e-40
6.0641637 -2.281378 0.21306324 3.6878252e-40
6.0547099 -2.256146 0.19399816 3.6878252e-40
6.0354052 -2.2313826 0.18168166 1.1063476e-39
6.029943 -2.2627013 0.1975069 3.6878252e-40
6.019805 -2.2351646 0.18561763 2.7658689e-40
5.996213 -2.301301 0.21306324 2.7658689e-40
5.998826 -2.2730014 0.19165891 1.8439126e-40
5.9716783 -2.280961 0.19165885 1.8439126e-40
5.9539843 -2.2528791 0.19348936 1.8439126e-40
5.9416723 -2.2897587 0.19165891 1.8439126e-40
5.9196854 -2.2641234 0.18758553 2.7658689e-40
5.9124603 -2.2959702 0.20335484 1.8439126e-40
5.904192 -2.26827 0.18955345 1.8439126e-40
5.8913789 -2.2392905 0.18345577 2.7658689e-40
5.8740664 -2.2100465 0.18522994 2.7658689e-40
5.8797264 -2.242707 0.18345577 1.8439126e-40
6.0712199 -2.2447159 0.22674662 7.3756504e-40
6.0528035 -2.249645 0.22908592 3.6878252e-40
6.025497 -2.2581217 0.22674674 2.7658689e-40
6.0110426 -2.2337739 0.20529689 3.6878252e-40
5.9952688 -2.2980807 0.23044492 1.8439126e-40
6.0026355 -2.2648246 0.22674662 1.8439126e-40
5.978281 -2.3030612 0.23044492 1.8439126e-40
5.9689784 -2.277046 0.21505076 1.8439126e-40
5.9574137 -2.3087909 0.2323762 2.7658689e-40
5.9387503 -2.2840266 0.2244076 1.8439126e-40
5.9187231 -2.2608418 0.20529689 1.8439126e-40
5.9111896 -2.2916362 0.22674674 1.8439126e-40
5.8956437 -2.2676086 0.20529689 1.8439126e-40
5.8822951 -2.2989316 0.23259461 1.8439126e-40
5.8780131 -2.27159 0.21120071 1.8439126e-40
5.865149 -2.3039587 0.23259461 1.8439126e-40
6.0696316 -2.2392983 0.25598645 6.4536941e-40
6.0610161 -2.2706432 0.27100232 2.7658689e-40
6.0524855 -2.2443256 0.25598645 3.6878252e-40
6.0279851 -2.2838252 0.25362056 1.8439126e-40
6.0353394 -2.2493527 0.25598645 1.8439126e-40
6.0036836 -2.2900765 0.25796604 1.8439126e-40
5.9868722 -2.3270409 0.25699461 1.8439126e-40
5.975575 -2.2980258 0.25941455 1.8439126e-40
