# .PCD v0.7 - Point Cloud Data file format
VERSION 0.7
FIELDS x y z rgb
SIZE 4 4 4 4
TYPE F F F F
COUNT 1 1 1 1
WIDTH 1013
HEIGHT 1
VIEWPOINT 0 0 0 1 0 0 0
POINTS 1013
DATA ascii
2.855921 -0.78944075 -1.4179384 9.2130736e-39
2.8860586 -0.78491521 -1.4138644 9.4893073e-39
2.4169049 -1.0357991 -1.2803416 1.2166202e-38
2.4598532 -1.030953 -1.2824965 1.0966612e-38
2.4601576 -1.0073247 -1.281297 8.5706161e-39
2.4929619 -0.99923271 -1.2845181 7.7390561e-39
2.5227273 -0.99617773 -1.3026605 7.090077e-39
2.5427108 -0.99379808 -1.3129804 6.9063934e-39
2.5267494 -0.98598278 -1.2879156 7.0950782e-39
2.5467646 -0.98352247 -1.2981188 7.4624426e-39
2.5768456 -0.97127634 -1.3126379 9.2998686e-39
2.8349833 -0.9075498 -1.3887848 1.5389068e-38
2.7846699 -0.87748086 -1.3641529 1.0132915e-38
2.7555799 -0.85585856 -1.3680907 9.6711566e-39
2.783664 -0.8541944 -1.3677471 6.7267049e-39
2.8063509 -0.84861147 -1.3871225 8.0185059e-39
2.7846146 -0.82214993 -1.364153 7.0940272e-39
2.8063228 -0.82041878 -1.3871225 7.834109e-39
2.7845948 -0.80202943 -1.364153 7.8315853e-39
2.8092749 -0.7978617 -1.3762449 8.200379e-39
2.8363707 -0.79375023 -1.3832964 8.5684497e-39
2.8642476 -0.78656173 -1.3874797 8.8439379e-39
2.8891146 -0.78491217 -1.4026895 9.1226842e-39
2.4671769 -1.0288731 -1.2557067 1.2719016e-38
2.4907262 -1.0292791 -1.2529982 1.1336463e-38
2.4654109 -1.0122938 -1.2621043 8.9408167e-39
2.4954789 -0.99731314 -1.2554052 8.201465e-39
2.5111456 -0.97781128 -1.2577517 7.555011e-39
2.5361581 -0.98597336 -1.2535111 7.6479157e-39
2.5535331 -0.97837991 -1.2733494 7.4635356e-39
2.5739584 -0.96674377 -1.2858106 8.195686e-39
2.5562117 -0.94756252 -1.2634416 1.1230941e-38
2.5731223 -0.95017505 -1.2888073 1.4090443e-38
2.7920442 -0.88026804 -1.3371978 1.2442097e-38
2.7658031 -0.85030884 -1.330688 7.6482884e-39
2.7657754 -0.82261163 -1.330688 6.724893e-39
2.790503 -0.81320161 -1.3425888 6.3557545e-39
2.768681 -0.8059904 -1.3200015 7.0014659e-39
2.791966 -0.8020221 -1.3371978 6.9992925e-39
2.8181989 -0.79785275 -1.343612 6.9060458e-39
2.8438752 -0.79374272 -1.3558546 7.4602832e-39
2.8695452 -0.7836858 -1.3680969 8.3804388e-39
2.8468542 -0.77098006 -1.3448777 8.2821265e-39
2.5205522 -1.0536002 -1.2236321 1.3819593e-38
2.503139 -1.0312413 -1.2275176 1.1241391e-38
2.5034308 -0.99730527 -1.2263269 8.109268e-39
2.5195844 -0.97443396 -1.2268816 7.4635272e-39
2.5397251 -0.96898514 -1.2404045 7.7368785e-39
2.5630009 -0.96296316 -1.2386723 7.8305105e-39
2.5915525 -0.96658111 -1.250538 7.7339946e-39
2.5388055 -0.94520742 -1.2436811 9.1072293e-39
2.560276 -0.94755846 -1.24858 1.0864306e-38
2.5826833 -0.95016545 -1.2538452 1.2339023e-38
2.7979414 -0.88026214 -1.3156337 1.3915024e-38
2.7731092 -0.85030156 -1.3039718 8.570602e-39
2.7730815 -0.8226043 -1.3039718 7.4617448e-39
2.7730649 -0.80598605 -1.3039718 7.0036225e-39
2.7987411 -0.79530859 -1.3123989 6.4490334e-39
2.8256245 -0.78656828 -1.3164178 6.6326847e-39
2.8022468 -0.76288891 -1.2994605 7.5549858e-39
2.824126 -0.77529275 -1.3218566 6.0770167e-39
2.5265479 -1.0510675 -1.2016981 1.354587e-38
2.5443041 -1.067492 -1.2240213 1.5287889e-38
2.5258636 -1.0333819 -1.2041352 9.7688159e-39
2.5113828 -0.99729735 -1.1972487 8.1096337e-39
2.5258031 -0.97274345 -1.2041352 7.646492e-39
2.5468903 -0.965581 -1.2141914 7.6453961e-39
2.5697746 -0.96295637 -1.2139028 7.6454073e-39
2.5922549 -0.9605118 -1.2188832 7.9183789e-39
2.8053017 -0.86907673 -1.2886784 1.0129306e-38
2.7804139 -0.84890932 -1.2772554 8.3847745e-39
2.7564356 -0.81734329 -1.2662556 7.5542907e-39
2.7803857 -0.82075047 -1.2772555 7.3695463e-39
2.7593145 -0.79903466 -1.2556611 7.2795157e-39
2.7803617 -0.79674625 -1.2772554 7.1880221e-39
2.8066919 -0.78524041 -1.2832874 7.5535719e-39
2.8300867 -0.78656381 -1.3001013 8.0130927e-39
2.8081439 -0.76288301 -1.2778963 7.5531977e-39
2.5166831 -1.0313889 -1.1669346 1.0968056e-38
2.5145075 -1.0004209 -1.1659309 8.479861e-39
2.5268922 -0.97622681 -1.1703116 7.739405e-39
2.5542853 -0.96812135 -1.1871593 7.6471968e-39
2.577903 -0.96294826 -1.1841795 7.7372148e-39
2.5576329 -0.95537949 -1.1748719 7.7361316e-39
2.5778928 -0.95267665 -1.1841795 7.6450486e-39
2.6018054 -0.95014638 -1.1839211 1.07667e-38
2.7680831 -0.87591022 -1.2238777 1.6393501e-38
2.788234 -0.8761372 -1.2487582 1.5571306e-38
2.7680612 -0.85394329 -1.2238777 1.0782906e-38
2.7883456 -0.84870356 -1.2482492 8.2932935e-39
2.7622283 -0.81550694 -1.2450666 7.0954678e-39
2.790616 -0.82258677 -1.2398527 7.6497205e-39
2.7658305 -0.79628223 -1.2318236 7.3699135e-39
2.7885361 -0.78824431 -1.2473333 7.1869515e-39
2.7902672 -0.76608473 -1.2409213 7.3717085e-39
2.8140411 -0.76287711 -1.2563322 7.5546551e-39
2.8169727 -0.74610722 -1.24555 7.9133622e-39
2.52514 -1.050557 -1.1272345 1.3176024e-38
2.5224743 -1.0305009 -1.1369085 1.0323391e-38
2.5227761 -1.0016663 -1.1356993 8.9408363e-39
2.4994967 -0.98241371 -1.1373529 7.8344803e-39
2.5332267 -0.97069538 -1.140794 7.6486401e-39
2.5603313 -0.96556753 -1.165042 7.5549886e-39
2.5643532 -0.95537275 -1.1502973 7.3695197e-39
2.5866959 -0.95009995 -1.1519793 8.0109459e-39
2.6059029 -0.95014226 -1.1689373 9.0160959e-39
2.7721152 -0.85174257 -1.2090454 9.6758482e-39
2.7950165 -0.83920074 -1.223823 6.91141e-39
2.7738283 -0.82647884 -1.2026888 7.2773325e-39
2.7971888 -0.81981045 -1.215808 7.5557369e-39
2.7723413 -0.78803807 -1.207986 7.2777094e-39
2.7959497 -0.79857725 -1.2202607 7.3731435e-39
2.7737789 -0.77705318 -1.2026888 7.7372583e-39
2.7970245 -0.76006371 -1.2161896 7.5560928e-39
2.7993002 -0.7394864 -1.2077931 7.4621021e-39
2.8199215 -0.7461043 -1.234768 7.7325527e-39
2.5512102 -1.0535694 -1.1115247 1.1243544e-38
2.5074291 -1.0420977 -1.108564 1.2437398e-38
2.5300303 -1.0276278 -1.1092681 1.0047184e-38
2.5303812 -1.000405 -1.1078861 9.1252304e-39
2.540071 -0.96897227 -1.1121424 7.7412099e-39
2.5524371 -0.9474507 -1.1066505 6.5444492e-39
2.5710657 -0.94721335 -1.1257225 7.5528418e-39
2.5524168 -0.92723793 -1.1066505 7.8279839e-39
2.7825694 -0.87589574 -1.1709054 1.1512585e-38
2.7796502 -0.85393167 -1.1814998 9.3077859e-39
2.7799809 -0.82235384 -1.1801755 6.9099975e-39
2.7795899 -0.7935226 -1.1814998 7.5539362e-39
2.7792017 -0.76743722 -1.1828241 7.3706239e-39
2.8056469 -0.75425184 -1.1846391 7.5543089e-39
2.805145 -0.73948056 -1.1864202 7.3713414e-39
2.5578749 -1.0535626 -1.0871534 1.0505277e-38
2.5522833 -1.028933 -1.0847638 9.3074622e-39
2.5431969 -1.0010458 -1.0809268 8.5709622e-39
2.5512919 -0.97020698 -1.0843841 8.2011021e-39
2.5577636 -0.94239211 -1.0871534 7.1872949e-39
2.5588088 -0.92116773 -1.0832541 7.5531879e-39
2.5782077 -0.9213894 -1.0995095 8.4690149e-39
2.7854667 -0.87589282 -1.1603109 1.2346654e-38
2.8140509 -0.87795788 -1.1543607 1.0871139e-38
2.7879786 -0.85255045 -1.1510407 8.6635067e-39
2.7883091 -0.82097262 -1.1497164 7.0025435e-39
2.7882817 -0.79351395 -1.1497164 7.0940384e-39
2.7878935 -0.76742852 -1.1510407 7.2791514e-39
2.8131955 -0.75332105 -1.1570323 7.5564669e-39
2.8124511 -0.73947322 -1.159704 7.3724148e-39
2.8390758 -0.73490709 -1.1646845 1.113046e-38
2.543659 -1.0505385 -1.0595154 1.0227964e-38
2.5846164 -1.0572608 -1.076573 1.0045026e-38
2.6091647 -1.0656326 -1.0702403 9.034806e-39
2.5658474 -1.0282887 -1.0579081 8.3865821e-39
2.5658171 -0.99796945 -1.0579081 7.098353e-39
2.5654085 -0.97053808 -1.0593007 7.3720603e-39
2.588557 -0.96553934 -1.0618283 7.4646048e-39
2.5652292 -0.94339538 -1.0598577 7.2805835e-39
2.5898807 -0.94515634 -1.0569133 7.8330328e-39
2.5657382 -0.9191395 -1.0579081 7.5524844e-39
2.587172 -0.92477739 -1.0667431 6.9989379e-39
2.8220849 -0.87518018 -1.1249728 9.3070601e-39
2.7955797 -0.84842402 -1.1232302 7.460649e-39
2.7955523 -0.82096535 -1.1232302 7.0014715e-39
2.7955248 -0.79350668 -1.1232302 6.4482823e-39
2.7955029 -0.77153963 -1.1232302 6.7270636e-39
2.8206494 -0.7549755 -1.1297817 7.3720673e-39
2.821213 -0.73392498 -1.1276444 8.2904166e-39
2.5738437 -1.026837 -1.0286627 7.7419344e-39
2.5953538 -1.0419639 -1.0372535 8.9411852e-39
2.564003 -0.99920982 -1.0247408 6.8199767e-39
2.5656071 -0.96956962 -1.0254005 5.9909293e-39
2.5744281 -0.94490206 -1.0262256 5.9884238e-39
2.5939128 -0.94515234 -1.0421685 7.1837272e-39
2.5737441 -0.92721659 -1.0286627 7.1869347e-39
2.5952318 -0.91967398 -1.0372536 7.8297776e-39
2.6184936 -0.91154975 -1.0355631 8.7593233e-39
2.6427503 -0.91903746 -1.0340834 8.2043657e-39
2.8281741 -0.87609726 -1.1027092 9.2152106e-39
2.8028228 -0.84841681 -1.0967441 6.8185263e-39
2.7794039 -0.82108414 -1.0837158 5.252274e-39
2.7998981 -0.820961 -1.1073385 6.3575342e-39
2.768137 -0.79411018 -1.0774293 5.0693261e-39
2.7998707 -0.79350233 -1.1073385 5.6214139e-39
2.7568784 -0.76738077 -1.0711131 5.6199874e-39
2.8023236 -0.76290303 -1.0982575 6.2653582e-39
2.8285356 -0.75053602 -1.1009281 6.3557489e-39
2.8821101 -0.75268054 -1.1097424 7.8311845e-39
2.8523502 -0.74048287 -1.1161652 7.2794891e-39
2.5752761 -1.0306996 -0.99690175 7.9262962e-39
2.5621281 -1.0003732 -0.99179649 8.8471945e-39
2.570297 -0.96832544 -0.99497795 7.5571606e-39
2.5817566 -0.94236809 -0.99941725 7.2802051e-39
2.6239331 -0.93208748 -1.0157475 7.371312e-39
2.6482241 -0.92938799 -1.0141051 7.7343688e-39
2.5817416 -0.92720854 -0.99941725 7.4635412e-39
2.6225681 -0.9218173 -1.0207015 7.5553655e-39
2.6597011 -0.92016637 -1.0156996 8.0166982e-39
2.7899711 -0.85736728 -1.0452069 1.0052968e-38
2.8105471 -0.84657848 -1.0684922 5.9895098e-39
2.8330302 -0.86132056 -1.0848984 6.7310069e-39
2.76215 -0.81775832 -1.0520209 5.0689744e-39
2.7389286 -0.78725916 -1.0420487 6.17388e-39
2.7607152 -0.80696344 -1.0572278 5.9909251e-39
2.7400389 -0.76798964 -1.0379186 7.5553347e-39
2.7686868 -0.76537567 -1.0516191 7.0043343e-39
2.8108463 -0.75944251 -1.0670795 6.9106897e-39
2.8343806 -0.75053018 -1.079555 8.4730086e-39
2.8143077 -0.74406213 -1.0543661 7.7350806e-39
2.5799675 -1.0293976 -0.96647292 6.8141977e-39
2.5700648 -1.0003654 -0.9627741 9.1244961e-39
2.5717416 -0.96900171 -0.96448863 8.0192387e-39
2.5851502 -0.94432431 -0.96711308 6.4511802e-39
2.6320615 -0.93207932 -0.98602432 6.8156131e-39
2.6536872 -0.9293825 -0.99412668 7.1851341e-39
2.5897393 -0.92720056 -0.97017181 6.2642666e-39
2.6688516 -0.91725427 -0.99094796 8.3854989e-39
2.7485847 -0.84291327 -1.0069422 1.1815817e-38
2.7683456 -0.84294361 -1.0294573 8.6667718e-39
2.7471514 -0.82150549 -1.0121049 7.4624664e-39
2.7664273 -0.82315224 -1.0364 6.1738856e-39
2.7252197 -0.7935127 -1.0012175 7.188755e-39
2.7440112 -0.78725392 -1.0234629 6.1749366e-39
2.7258985 -0.77227902 -0.99865741 7.0050672e-39
2.7463894 -0.76530713 -1.0146862 6.5415793e-39
2.7814536 -0.75614148 -1.0285949 6.7255936e-39
2.7946346 -0.73396438 -1.0277028 8.8421387e-39
2.5846288 -1.02807 -0.93615562 8.8446904e-39
2.5780015 -1.0003574 -0.93375164 8.2018181e-39
2.5841849 -0.97047657 -0.93491429 8.6631634e-39
2.5924714 -0.94431704 -0.94034201 7.6486528e-39
2.6388352 -0.93207258 -0.96125489 6.4489675e-39
2.5977371 -0.92719257 -0.94092643 6.8178019e-39
2.6221185 -0.92474246 -0.93895471 7.0021735e-39
2.6401746 -0.91666389 -0.95630103 6.9078185e-39
2.6740906 -0.91236395 -0.96305293 8.1913644e-39
2.7549407 -0.84558302 -0.98370993 1.1068206e-38
2.7542162 -0.82685077 -0.98629129 7.1847851e-39
2.7315207 -0.79350638 -0.97817636 7.8337601e-39
2.7314994 -0.77227342 -0.97817636 7.2802192e-39
2.7541518 -0.76262325 -0.98629129 7.3706197e-39
2.7837095 -0.75147009 -1.004534 7.5528264e-39
2.7562404 -0.7331835 -0.97854716 7.8236525e-39
2.791554 -0.73548669 -1.0073811 8.6577278e-39
2.711545 -0.70269328 -0.95990604 1.3643834e-38
2.7314355 -0.70857435 -0.97817641 1.2995601e-38
2.6031902 -1.0484642 -0.92142946 1.0511059e-38
2.5863433 -1.0275714 -0.90334719 8.7568052e-39
2.5859382 -1.0003495 -0.90472925 8.4791183e-39
2.5650938 -0.97239959 -0.89744633 6.3572021e-39
2.5855272 -0.96739614 -0.90611124 7.2791416e-39
2.5925035 -0.94255555 -0.90704644 7.833023e-39
2.6456087 -0.93206578 -0.93648553 6.8163627e-39
2.6057348 -0.92718458 -0.911681 7.1873285e-39
2.6288388 -0.92473572 -0.91437995 7.0014813e-39
2.6476283 -0.91922432 -0.92905468 6.725581e-39
2.6746018 -0.91159958 -0.93211728 8.7474109e-39
2.762145 -0.84932238 -0.95738 1.0788744e-38
2.7406487 -0.82003862 -0.94489473 7.090807e-39
2.7626925 -0.83219457 -0.95531493 6.264261e-39
2.739922 -0.79349798 -0.94745487 7.5542977e-39
2.7406917 -0.76316422 -0.94452906 7.5568089e-39
2.7597992 -0.76261759 -0.96564037 7.5553585e-39
2.7412584 -0.72979754 -0.94233465 7.4559504e-39
2.7621927 -0.73585367 -0.95678997 7.4570406e-39
2.7143223 -0.70269048 -0.94975048 1.3548024e-38
2.7398369 -0.70856595 -0.94745487 1.2806869e-38
2.7653985 -0.7144413 -0.9449895 1.1972791e-38
2.6111877 -1.0484562 -0.89218408 1.0144787e-38
2.5942345 -1.0291755 -0.87449759 9.1248674e-39
2.5938749 -1.0003415 -0.87570679 8.3869325e-39
2.5708635 -0.96841437 -0.87633455 8.0177926e-39
2.5964904 -0.97025073 -0.86603272 7.8359069e-39
2.5716348 -0.95249569 -0.87345564 8.0170681e-39
2.5982432 -0.94175351 -0.87721032 7.6479241e-39
2.61373 -0.92465001 -0.88243556 7.1855152e-39
2.6355593 -0.92472905 -0.88980526 6.5430241e-39
2.6569743 -0.91767424 -0.8948729 6.542273e-39
2.6903341 -0.90988326 -0.90987396 1.0316187e-38
2.7469761 -0.84657347 -0.92185366 9.5930931e-39
2.7683721 -0.86430264 -0.93466401 1.5213394e-38
2.7469549 -0.82534051 -0.92185366 5.9873111e-39
2.7469232 -0.79349095 -0.92185366 7.094037e-39
2.7245653 -0.76234144 -0.91251355 7.5557271e-39
2.7464175 -0.75456434 -0.92356038 7.5557453e-39
2.7468648 -0.73510021 -0.92185366 7.0940244e-39
2.7696447 -0.72514164 -0.9295013 7.1847683e-39
2.7962275 -0.72055727 -0.92705351 7.9176418e-39
2.7682221 -0.7144385 -0.93466401 1.141527e-38
2.8199866 -0.71579224 -0.93493128 1.243305e-38
2.5808992 -1.0320755 -0.83986872 1.0420998e-38
2.6018405 -1.029168 -0.8466844 9.3096146e-39
2.5795474 -0.99228233 -0.8446669 8.6628145e-39
2.602478 -1.0053476 -0.84426588 8.571681e-39
2.5782151 -0.97238636 -0.84946501 8.2028915e-39
2.6021121 -0.97024512 -0.84547514 8.0184989e-39
2.6017513 -0.94015735 -0.8466844 7.3724134e-39
2.6210611 -0.92464268 -0.8556273 7.2784157e-39
2.6442907 -0.91962487 -0.85785812 7.2769625e-39
2.6645572 -0.91407162 -0.86713117 6.9085528e-39
2.6864429 -0.90345985 -0.87425667 8.3764507e-39
2.6672332 -0.8806864 -0.85722345 1.3184655e-38
2.6850612 -0.88792729 -0.87925118 1.5212652e-38
2.7339051 -0.84480494 -0.87866169 8.2958397e-39
2.7521141 -0.85010713 -0.90307939 1.0321674e-38
2.7324953 -0.82374942 -0.88373947 5.7128808e-39
2.7511556 -0.82533634 -0.90649289 6.1727632e-39
2.709878 -0.79075742 -0.87533969 6.7263307e-39
2.7292254 -0.79392225 -0.89558768 6.3593433e-39
2.7100337 -0.76291627 -0.8746683 6.5430101e-39
2.7301209 -0.76409066 -0.89220238 7.186576e-39
2.7109275 -0.73855448 -0.87131143 7.3713344e-39
2.7310245 -0.74127817 -0.88881731 7.6486514e-39
2.7533047 -0.73403209 -0.89830053 7.2773213e-39
2.7767038 -0.72513461 -0.90368766 7.5535578e-39
2.8004994 -0.72055298 -0.91143262 6.7248832e-39
2.7795169 -0.71442717 -0.89336222 7.0025294e-39
2.8138103 -0.70734984 -0.9100982 1.159862e-38
2.6298492 -1.0484376 -0.82394475 1.0694696e-38
2.6097772 -1.02916 -0.817662 9.5854911e-39
2.584796 -0.99227709 -0.82547438 8.6635236e-39
2.6097534 -1.0053403 -0.817662 8.7549975e-39
2.5876648 -0.97436666 -0.81491846 8.1107029e-39
2.6070726 -0.97024012 -0.82733613 8.1085463e-39
2.5873804 -0.95247996 -0.81587809 7.7411931e-39
2.609688 -0.94014943 -0.817662 7.4649579e-39
2.6243672 -0.91792136 -0.82076758 6.9106996e-39
2.6516745 -0.91112518 -0.83082587 6.5437191e-39
2.672678 -0.90635991 -0.83740789 6.2664204e-39
2.6939521 -0.90086329 -0.84678638 6.8991725e-39
2.6918905 -0.88792044 -0.85427827 1.2442051e-38
2.7192991 -0.8481701 -0.84109968 1.1340417e-38
2.738765 -0.84480011 -0.86088949 7.1927081e-39
2.7159662 -0.81998432 -0.8531844 5.3433795e-39
2.7422209 -0.82900393 -0.84819508 5.6203363e-39
2.7113032 -0.79278255 -0.85076004 6.4508102e-39
2.7054691 -0.76154852 -0.8477602 6.725958e-39
2.7059903 -0.73033452 -0.84573996 7.0933042e-39
2.7365611 -0.72372526 -0.86850613 7.1844208e-39
2.7608511 -0.71916139 -0.87065119 7.3680778e-39
2.7420998 -0.70792693 -0.84819508 7.0925699e-39
2.7633483 -0.69580257 -0.86143476 8.011973e-39
2.7823298 -0.70371979 -0.88303679 8.8428085e-39
2.5966401 -1.0270855 -0.78229117 1.0047543e-38
2.6150746 -1.0354232 -0.79831374 1.0230853e-38
2.5947409 -1.0022159 -0.78914571 8.7553633e-39
2.5939612 -0.97237062 -0.79188746 8.01778e-39
2.5944619 -0.94849342 -0.78996819 7.8315993e-39
2.6176198 -0.93512678 -0.78863961 7.0039924e-39
2.6310089 -0.91468942 -0.79267937 6.5415751e-39
2.6570442 -0.9043259 -0.81116617 5.7153976e-39
2.6780915 -0.90121871 -0.81759238 5.3473325e-39
2.7000959 -0.89826816 -0.82431072 6.3438547e-39
2.6390283 -0.89683199 -0.78982508 6.3564454e-39
2.6610661 -0.89413106 -0.79642135 5.8976224e-39
2.6821456 -0.89094299 -0.80273074 5.5248798e-39
2.6403308 -0.8665114 -0.78495085 1.031324e-38
2.6825526 -0.84643251 -0.80107945 1.198869e-38
2.7165456 -0.84760588 -0.82210308 7.1033781e-39
2.7450192 -0.85005808 -0.83803952 3.3068093e-39
2.7174318 -0.8233003 -0.81877333 5.5281365e-39
2.7062562 -0.79267192 -0.81385428 6.5412038e-39
2.7023532 -0.76493281 -0.81557029 7.0943874e-39
2.6833565 -0.74713993 -0.79777688 7.8305203e-39
2.7069151 -0.72985893 -0.81461275 7.2787744e-39
2.7184772 -0.70837998 -0.82179654 7.0021805e-39
2.7476435 -0.69739294 -0.8278839 6.4497284e-39
2.7692206 -0.68730348 -0.8399297 1.0862455e-38
2.6012299 -1.0245938 -0.76549768 1.0046105e-38
2.5817015 -0.99444538 -0.75718755 8.6613796e-39
2.6014297 -1.0055254 -0.76469809 8.8479162e-39
2.5832441 -0.97470069 -0.75147438 8.2954529e-39
2.6009576 -0.97070551 -0.76629746 8.1106917e-39
2.5842562 -0.94508499 -0.74766564 8.3883534e-39
2.6012831 -0.9464969 -0.76501787 7.9263074e-39
2.6242337 -0.93512022 -0.76445425 7.464616e-39
2.6322544 -0.91235924 -0.76157922 6.7248818e-39
2.6456878 -0.89177221 -0.76545393 5.712878e-39
2.6684461 -0.88138509 -0.76938915 5.24903e-39
2.643882 -0.86313909 -0.77195293 1.049409e-38
2.6677511 -0.85845643 -0.77184665 1.4377801e-38
2.6892624 -0.84691489 -0.77654594 8.2065111e-39
2.6902022 -0.81903404 -0.77300745 5.4345073e-39
2.7082183 -0.82576829 -0.79434317 5.0696652e-39
2.6895893 -0.78675252 -0.77513057 6.081662e-39
2.7081926 -0.79987836 -0.79434323 5.9898251e-39
2.688791 -0.76254183 -0.77796137 7.0954608e-39
2.6896718 -0.74028593 -0.77465874 7.924148e-39
2.7092161 -0.73049235 -0.79034752 7.9237935e-39
2.6914542 -0.71631706 -0.76805359 7.9248697e-39
2.7218823 -0.70953077 -0.78755039 7.4642433e-39
2.7559752 -0.6973846 -0.79741728 6.8188613e-39
2.7790222 -0.68729365 -0.80408794 1.048507e-38
2.7818122 -0.67667437 -0.79384744 1.5309463e-38
2.6080101 -1.0254161 -0.74070728 1.0321606e-38
2.5921371 -1.0141782 -0.71909982 1.0320511e-38
2.6097395 -1.0050434 -0.73430991 9.4929227e-39
2.5894926 -0.9734605 -0.72862184 8.5723901e-39
2.5705423 -0.94749492 -0.7182098 8.0195807e-39
2.5890894 -0.94225973 -0.72998214 8.0177772e-39
2.6083546 -0.93256176 -0.73910797 7.649352e-39
2.5920482 -0.9253341 -0.71909982 7.4653251e-39
2.6096568 -0.92261177 -0.73430979 7.3738497e-39
2.6321454 -0.91003895 -0.73543185 6.6330337e-39
2.6485679 -0.88736558 -0.73898518 5.4359226e-39
2.6731477 -0.87883276 -0.75218683 5.4370016e-39
2.6943176 -0.87038773 -0.75814581 9.1971941e-39
2.6536603 -0.86649811 -0.7362085 4.8820342e-39
2.6758103 -0.85335296 -0.74235696 8.1845415e-39
2.6953809 -0.8498435 -0.7541827 8.9458516e-39
2.6956213 -0.81902862 -0.75319195 5.9891076e-39
2.6955903 -0.78821385 -0.75319195 6.1745737e-39
2.6955647 -0.7625351 -0.75319195 6.8196011e-39
2.695539 -0.7368561 -0.75319195 7.5560704e-39
2.6955185 -0.716313 -0.75319195 7.7401113e-39
2.7287328 -0.70431781 -0.76248246 7.6468311e-39
2.7629132 -0.69211346 -0.77202851 6.6362861e-39
2.7628973 -0.67632091 -0.77202851 1.1697656e-38
2.620363 -1.1315223 -0.69592482 1.169337e-38
2.6453691 -1.1278149 -0.70777571 1.1596504e-38
2.5796437 -1.006253 -0.68514323 9.9510352e-39
2.5990696 -1.0026544 -0.69370812 9.4929101e-39
2.6167376 -1.00551 -0.70871979 9.4907549e-39
2.5787485 -0.97197294 -0.68829244 8.6638697e-39
2.5973032 -0.97221869 -0.70005602 8.5705908e-39
2.5795949 -0.9572804 -0.68514323 8.2035908e-39
2.598223 -0.94507104 -0.69659352 8.0174129e-39
2.6228082 -0.95244455 -0.68632853 7.5557088e-39
2.597996 -0.92109746 -0.69733548 7.0039728e-39
2.6201444 -0.91265279 -0.69592488 5.1593511e-39
2.6387544 -0.90501767 -0.71124649 4.8820566e-39
2.6227484 -0.89275289 -0.68632853 4.3303275e-39
2.652247 -0.8844347 -0.71490639 4.5139817e-39
2.6227038 -0.84798414 -0.68632853 4.0533539e-39
2.6466322 -0.85355842 -0.71210521 4.2363102e-39
2.6784985 -0.85335034 -0.73252708 8.6753379e-39
2.6997058 -0.8395676 -0.7383303 6.0802284e-39
2.6226888 -0.83306116 -0.68632853 4.4214232e-39
2.6519051 -0.8275581 -0.71064097 5.8040003e-39
2.680079 -0.82073796 -0.72662914 5.7121592e-39
2.6558428 -0.79172152 -0.70805252 6.2642638e-39
2.6791122 -0.79475236 -0.73006958 6.356458e-39
2.6602292 -0.77048045 -0.71183735 6.9089101e-39
2.6810982 -0.76502711 -0.72269714 6.9099793e-39
2.7016582 -0.75996107 -0.73089951 6.9099989e-39
2.7023125 -0.73684937 -0.72842252 7.3709701e-39
2.7217739 -0.72219503 -0.74439734 7.5560704e-39
2.7036467 -0.7163049 -0.72346866 7.554613e-39
2.7294188 -0.70273215 -0.7357474 7.55499e-39
2.7684677 -0.69210792 -0.75171739 7.0958265e-39
2.7494259 -0.68109399 -0.7303232 8.656276e-39
2.7684569 -0.68157959 -0.75171739 9.110783e-39
2.7902136 -0.67666596 -0.76312596 1.2719745e-38
2.6599829 -1.1474309 -0.68426323 1.1416778e-38
2.6614351 -1.1224601 -0.68596834 1.1700572e-38
2.628186 -1.0817715 -0.66713601 1.1611959e-38
2.6495323 -1.1005795 -0.67254996 1.2066797e-38
2.6103747 -1.0240314 -0.65244633 9.7745304e-39
2.6307507 -1.0220771 -0.65753978 6.9153911e-39
2.5865366 -1.0095109 -0.65994966 1.0414859e-38
2.607095 -0.99935579 -0.66434878 8.1085505e-39
2.6307406 -1.0121285 -0.65753978 5.8983889e-39
2.5873606 -0.97196442 -0.65680045 6.9139534e-39
2.6077309 -0.98454779 -0.66196823 7.1883837e-39
2.5881941 -0.9442125 -0.65365136 4.3321184e-39
2.6050878 -0.94506413 -0.67149019 6.5419226e-39
2.6254325 -0.95244193 -0.6767323 6.4508032e-39
2.5888469 -0.90829861 -0.65113193 3.2265009e-39
2.605926 -0.91544861 -0.66831619 3.5034395e-39
2.6254027 -0.92259604 -0.6767323 4.2395668e-39
2.5844641 -0.87945098 -0.6544174 3.3183392e-39
2.6050284 -0.88583481 -0.67149019 3.2264799e-39
2.6253529 -0.87285304 -0.6767323 3.0417215e-39
2.6440206 -0.8799389 -0.69189823 4.3303065e-39
2.5732687 -0.85221595 -0.64723712 3.5938317e-39
2.6049891 -0.84634864 -0.67149019 3.7774943e-39
2.6253428 -0.86290437 -0.6767323 3.2268344e-39
2.5755739 -0.82577252 -0.64881909 3.5934576e-39
2.6075697 -0.8233124 -0.66196823 3.6845574e-39
2.6253028 -0.82310987 -0.67673224 4.3299408e-39
2.6446192 -0.81725484 -0.68947965 4.7902071e-39
2.6092858 -0.80356747 -0.65562028 3.5001843e-39
2.6289454 -0.79127067 -0.66329753 3.8675431e-39
2.6452529 -0.78967351 -0.68706113 4.6998107e-39
2.62919 -0.77336287 -0.6623379 3.9582884e-39
2.6601079 -0.76344943 -0.68571877 5.1589714e-39
2.6878054 -0.75143266 -0.6981225 6.171694e-39
2.6695244 -0.73509866 -0.67771769 4.6994408e-39
2.6880558 -0.73308897 -0.6971395 6.4482809e-39
2.7077212 -0.72657245 -0.70860702 7.0915035e-39
2.6695044 -0.71488583 -0.67771769 5.4373547e-39
2.6904528 -0.71066666 -0.68829256 6.4489997e-39
2.7097352 -0.70859522 -0.70117623 6.9085191e-39
2.7363884 -0.69723302 -0.70539755 7.2780443e-39
2.7486839 -0.68231219 -0.71124399 7.8290447e-39
2.7795658 -0.68156844 -0.71109521 1.0401467e-38
2.6650722 -1.1500809 -0.65571117 1.2338729e-38
2.6639647 -1.1214575 -0.65397066 1.2705722e-38
2.6548185 -1.0955596 -0.65320164 1.1698383e-38
2.6129785 -1.0240288 -0.64292443 6.1822037e-39
2.6351275 -1.025389 -0.64154595 4.7009261e-39
2.6142509 -0.99441284 -0.63816345 4.7902337e-39
2.6366429 -1.0096353 -0.63594818 4.6083466e-39
2.5938146 -0.96706069 -0.63318151 4.3317513e-39
2.6165788 -0.97861594 -0.62959373 4.1473586e-39
2.5937934 -0.94583929 -0.63318151 4.1469957e-39
2.6165433 -0.94307834 -0.62959373 3.9636974e-39
2.5946815 -0.91109121 -0.62980741 3.5949205e-39
2.5783236 -0.881661 -0.62317383 4.1470167e-39
2.5755458 -0.85288072 -0.62374842 3.6863763e-39
2.5845902 -0.82296252 -0.6250301 3.3168721e-39
2.6127713 -0.81672609 -0.64292443 4.0518994e-39
2.615365 -0.80685192 -0.63340241 3.0402964e-39
2.6357706 -0.7932536 -0.63834733 3.3157987e-39
2.6357503 -0.77335632 -0.63834721 3.5001913e-39
2.6544826 -0.75957614 -0.65320164 3.6845812e-39
2.6612515 -0.73133945 -0.65488291 3.8686109e-39
2.6971831 -0.72085083 -0.66371781 4.1448349e-39
2.6953773 -0.70726484 -0.6702711 4.5129097e-39
2.7194381 -0.70259368 -0.66567338 3.9611709e-39
2.7408645 -0.69110805 -0.67447305 4.6047116e-39
2.7548046 -0.6799044 -0.6757735 5.6131224e-39
2.7865024 -0.67454261 -0.68570644 1.0503363e-38
2.8070164 -0.67664915 -0.70168298 1.4658693e-38
2.8815949 -0.57418561 -0.70912886 1.2157912e-38
2.9097526 -0.57921433 -0.70474857 1.1970315e-38
2.8830092 -0.55240804 -0.70387763 1.1782312e-38
2.6653564 -1.1491109 -0.62623578 1.3809886e-38
2.6685994 -1.119298 -0.6246078 1.2796457e-38
2.7069793 -1.1080925 -0.62931329 1.1610154e-38
2.6746249 -1.0960993 -0.63385081 1.1424692e-38
2.6673126 -1.0279318 -0.62318873 4.4232336e-39
2.6420958 -0.99553597 -0.61595589 4.7912791e-39
2.6653156 -1.0102994 -0.61450511 4.6083311e-39
2.6228182 -0.96873814 -0.60674107 4.2384654e-39
2.6464565 -0.98226678 -0.59996217 4.0548112e-39
2.6035678 -0.93906671 -0.59741563 4.238471e-39
2.6207066 -0.94011271 -0.61435866 4.7891463e-39
2.5995514 -0.91204756 -0.59936535 3.6849553e-39
2.5832677 -0.88203633 -0.59561801 3.871499e-39
2.5854044 -0.85358024 -0.59612548 3.3186657e-39
2.5913343 -0.82139158 -0.5974918 3.1332053e-39
2.6225238 -0.80437684 -0.60721719 3.1317661e-39
2.6440184 -0.79324526 -0.60818762 3.3165105e-39
2.6650949 -0.78965366 -0.61450511 3.5012563e-39
2.6436231 -0.77334845 -0.6095584 3.5016179e-39
2.6624193 -0.75956827 -0.62417924 3.4097796e-39
2.6646607 -0.73009431 -0.62472039 3.4079901e-39
2.7025597 -0.72084546 -0.64405811 3.1317816e-39
2.6841669 -0.71487117 -0.6241011 3.8671774e-39
2.7052374 -0.71065187 -0.63422817 3.5012731e-39
2.7266617 -0.70087451 -0.63925272 3.8682452e-39
2.7490597 -0.69109988 -0.64450556 3.8703906e-39
2.8182287 -0.68725449 -0.660721 7.7152593e-39
2.7639995 -0.68444276 -0.64798039 3.5952638e-39
2.7920635 -0.68155599 -0.66539526 5.6048463e-39
2.816818 -0.67663938 -0.66584122 1.152581e-38
2.8830473 -0.5798068 -0.67224699 1.2617832e-38
2.9126499 -0.57921147 -0.69415408 1.2706799e-38
2.890547 -0.55103946 -0.67630875 1.1873087e-38
2.9140544 -0.53527606 -0.68885684 1.2611364e-38
2.6775818 -1.1486377 -0.59669358 1.2980848e-38
2.6804473 -1.1218678 -0.59938562 1.3257426e-38
2.7164083 -1.1284647 -0.59490865 1.2800039e-38
2.6517551 -1.0320047 -0.58076966 7.5643857e-39
2.6740396 -1.0266576 -0.59593141 4.4228707e-39
2.649091 -0.99221283 -0.59036595 4.9745983e-39
2.6706028 -1.0062823 -0.59515685 4.6994534e-39
2.6311522 -0.96971697 -0.576271 4.1448377e-39
2.610579 -0.9376604 -0.57177222 3.9619136e-39
2.5975049 -0.90862459 -0.56892753 3.9615394e-39
2.5909605 -0.88202864 -0.5674876 3.868269e-39
2.5931079 -0.85358077 -0.56795573 3.2257526e-39
2.5696399 -0.82070076 -0.56940705 3.4083544e-39
2.5979877 -0.81816483 -0.56683207 3.3161574e-39
2.6117334 -0.80053622 -0.56704837 3.0395635e-39
2.6309793 -0.79696476 -0.57627088 3.0406467e-39
2.6509852 -0.78726918 -0.58268893 3.5909366e-39
2.6514866 -0.76339191 -0.58076972 3.2254037e-39
2.6690309 -0.75705421 -0.59999388 3.225045e-39
2.6523378 -0.74017763 -0.57757086 3.5005473e-39
2.670326 -0.72947216 -0.59515685 3.684577e-39
2.6908264 -0.70981127 -0.5997299 3.5016403e-39
2.7132916 -0.7004531 -0.60473853 3.7789488e-39
2.7347851 -0.69573063 -0.60952944 3.9618869e-39
2.7572548 -0.69109166 -0.61453801 3.8700472e-39
2.7797251 -0.68628383 -0.61954671 3.8643019e-39
2.851856 -0.57876337 -0.62834233 1.2706442e-38
2.8726954 -0.58012849 -0.64691842 1.2527063e-38
2.8527832 -0.56448966 -0.62490052 1.2705691e-38
2.8873158 -0.55267304 -0.65022033 1.2151449e-38
2.9242058 -0.54624939 -0.65177619 1.298336e-38
2.8973479 -0.53061754 -0.65136546 1.2424432e-38
2.9184003 -0.5352717 -0.67296517 1.2700676e-38
2.6937871 -1.1459688 -0.57059693 1.1415323e-38
2.7231388 -1.1386489 -0.57033396 1.0495165e-38
2.6965725 -1.1241692 -0.58023298 1.2153942e-38
2.723573 -1.1250607 -0.5686956 1.1234512e-38
2.7433448 -1.1271276 -0.57980615 1.1797429e-38
2.6790028 -1.0286729 -0.56452209 4.791649e-39
2.657845 -0.99883646 -0.55837834 4.2399186e-39
2.6778796 -1.0077795 -0.56855297 4.4228707e-39
2.6389589 -0.96477342 -0.54770511 3.9611667e-39
2.6595757 -0.97976661 -0.55198085 3.8707535e-39
2.6183298 -0.93765271 -0.54342937 3.5945618e-39
2.6389487 -0.95490181 -0.54770505 4.2370221e-39
2.5986826 -0.91118419 -0.53935724 3.9626142e-39
2.5790358 -0.88500941 -0.53528506 3.3158001e-39
2.5986485 -0.87716043 -0.53935724 3.1306815e-39
2.5986242 -0.85285765 -0.53935724 3.2246666e-39
2.5815179 -0.8222968 -0.52597904 2.6750998e-39
2.5978611 -0.82230645 -0.54203629 3.2250436e-39
2.608701 -0.79872698 -0.54022115 3.3165035e-39
2.6381328 -0.78955394 -0.5500856 3.5909492e-39
2.6567547 -0.78328401 -0.56157714 3.5931002e-39
2.6400733 -0.7772125 -0.54294419 2.9502489e-39
2.6593595 -0.76338416 -0.55198091 3.4083572e-39
2.6593347 -0.73851258 -0.55198097 3.5005501e-39
2.6782577 -0.72444957 -0.56613445 3.7756922e-39
2.6992669 -0.70811838 -0.56885976 3.9597303e-39
2.7213564 -0.70044494 -0.5752489 4.0526336e-39
2.7415588 -0.69572383 -0.58476001 3.9590045e-39
2.7627187 -0.69108623 -0.59455973 3.5012493e-39
2.7442577 -0.6854496 -0.57485223 3.5001745e-39
2.7804639 -0.68442631 -0.58777398 5.8807045e-39
2.8829696 -0.60171086 -0.60942823 1.2441342e-38
2.8565657 -0.58232689 -0.61113322 1.3071985e-38
2.8829427 -0.57472003 -0.60942823 1.4363068e-38
2.8556068 -0.5644868 -0.61457503 1.3625489e-38
2.8913553 -0.5536437 -0.62597668 1.3806288e-38
2.9319355 -0.5499028 -0.62352425 1.3810225e-38
2.9270921 -0.535263 -0.64118177 1.3532586e-38
2.7059236 -1.1443725 -0.54611331 1.0955067e-38
2.7024016 -1.1219958 -0.53900731 1.0217844e-38
2.7284896 -1.1131665 -0.5506742 1.2074372e-38
2.7033763 -1.096777 -0.53535163 1.1978215e-38
2.6933854 -1.0279484 -0.53846288 4.0540784e-39
2.6864753 -1.0052636 -0.53711206 3.8732941e-39
2.6467707 -0.96476561 -0.51913929 3.9626058e-39
2.6674507 -0.98224568 -0.52319205 3.6874342e-39
2.6260853 -0.94254214 -0.51508659 3.5952624e-39
2.5879622 -0.90429592 -0.50271404 4.2391941e-39
2.6057415 -0.918468 -0.51357102 4.3317625e-39
2.5866799 -0.89464945 -0.50736707 3.7775027e-39
2.6063461 -0.88201332 -0.51122683 3.04136e-39
2.606317 -0.8528499 -0.51122677 2.8580477e-39
2.5866077 -0.82229173 -0.50736707 3.1342745e-39
2.6062782 -0.81396568 -0.51122683 3.2250268e-39
2.6143889 -0.79494166 -0.51182598 3.2243163e-39
2.6452911 -0.78707886 -0.52390033 3.132855e-39
2.6659396 -0.78327477 -0.52799022 2.9509636e-39
2.6469429 -0.76451373 -0.51777911 3.3172294e-39
2.6672218 -0.75342751 -0.52319205 3.5001787e-39
2.6672075 -0.73850465 -0.52319217 3.7757006e-39
2.6861944 -0.72444165 -0.53711206 3.7763999e-39
2.706485 -0.70600569 -0.54245764 3.7774915e-39
2.729414 -0.69364309 -0.5457592 3.8696871e-39
2.7537515 -0.69571167 -0.54017508 3.6867518e-39
2.7763772 -0.69107252 -0.54461384 2.7626025e-39
2.7501249 -0.68201983 -0.55338544 4.5100175e-39
2.7763669 -0.68071657 -0.54461384 8.8381772e-39
2.8915133 -0.60170227 -0.57818639 1.2810131e-38
2.8612862 -0.59659487 -0.59392411 1.262754e-38
2.9077365 -0.58393633 -0.59251022 1.3441471e-38
2.9131773 -0.56326598 -0.59360206 1.2889721e-38
2.6573446 -1.1227 -0.48105165 1.1138766e-38
2.6754694 -1.1281511 -0.49440324 1.0862514e-38
2.6968632 -1.1194326 -0.50750512 1.0125669e-38
2.7096989 -1.0955074 -0.51222688 1.1236668e-38
2.7104707 -1.0306146 -0.51314771 3.5927415e-39
2.7405202 -1.0469141 -0.50643969 2.3041887e-39
2.694412 -1.0052557 -0.5080896 4.0540896e-39
2.6519787 -0.96476042 -0.50009549 4.0540798e-39
2.676192 -0.97560459 -0.49120462 3.9622527e-39
2.628257 -0.93832994 -0.48817614 4.3310268e-39
2.6545727 -0.9548862 -0.49057359 3.3197587e-39
2.5771158 -0.90698195 -0.46656644 4.8813237e-39
2.5930614 -0.91393846 -0.48410204 4.4243126e-39
2.5760942 -0.89549381 -0.47026053 3.7785607e-39
2.5943115 -0.89142591 -0.47944903 3.3172322e-39
2.6137173 -0.88079077 -0.48426852 3.0399405e-39
2.6140099 -0.85284227 -0.48309642 3.4094222e-39
2.5947523 -0.82324827 -0.47758782 3.4076286e-39
2.6133323 -0.81638885 -0.48544061 3.4072852e-39
2.6283066 -0.79529667 -0.4857491 3.1317675e-39
2.6250904 -0.77310085 -0.4801963 3.1335766e-39
2.6540136 -0.76732707 -0.49193391 3.2257666e-39
2.6750975 -0.75590682 -0.4944033 3.5916583e-39
2.6754045 -0.73476565 -0.49320382 3.5009088e-39
2.6936011 -0.72343129 -0.51002443 3.5016136e-39
2.7148197 -0.70978725 -0.51199365 3.5927527e-39
2.7374852 -0.7004289 -0.51626951 3.5927275e-39
2.7591703 -0.69570625 -0.52035958 4.0515714e-39
2.779109 -0.69106984 -0.53462464 3.5869695e-39
2.7600596 -0.68200994 -0.517057 6.8080643e-39
2.7818305 -0.68071115 -0.52463549 1.1055876e-38
2.8754261 -0.61798996 -0.54229689 1.2992332e-38
2.8979237 -0.60439497 -0.55475503 1.1055163e-38
2.9053962 -0.58171654 -0.55893713 1.1231281e-38
2.9445088 -0.56819612 -0.5776149 1.2236056e-38
2.6599483 -1.1226974 -0.47152972 1.1603693e-38
2.7140286 -1.1188363 -0.48019546 1.0311132e-38
2.7239594 -1.0902131 -0.47996297 1.0310768e-38
2.7432592 -1.0978656 -0.49660981 1.160904e-38
2.7231309 -1.0230783 -0.48274824 3.7742643e-39
2.7458963 -1.0469087 -0.48677987 3.2207416e-39
2.7023437 -1.0002329 -0.47906718 4.4225022e-39
2.6624019 -0.9721536 -0.46200779 3.5034213e-39
2.6805623 -0.97228408 -0.47521079 3.8693144e-39
2.6381426 -0.94404459 -0.45583862 4.514716e-39
2.6597805 -0.95488101 -0.47152972 4.3324659e-39
2.5859551 -0.90697312 -0.43424323 4.1459377e-39
2.6024759 -0.91199946 -0.44966984 4.0537351e-39
2.6019447 -0.88981038 -0.45153099 3.2250366e-39
2.6223705 -0.87956697 -0.45262185 3.498741e-39
2.6002207 -0.86247689 -0.45773503 3.408709e-39
2.6220219 -0.85161912 -0.45379394 3.4090705e-39
2.6018724 -0.81745255 -0.45153102 3.4083348e-39
2.6286044 -0.79311454 -0.45708042 3.4076286e-39
2.6384852 -0.76995164 -0.45394918 3.5920156e-39
2.6621873 -0.75744724 -0.46200785 3.5934505e-39
2.6803434 -0.75341439 -0.47521079 2.9516713e-39
2.6829481 -0.73351461 -0.46561453 3.5934477e-39
2.7020628 -0.71941108 -0.47906718 3.7771229e-39
2.7112715 -0.70171505 -0.48071146 3.9607981e-39
2.7455397 -0.69022995 -0.48677987 2.8580477e-39
2.7441857 -0.68004048 -0.4916949 7.1635316e-39
2.7699978 -0.68542385 -0.48072854 8.3664104e-39
2.7900257 -0.68070292 -0.49466795 1.6136718e-38
2.9076874 -0.63767385 -0.5191741 1.1612276e-38
2.8796566 -0.61263347 -0.52680868 1.0313994e-38
2.9068983 -0.60816467 -0.52195108 1.0036706e-38
2.9166567 -0.58795971 -0.5335812 1.1324214e-38
2.7150304 -1.1224737 -0.4508132 1.1230935e-38
2.7259908 -1.091701 -0.4526383 9.5731975e-39
2.7539914 -1.0774732 -0.4572902 1.2165483e-38
2.7311537 -1.0483363 -0.45350283 7.6573268e-39
2.7291341 -1.0281255 -0.46081421 3.4994669e-39
2.7557495 -1.043502 -0.45073697 3.4983837e-39
2.6923916 -0.9921695 -0.43202761 4.329952e-39
2.7102854 -1.0052398 -0.45004478 4.2388256e-39
2.6493626 -0.96700513 -0.43005824 4.2395304e-39
2.61344 -0.93321353 -0.40965402 4.3324968e-39
2.6329443 -0.94758445 -0.42936972 4.699445e-39
2.5879283 -0.90762168 -0.40807611 3.4133949e-39
2.6089721 -0.91874647 -0.42593953 4.2395626e-39
2.5900819 -0.88816392 -0.40960678 2.9488252e-39
2.6095703 -0.88084412 -0.42361301 3.40763e-39
2.6268508 -0.87227166 -0.43621245 3.6853155e-39
2.6126053 -0.86182141 -0.41244581 3.6856686e-39
2.6293972 -0.85444707 -0.42683563 3.5938079e-39
2.5913346 -0.81441605 -0.41423357 3.4069083e-39
2.6102037 -0.82007539 -0.42107505 3.0406439e-39
2.6137259 -0.79492944 -0.40810302 2.7669269e-39
2.6290154 -0.79328555 -0.42800775 3.2253799e-39
2.6385624 -0.76438844 -0.42745444 3.4094306e-39
2.6673901 -0.75250638 -0.44296396 3.6856504e-39
2.650429 -0.74173057 -0.42533442 3.4097613e-39
2.6706278 -0.73522788 -0.43106151 3.3186657e-39
2.69029 -0.72753811 -0.43874499 3.4087146e-39
2.7073541 -0.71940577 -0.45971891 3.8660984e-39
2.6908004 -0.71360946 -0.43682566 3.7757048e-39
2.716923 -0.70111001 -0.45119742 3.9611681e-39
2.7509162 -0.69022453 -0.46712014 3.8631991e-39
2.7307899 -0.68450528 -0.45350283 4.6864886e-39
2.7727072 -0.68542117 -0.47082078 1.0685698e-38
2.8155272 -0.68624806 -0.48862907 1.6231101e-38
2.8924112 -0.6607914 -0.48034418 1.318249e-38
2.8912604 -0.63938326 -0.48447439 9.7633663e-39
2.9122036 -0.64486694 -0.50268531 1.0133931e-38
2.8909512 -0.61262214 -0.48550692 1.0865018e-38
2.9114592 -0.61247867 -0.50528884 1.0495885e-38
2.8909349 -0.59656519 -0.48550692 1.1601493e-38
2.9268522 -0.58954293 -0.50578225 1.2062136e-38
2.959017 -0.59014857 -0.52464253 1.123239e-38
2.7183373 -1.1205692 -0.42102236 1.1324584e-38
2.6990516 -1.0916492 -0.40803695 1.1324933e-38
2.727556 -1.0878519 -0.423379 9.5757226e-39
2.7607121 -1.0774664 -0.43271556 1.0590592e-38
2.8013566 -1.0845743 -0.45471126 1.2443529e-38
2.7418325 -1.0634851 -0.41450894 1.0405132e-38
2.7620409 -1.0621787 -0.42780063 1.0145849e-38
2.8040674 -1.0638598 -0.44472209 3.037079e-39
2.7391236 -1.0205357 -0.4242574 3.226124e-39
2.7626925 -1.0417966 -0.42534316 3.0395845e-39
2.6989522 -0.99216294 -0.40803692 4.0562308e-39
2.7208629 -1.0002145 -0.41134822 4.1487809e-39
2.6571133 -0.96699739 -0.40171549 4.1491397e-39
2.6011369 -0.93568093 -0.37883198 5.066794e-39
2.6172671 -0.94285744 -0.395695 4.6086871e-39
2.6346214 -0.95003277 -0.40808204 4.2409948e-39
2.5843441 -0.91107708 -0.38117906 4.3303191e-39
2.5923624 -0.89080316 -0.38042679 3.5001843e-39
2.6193879 -0.88221252 -0.38771844 3.4994725e-39
2.6023233 -0.8590852 -0.37421438 3.8693368e-39
2.6194057 -0.85481995 -0.38755229 3.5941862e-39
2.6353724 -0.84634018 -0.40495643 3.5927191e-39
2.5997596 -0.82079053 -0.38344955 3.5934491e-39
2.6199441 -0.82032877 -0.38545841 3.5923729e-39
2.6196625 -0.79331559 -0.38638905 3.3175881e-39
2.6370203 -0.7847715 -0.39870524 3.3175713e-39
2.6406186 -0.76281822 -0.39925262 3.5012633e-39
2.6469324 -0.74137527 -0.40021032 3.8686011e-39
2.6803904 -0.73275018 -0.3953543 3.1339297e-39
2.6979425 -0.73207837 -0.41077882 3.6838469e-39
2.6993272 -0.71111381 -0.40563786 3.6842393e-39
2.725421 -0.70258635 -0.42344475 3.8679047e-39
2.851774 -0.68149626 -0.44705111 1.4003646e-38
2.8742223 -0.67127365 -0.45591104 1.133645e-38
2.8966467 -0.66078711 -0.46485597 9.3055901e-39
2.8762932 -0.64207625 -0.44823068 9.9420066e-39
2.8959219 -0.64205486 -0.46743736 9.3895363e-39
2.8755641 -0.61288154 -0.45079076 1.1417117e-38
2.8951867 -0.61261791 -0.47001871 1.1324553e-38
2.8755429 -0.59164852 -0.45079079 1.159972e-38
2.8951705 -0.59656096 -0.47001871 1.1782621e-38
2.9185576 -0.5908789 -0.47925395 1.2430203e-38
2.6833742 -1.1128024 -0.38583237 1.1418935e-38
2.7082615 -1.1165113 -0.37445006 1.1784842e-38
2.725214 -1.1185565 -0.39586958 1.1692992e-38
2.7043102 -1.1015927 -0.38884443 1.1968853e-38
2.731478 -1.087515 -0.39275295 1.0496245e-38
2.7471693 -1.0685332 -0.39501205 7.8142974e-39
2.7706439 -1.0631893 -0.39634496 9.5911859e-39
2.7893443 -1.0654525 -0.41137418 7.6616078e-39
2.749795 -1.0281048 -0.38526356 3.0384831e-39
2.7695482 -1.0428088 -0.40027696 2.7626375e-39
2.70683 -0.99712938 -0.37924817 4.2398919e-39
2.7261639 -1.0102385 -0.39199996 4.0519232e-39
2.6544192 -0.96459937 -0.36606798 4.6086759e-39
2.6858497 -0.98446965 -0.37631044 4.5168474e-39
2.6061881 -0.93567586 -0.36036158 4.3324673e-39
2.6299918 -0.94284469 -0.34916499 4.8849335e-39
2.5941079 -0.91184199 -0.35390234 4.0540938e-39
2.6011498 -0.88385415 -0.35584933 3.4083558e-39
2.5978713 -0.85099238 -0.35255465 3.5930904e-39
2.6248055 -0.84637284 -0.36777702 3.5045031e-39
2.6098616 -0.8207804 -0.34650874 3.7760383e-39
2.6270943 -0.82181257 -0.35931703 3.3179525e-39
2.6264505 -0.79491669 -0.36157301 3.3186685e-39
2.6469166 -0.79031652 -0.36253759 3.2253925e-39
2.6298084 -0.75953841 -0.34916499 3.4090677e-39
2.6511304 -0.76276892 -0.36869004 3.5931058e-39
2.6597142 -0.73595655 -0.36292902 3.6856504e-39
2.6855912 -0.72583497 -0.37631044 3.6860105e-39
2.7039421 -0.73349363 -0.38884443 3.5934604e-39
2.8375905 -0.71754718 -0.40806434 7.0734954e-39
2.8587592 -0.72360301 -0.42166227 5.3279007e-39
2.7060177 -0.70961481 -0.38116744 3.8686053e-39
2.7245302 -0.69932985 -0.396837 3.1360905e-39
2.794414 -0.71621412 -0.39155868 2.7615557e-39
2.8220024 -0.70943058 -0.42143929 7.9237739e-39
2.8615258 -0.71307176 -0.41150671 1.4840241e-38
2.8798387 -0.68719292 -0.43543008 1.3823914e-38
2.8587065 -0.67096084 -0.42166227 9.024662e-39
2.8807547 -0.66949779 -0.43201655 9.0264837e-39
2.8811965 -0.64472544 -0.43030983 1.0680267e-38
2.880887 -0.61499959 -0.4313339 1.1599701e-38
2.906476 -0.60725433 -0.4287169 1.1693327e-38
2.9050534 -0.59655106 -0.43387964 1.2617842e-38
2.6937902 -1.112792 -0.34774464 1.1883862e-38
2.7121978 -1.1165074 -0.36005563 1.2059631e-38
2.732878 -1.1105254 -0.36781463 1.1877025e-38
2.6753261 -1.0943077 -0.33558232 1.1601901e-38
2.6937802 -1.1029204 -0.34774464 1.1784843e-38
2.7161195 -1.1015807 -0.34566122 1.1324575e-38
2.7434859 -1.0905852 -0.3651382 1.0772824e-38
2.7520261 -1.0668792 -0.36132425 7.5495754e-39
2.777631 -1.0611441 -0.37078726 7.0053951e-39
2.7551301 -1.0314684 -0.36576658 2.9477294e-39
2.7768106 -1.0468779 -0.37373626 2.7633339e-39
2.6936715 -0.99433345 -0.34774458 4.2377396e-39
2.7147176 -1.0120444 -0.3504594 3.1306689e-39
2.661628 -0.97043949 -0.339728 4.6990961e-39
2.6137648 -0.93566829 -0.33265597 4.8842216e-39
2.6367846 -0.94926965 -0.32434902 4.8824111e-39
2.6115017 -0.91606277 -0.32569548 3.8697039e-39
2.60495 -0.88323873 -0.32334062 4.1462894e-39
2.5990765 -0.85277367 -0.32288209 3.6863903e-39
2.6080277 -0.82196897 -0.32478645 3.6853029e-39
2.6341093 -0.81902826 -0.33365503 3.9600947e-39
2.6352463 -0.78968209 -0.32938975 3.6856448e-39
2.652406 -0.78475618 -0.34244448 3.6845616e-39
2.6361754 -0.7643559 -0.32590002 3.9600835e-39
2.6539211 -0.76142395 -0.3368184 3.6856588e-39
2.665658 -0.73457217 -0.33929321 3.5938149e-39
2.6946971 -0.71792859 -0.34298369 3.8686137e-39
2.7118049 -0.72353715 -0.36005563 3.9604492e-39
2.8403444 -0.71754444 -0.39799377 8.2760043e-39
2.8896723 -0.71903259 -0.39958835 1.6407219e-38
2.7144189 -0.71358585 -0.35045931 4.1437629e-39
2.7385275 -0.70641243 -0.36160052 4.5078538e-39
2.7971234 -0.71621144 -0.38165095 3.038116e-39
2.8201058 -0.71174079 -0.38478705 9.2098043e-39
2.8698473 -0.70253497 -0.38104016 1.4193073e-38
2.8882508 -0.69780105 -0.40470859 1.3179646e-38
2.8882244 -0.6712597 -0.40470856 8.746664e-39
2.8885493 -0.64604521 -0.40342852 1.1140523e-38
2.9114416 -0.63133472 -0.41064736 1.1692265e-38
2.8909609 -0.60755795 -0.3944681 1.1970289e-38
2.910717 -0.61260241 -0.41322875 1.178446e-38
2.6791918 -1.0845093 -0.32141095 1.1049442e-38
2.7041862 -1.0930386 -0.30965692 1.1050135e-38
2.7239773 -1.0866499 -0.31687248 9.9434471e-39
2.7407947 -1.0904589 -0.33879223 1.0219307e-38
2.7239575 -1.0667527 -0.31687245 9.1136865e-39
2.7508571 -1.0606138 -0.3372702 6.4490011e-39
2.725225 -1.0219826 -0.3120743 2.2069288e-39
2.745019 -1.030017 -0.33307594 2.6722327e-39
2.6829791 -0.99635506 -0.30723953 3.1335416e-39
2.6452806 -0.96212482 -0.29332897 4.1491649e-39
2.6649175 -0.97716081 -0.31003296 4.2391941e-39
2.6200912 -0.93613827 -0.29435945 4.5154153e-39
2.6414533 -0.95248091 -0.30728799 4.5161257e-39
2.6113772 -0.91116118 -0.29304859 4.789491e-39
2.613055 -0.88507736 -0.29294404 8.5709454e-39
2.6163774 -0.85153395 -0.29752076 8.4791057e-39
2.6426198 -0.84635502 -0.30263498 9.4896829e-39
2.6216459 -0.81917298 -0.3034111 7.4656852e-39
2.6431017 -0.81934088 -0.3007738 8.294727e-39
2.6157503 -0.78997207 -0.29958883 7.5571606e-39
2.6429253 -0.78846842 -0.30130559 7.466051e-39
2.6236947 -0.76332057 -0.29571509 8.9397153e-39
2.6431692 -0.75952506 -0.30030847 7.0032511e-39
2.6657333 -0.75699234 -0.31256318 5.0660905e-39
2.6719317 -0.73471487 -0.31221801 5.4366485e-39
2.6999052 -0.7179234 -0.32393986 3.8686011e-39
2.8966734 -0.71902561 -0.37398711 1.7421383e-38
2.6701465 -0.7119959 -0.30257902 3.5927289e-39
2.7216337 -0.71109152 -0.32406965 4.0533637e-39
2.744803 -0.70188028 -0.33598277 6.7176637e-39
2.7858725 -0.7003805 -0.33933166 1.4100116e-38
2.8411863 -0.70423341 -0.35127082 1.4764947e-38
2.8744724 -0.69902086 -0.36411422 8.4766029e-39
2.8966444 -0.68983018 -0.37398711 7.4537896e-39
2.8966258 -0.67125136 -0.37398708 9.3924075e-39
2.8965991 -0.64471006 -0.37398705 1.0680267e-38
2.9192042 -0.62865078 -0.3822524 1.0956499e-38
2.8993783 -0.6234743 -0.36374661 1.0127484e-38
2.9191935 -0.61794615 -0.3822524 1.1874127e-38
2.6341271 -1.0936241 -0.25877425 9.5833303e-39
2.6530502 -1.097185 -0.26541096 1.2352407e-38
2.6811683 -1.0917997 -0.27630076 1.1428276e-38
2.7076545 -1.0897444 -0.29696098 1.04991e-38
2.7279088 -1.0816717 -0.30247802 9.0261432e-39
2.685034 -1.0667951 -0.27831981 6.2613799e-39
2.7080624 -1.0634201 -0.29537404 8.9325056e-39
2.7278891 -1.0617744 -0.30247802 7.5531627e-39
2.7482538 -1.0536771 -0.31138214 5.3401326e-39
2.6894872 -1.0453211 -0.28362057 4.6965877e-39
2.7103784 -1.0357773 -0.28680429 3.1281634e-39
2.7278543 -1.0269543 -0.30247802 2.3027117e-39
2.7473586 -1.0403055 -0.31460685 3.037051e-39
2.6792085 -0.99906665 -0.2777127 2.7647661e-39
2.706701 -1.004192 -0.30013499 3.4101173e-39
2.6490979 -0.96212101 -0.27936995 4.5161383e-39
2.6705501 -0.97916019 -0.27680686 4.238848e-39
2.6219873 -0.93923527 -0.26469108 4.239557e-39
2.612498 -0.90947497 -0.26137277 5.6181895e-39
2.6218383 -0.87889415 -0.26501596 9.6754979e-39
2.6309462 -0.85905659 -0.26954868 9.306372e-39
2.650625 -0.85323822 -0.27338758 9.3992753e-39
2.6313238 -0.81597179 -0.26800945 8.5705964e-39
2.6502304 -0.82222807 -0.27471697 8.755338e-39
2.6501966 -0.78846115 -0.27471697 8.2018139e-39
2.6325366 -0.76570535 -0.26339185 9.1230472e-39
2.6501648 -0.75676161 -0.27471694 8.2010796e-39
2.648876 -0.74022388 -0.27936995 8.7546346e-39
2.6739199 -0.73194355 -0.28042823 6.5444366e-39
2.6732152 -0.71108758 -0.27871799 3.5001997e-39
2.7090089 -0.70804268 -0.29061309 3.8682354e-39
2.7301552 -0.70362145 -0.29288176 3.5923898e-39
2.7490044 -0.70181274 -0.30735123 4.3274297e-39
2.7939367 -0.70037246 -0.3098419 5.8047149e-39
2.8133647 -0.70078784 -0.32220435 8.2021362e-39
2.8480382 -0.69902748 -0.3261961 7.0997277e-39
2.8795621 -0.6972611 -0.3454957 6.5296837e-39
2.8160381 -0.66483462 -0.31229657 6.446441e-39
2.8487034 -0.67564148 -0.32367852 6.8112844e-39
2.8795354 -0.67094004 -0.34549561 8.5615595e-39
2.7965691 -0.64432025 -0.30001208 5.2461321e-39
2.8160229 -0.64942735 -0.31229657 7.2719025e-39
2.8435712 -0.64053375 -0.32051939 9.2047597e-39
2.8815897 -0.64198476 -0.33787903 1.0591287e-38
2.903595 -0.63939476 -0.34838587 1.0956498e-38
2.8391347 -0.61851799 -0.31486279 1.1887086e-38
2.6379106 -1.0888332 -0.24492145 5.067866e-39
2.6581304 -1.0875322 -0.24679896 3.315468e-39
2.67835 -1.0860844 -0.24867646 2.6711762e-39
2.6891453 -1.0649327 -0.25244865 2.1194051e-39
2.7158644 -1.0535406 -0.26680827 1.566604e-39
2.689234 -1.0299008 -0.25079292 1.6573591e-39
2.7145526 -1.0436703 -0.27156922 1.4736867e-39
2.6580369 -0.99427116 -0.24679896 2.8576778e-39
2.6891742 -1.0133936 -0.25937572 2.1186806e-39
2.6418366 -0.97393751 -0.23014511 3.3179581e-39
2.6571693 -0.9749766 -0.24990097 3.7792795e-39
2.6225748 -0.94007277 -0.23411417 4.0555217e-39
2.6012037 -0.91065204 -0.23064694 4.4210728e-39
2.6193829 -0.90234244 -0.23617063 7.370963e-39
2.619988 -0.88096488 -0.23387952 9.8606136e-39
2.6289258 -0.85196072 -0.23555321 9.1230486e-39
2.655349 -0.85116607 -0.25610498 8.8464448e-39
2.6343429 -0.82075506 -0.2342419 7.558241e-39
2.6553202 -0.82222295 -0.25610498 7.3720392e-39
2.6404562 -0.79322362 -0.23453185 8.197844e-39
2.6561379 -0.7916711 -0.25300297 8.4769589e-39
2.635566 -0.76786429 -0.23715781 8.8439351e-39
2.6577976 -0.75468659 -0.24679896 8.6620578e-39
2.658417 -0.73780239 -0.24447244 8.4801959e-39
2.6774812 -0.73029292 -0.25055185 6.0838284e-39
2.6860981 -0.71039873 -0.25266805 3.6849385e-39
2.7181227 -0.70803356 -0.25728634 3.867892e-39
2.7380278 -0.70361364 -0.26409292 3.3154427e-39
2.7708409 -0.69645637 -0.27524742 2.3030817e-39
2.8033357 -0.69017214 -0.27543738 1.4758363e-39
