# .PCD v0.7 - Point Cloud Data file format
VERSION 0.7
FIELDS x y z rgb
SIZE 4 4 4 4
TYPE F F F F
COUNT 1 1 1 1
WIDTH 952
HEIGHT 1
VIEWPOINT 0 0 0 1 0 0 0
POINTS 952
DATA ascii
2.1863112 1.1295288 -1.260991 3.4119151e-39
2.1534526 1.0939136 -1.2699698 3.6838497e-39
2.101573 1.2762595 -1.2715245 1.2625722e-38
2.1742921 1.1796067 -1.2503909 4.5165027e-39
2.1572709 1.1981564 -1.2544116 7.6522247e-39
2.1487322 1.2026172 -1.2696891 7.2805555e-39
2.1006823 1.2310361 -1.2628528 9.8573416e-39
2.0883169 1.2581857 -1.2730749 1.0777513e-38
2.202198 1.121864 -1.2318226 4.0519008e-39
2.1893983 1.1412292 -1.2429746 3.6809869e-39
2.173614 1.1661286 -1.2511297 2.9448722e-39
2.1618609 1.1773961 -1.269338 3.8657467e-39
2.194767 1.1108925 -1.2346702 4.7862246e-39
2.1808102 1.1080511 -1.2463642 5.2479468e-39
2.1491485 1.0959349 -1.2461873 5.3419319e-39
2.1268291 1.074192 -1.2494134 4.6050773e-39
2.1235907 1.0971701 -1.2394729 5.2515636e-39
2.0943811 1.0613865 -1.2534503 6.9067717e-39
2.0817511 1.0502464 -1.2687218 7.6454158e-39
2.0633347 1.0601317 -1.2526833 7.9198362e-39
2.1342697 1.284905 -1.2398961 1.2990545e-38
2.1230888 1.2685921 -1.2437221 1.0502725e-38
2.109961 1.2734129 -1.2479584 9.4896605e-39
2.1720428 1.1813185 -1.2393923 4.6058354e-39
2.1604395 1.1880522 -1.2398237 5.0556929e-39
2.1394813 1.1999689 -1.2472868 7.7512306e-39
2.0983803 1.2377528 -1.2398961 3.6842281e-39
2.0968397 1.2550845 -1.2505257 6.2671392e-39
2.2007055 1.1225646 -1.2066103 3.7738957e-39
2.1896741 1.1420705 -1.2177409 3.4966012e-39
2.1675844 1.1690863 -1.2303097 2.7626305e-39
2.1488767 1.1862829 -1.2322966 3.5891444e-39
2.116935 1.2129329 -1.2513822 7.4696131e-39
2.0961545 1.2252527 -1.2450527 3.4051062e-39
2.0874391 1.238921 -1.2595115 5.529179e-39
2.187912 1.1098214 -1.2122875 4.4181792e-39
2.171206 1.1060686 -1.221298 5.3404914e-39
2.1726596 1.0981597 -1.1962268 4.7877002e-39
2.1448729 1.1025114 -1.2204632 5.2508111e-39
2.1266584 1.1042938 -1.2321831 6.2617064e-39
2.1198583 1.0768079 -1.2276913 4.7894756e-39
2.1135373 1.0922105 -1.2200335 5.1582581e-39
2.0926523 1.0700592 -1.2236409 5.7100082e-39
2.0674028 1.0673841 -1.2361344 6.9103352e-39
2.1319528 1.2899784 -1.2207654 9.6736734e-39
2.1194682 1.3011549 -1.2120156 7.0000113e-39
2.1187429 1.2733186 -1.2191256 6.2621002e-39
2.1109159 1.2910081 -1.2094482 4.4196225e-39
2.1866531 1.1666611 -1.1745378 2.5796616e-39
2.1020021 1.2446039 -1.217554 2.4860408e-39
2.1980438 1.1277117 -1.177982 3.3150728e-39
2.1867254 1.153294 -1.1901958 3.0374223e-39
2.1497898 1.1865839 -1.2103094 3.6834896e-39
2.1076593 1.2199931 -1.2060231 1.5655194e-39
2.0974751 1.2256466 -1.2133942 2.5749938e-39
2.190346 1.1030971 -1.1744976 4.3263535e-39
2.1635199 1.0908031 -1.1764268 4.7909245e-39
2.1380119 1.0946039 -1.1937497 5.1586098e-39
2.1215694 1.0897493 -1.1864206 5.6174482e-39
2.1011348 1.0891049 -1.1985916 5.6195992e-39
2.0971208 1.0588512 -1.199609 8.0916214e-39
2.0899472 1.0707542 -1.1975569 7.0896916e-39
2.0651584 1.0864562 -1.2003082 5.8003947e-39
2.0400681 1.0915378 -1.1950146 5.0667715e-39
2.0476737 1.079357 -1.1950418 9.8540597e-39
2.0353985 1.0854027 -1.1950146 7.9036022e-39
2.112133 1.3031268 -1.1940297 4.4221392e-39
2.1084085 1.2714919 -1.1914316 2.4856905e-39
2.1032221 1.2916495 -1.1911451 2.9459343e-39
2.193121 1.1637304 -1.1532611 2.5757197e-39
2.0936303 1.2514249 -1.1897027 1.7495534e-39
2.1932831 1.1367472 -1.1495014 3.130697e-39
2.1908393 1.1561743 -1.1640037 2.6715321e-39
2.0835834 1.2346463 -1.1883423 2.3002006e-39
2.1980448 1.0952283 -1.1402261 4.0511945e-39
2.1939411 1.1135478 -1.1455023 3.4983752e-39
2.1868787 1.0853122 -1.1339318 4.5136482e-39
2.1689782 1.0836704 -1.1458544 5.0664226e-39
2.1428165 1.0753214 -1.1465988 6.4454054e-39
2.1200609 1.0801401 -1.1602025 6.8149208e-39
2.0826244 1.0832323 -1.1615467 7.7411847e-39
2.0540247 1.0859566 -1.1702267 7.5485426e-39
2.0331078 1.0871462 -1.1838135 8.1737585e-39
2.0970931 1.3098443 -1.178503 7.5600164e-39
2.101975 1.2763885 -1.1599723 3.1299851e-39
2.0944476 1.2976743 -1.1708696 3.5012745e-39
2.1952567 1.1640972 -1.1107974 3.7681364e-39
2.1887274 1.1670744 -1.1317757 3.3107666e-39
2.0992463 1.2362059 -1.1417644 1.3800618e-39
2.0936766 1.2547189 -1.1592311 1.6580752e-39
2.1886504 1.1423484 -1.1215097 3.312926e-39
2.195744 1.0969241 -1.1139278 3.6809742e-39
2.1854038 1.117182 -1.1225564 3.4980207e-39
2.1829996 1.0804977 -1.1087137 4.9735081e-39
2.1624298 1.0803643 -1.1261388 5.4326954e-39
2.1423883 1.0699034 -1.1178648 5.8014905e-39
2.1170707 1.0729307 -1.1317757 7.3691806e-39
2.0964506 1.075422 -1.1263393 8.1092484e-39
2.0695317 1.0773964 -1.1347607 9.4925317e-39
2.0500507 1.0805916 -1.1512806 1.0497323e-38
2.1937885 1.1656712 -1.091494 3.1278159e-39
2.1709557 1.1869887 -1.1021335 2.023978e-39
2.0987611 1.2398452 -1.1316847 1.9353866e-39
2.0881519 1.2540473 -1.1280391 3.41196e-39
2.1893945 1.142637 -1.0917463 3.3139966e-39
2.194706 1.0840218 -1.0728215 3.7749705e-39
2.1912651 1.102574 -1.086435 3.0384859e-39
2.1855412 1.1205221 -1.0910048 3.4990857e-39
2.1876917 1.0739678 -1.0747987 4.4185477e-39
2.1745172 1.0710939 -1.0849719 5.0649933e-39
2.1588855 1.062251 -1.0839268 5.8025513e-39
2.1193259 1.0678363 -1.0915037 7.5521285e-39
2.0893533 1.0724537 -1.0952891 9.6718923e-39
1.9296439 1.1321892 -1.1309417 1.548126e-38
2.1944253 1.1678282 -1.0619321 3.128176e-39
2.1829541 1.1807616 -1.0816432 1.9324971e-39
2.2000518 1.1312968 -1.0530875 3.6817001e-39
2.1926205 1.1506287 -1.066076 3.5880682e-39
2.1942675 1.0944571 -1.0468712 3.4980333e-39
2.1927991 1.1097982 -1.0592016 3.4068999e-39
2.1893663 1.0691286 -1.047194 4.144102e-39
2.1675141 1.05598 -1.0436649 5.9876853e-39
2.1531317 1.0584931 -1.0595008 6.541208e-39
2.1313767 1.061304 -1.0628554 7.8312377e-39
2.1339796 1.0529311 -1.0464531 1.0592778e-38
2.1169939 1.0601314 -1.069297 1.0038521e-38
1.9609802 1.1189265 -1.094503 1.0129953e-38
1.9456096 1.1312836 -1.1115327 1.0582326e-38
1.9561949 1.1126397 -1.094503 1.5658461e-38
2.2071714 1.160673 -1.0191599 4.0508624e-39
2.1992483 1.161225 -1.0375206 3.4069223e-39
2.2050223 1.1210657 -1.0174607 3.7735216e-39
2.1991444 1.1369284 -1.0281671 3.6816987e-39
2.1930707 1.1513169 -1.0417432 3.5919946e-39
2.2116561 1.082325 -1.0007383 4.0490309e-39
2.2011809 1.0988747 -1.0225111 3.4991039e-39
2.1978974 1.0618864 -1.0063071 3.9597163e-39
2.1962991 1.0697211 -1.0230688 3.5902121e-39
2.1714611 1.0513343 -1.0189579 6.9996638e-39
1.966258 1.1233673 -1.071363 5.8004242e-39
1.9506613 1.1096095 -1.0740645 9.4845906e-39
1.9276541 1.1106952 -1.0669609 6.5361269e-39
1.9108783 1.1095964 -1.0738541 1.0958995e-38
1.8940995 1.108652 -1.0763558 1.4003247e-38
2.2071447 1.1575483 -0.99329567 4.7887904e-39
2.2209854 1.1061344 -0.97351283 3.9564933e-39
2.2091098 1.1221282 -0.99145341 3.4079929e-39
2.2024226 1.1446679 -0.99798208 3.5902276e-39
2.2103109 1.0885005 -0.98202085 3.7735412e-39
2.2084451 1.1020999 -0.99541801 3.7728196e-39
2.1991863 1.0625288 -0.98005629 3.9593702e-39
2.1806293 1.0417331 -0.98024523 7.9209138e-39
1.9767355 1.1185539 -1.0397063 7.3644975e-39
1.960461 1.1160995 -1.0473286 6.539766e-39
1.962598 1.1047913 -1.0283666 6.7248832e-39
1.9392903 1.1066586 -1.0413343 6.5372423e-39
1.9204754 1.1061656 -1.0554079 6.8088336e-39
1.9245352 1.0970201 -1.0332848 6.5365431e-39
1.9029833 1.0974904 -1.0498148 1.0036687e-38
1.8876284 1.103459 -1.0685577 1.5296075e-38
1.8821801 1.0845007 -1.0441389 1.2252968e-38
2.1993756 1.1655263 -0.96590596 8.1063673e-39
2.2195935 1.1071938 -0.9667064 2.4903554e-39
2.2040088 1.1277963 -0.96206695 3.4991165e-39
2.1971171 1.1520925 -0.96405596 3.9579423e-39
2.2062325 1.0922053 -0.95771492 3.5898702e-39
2.203001 1.1090086 -0.95122874 3.4980389e-39
2.1947532 1.0654508 -0.95137745 3.6838525e-39
2.1803441 1.0434077 -0.95131028 5.3423089e-39
1.9422318 1.0908649 -0.99812722 6.7241587e-39
1.9357475 1.0970777 -1.0156367 6.8185151e-39
1.9171736 1.0873203 -1.0159417 6.6301526e-39
1.8964847 1.0844507 -1.0323018 9.8584234e-39
1.8927544 1.0682541 -1.0026758 7.916588e-39
1.8849061 1.0757747 -1.0168978 9.397818e-39
1.8799937 1.0514889 -1.0026758 9.3792087e-39
2.2039351 1.1578097 -0.92749953 5.8961945e-39
2.2014091 1.1668854 -0.94248247 1.0967289e-38
2.2119789 1.1174055 -0.91906196 3.8675235e-39
2.2008767 1.1375629 -0.93260092 3.4998396e-39
2.1935592 1.1548004 -0.94665802 3.4105222e-39
2.2001865 1.0979939 -0.92829919 3.5895073e-39
2.2002025 1.1111386 -0.937545 2.9459638e-39
2.1819849 1.0735075 -0.92964971 3.6835036e-39
2.1752715 1.081287 -0.9307031 4.2356068e-39
2.166976 1.0476488 -0.92644012 4.6018684e-39
2.1548924 1.0280463 -0.9175455 7.1829817e-39
1.9553722 1.0784882 -0.96352392 5.5292098e-39
1.9353658 1.0763956 -0.97832477 5.6178111e-39
1.9152118 1.078166 -0.99662155 6.6308925e-39
1.9039863 1.0513098 -0.97292769 8.2032124e-39
1.8939677 1.0643643 -0.98948413 6.8152669e-39
1.8935008 1.0396724 -0.96788776 8.9364601e-39
1.8898745 1.0481049 -0.98901546 9.4918521e-39
2.190084 1.1664754 -0.90838248 9.311774e-39
2.207803 1.1205839 -0.89864296 3.0395803e-39
2.1959782 1.1462225 -0.90365392 4.0483457e-39
2.1864438 1.1602163 -0.91186208 3.1256677e-39
2.1958818 1.0993406 -0.90074784 3.4973215e-39
2.1807666 1.0722312 -0.89849967 3.774979e-39
2.1603265 1.0515844 -0.90044278 3.406202e-39
2.1422768 1.0276947 -0.89993656 5.0642814e-39
2.1279931 1.0130898 -0.89012897 5.895833e-39
1.9705292 1.0729561 -0.93912178 6.5465834e-39
1.9536102 1.0620422 -0.937711 4.5107475e-39
1.9417892 1.0646032 -0.95418966 4.8802517e-39
1.9337217 1.0409079 -0.93282467 5.1553883e-39
1.9200221 1.0457518 -0.95080751 5.9851531e-39
1.8943716 1.0297273 -0.94759697 4.5154419e-39
2.215045 1.1459825 -0.8612079 7.8327035e-39
2.2022238 1.1565506 -0.88097352 8.1989539e-39
2.2073793 1.1280158 -0.86621845 3.0402964e-39
2.202832 1.1416889 -0.87368727 3.3161826e-39
2.2041132 1.0817548 -0.85016328 2.3956332e-39
2.1995063 1.1007702 -0.86780095 3.1306941e-39
2.1905015 1.0628067 -0.85267305 3.1310431e-39
2.1849403 1.0729605 -0.8717882 3.683491e-39
2.1768363 1.0403467 -0.85436541 4.0497778e-39
2.1687446 1.0451477 -0.87111759 3.4984103e-39
2.1594648 1.0223851 -0.85183644 3.9604422e-39
2.1445055 1.0225002 -0.8710736 4.1426909e-39
2.1284604 1.0117593 -0.86658859 6.722714e-39
1.9761827 1.0639997 -0.90943509 5.2547712e-39
1.9663626 1.067697 -0.92254442 5.0689408e-39
1.965606 1.0499287 -0.90243006 3.5898786e-39
1.9548273 1.0525419 -0.92254442 3.1328507e-39
1.9510781 1.0276437 -0.89672357 4.4196393e-39
1.9362646 1.0343014 -0.91769958 5.2490244e-39
1.9162147 1.0177075 -0.90918833 9.1205164e-39
1.8987054 1.019881 -0.92618668 1.2258022e-38
2.2048054 1.1520236 -0.85544223 9.5948377e-39
2.2042584 1.1241769 -0.83573502 3.3150896e-39
2.1958833 1.1448638 -0.84469068 4.4174897e-39
2.2048388 1.0894995 -0.82685345 2.9459371e-39
2.1994166 1.0988837 -0.84518617 3.0377684e-39
2.1934526 1.063573 -0.83098757 3.3140008e-39
2.1791058 1.0375041 -0.8273893 3.773544e-39
2.161212 1.0154182 -0.8284657 4.6951346e-39
2.1413054 1.0026046 -0.83074832 6.3553692e-39
1.9734902 1.038095 -0.86572552 4.0497904e-39
1.971794 1.0503327 -0.8798461 2.5796728e-39
1.9488951 1.0234995 -0.87218261 4.6965807e-39
1.9339414 1.0087761 -0.87263179 6.3568237e-39
1.9073086 1.0073304 -0.88196218 8.1974923e-39
1.8891997 1.0049816 -0.87963915 9.4882395e-39
1.8716426 1.0033368 -0.88138205 1.133109e-38
2.2126424 1.1099991 -0.81000763 3.2225282e-39
2.1930904 1.1295238 -0.81042403 4.053012e-39
2.1804831 1.1473275 -0.81329679 4.0505135e-39
2.2107947 1.0890176 -0.80016613 3.222887e-39
2.1910777 1.1222482 -0.79873937 3.8668201e-39
2.2039356 1.0584828 -0.78393054 3.4065622e-39
2.1974692 1.0608873 -0.80176568 3.5905779e-39
2.1854026 1.0341336 -0.78393054 3.4994739e-39
2.1795373 1.0360614 -0.8014043 3.6802764e-39
2.1668694 1.0097843 -0.78393054 4.0508568e-39
2.1601806 1.011897 -0.80176568 4.6940584e-39
2.1524549 0.99084616 -0.78393054 6.5448037e-39
2.1459002 0.99701548 -0.80075163 6.0802242e-39
1.9942104 1.0513896 -0.85033852 4.8885082e-39
1.9727687 1.0415618 -0.8432675 3.775702e-39
1.9537427 1.0235718 -0.83880788 5.0646528e-39
1.942016 1.0225509 -0.85311705 4.8823957e-39
1.9237713 1.0089101 -0.84254897 5.8036514e-39
1.9015806 0.99709857 -0.83611131 8.5670105e-39
1.8884141 1.0011523 -0.85409045 9.2120282e-39
1.8654753 1.0015713 -0.86644715 1.197645e-38
2.190016 1.1346344 -0.77502632 4.5154237e-39
2.1808581 1.1524955 -0.78018135 1.3552001e-38
2.2157712 1.0746809 -0.76454687 2.8555296e-39
2.2061472 1.0986688 -0.77024162 3.1317717e-39
2.190603 1.1203589 -0.78832984 2.9473861e-39
2.2084849 1.0527096 -0.76298773 3.7749776e-39
2.1912658 1.0287473 -0.76204842 4.0490589e-39
2.1699395 1.0084478 -0.76350081 3.8668229e-39
2.1521683 0.99266946 -0.76981843 5.8032702e-39
2.1348238 0.99276841 -0.7649858 5.0757833e-39
2.0028243 1.0426793 -0.80111527 3.8654019e-39
1.9969168 1.0379385 -0.79399616 3.498378e-39
1.9783858 1.035745 -0.80928391 4.1426825e-39
1.9513861 1.0220649 -0.81256497 4.8824055e-39
1.9332539 1.0096129 -0.80826664 6.07699e-39
1.9167114 1.0051582 -0.81575727 6.6298205e-39
1.9018123 0.99340165 -0.81340128 9.8559445e-39
2.1975877 1.1214577 -0.73638874 2.3981654e-39
2.1912241 1.1369641 -0.7484414 5.5277553e-39
2.2246459 1.0620912 -0.72303987 2.5804014e-39
2.2174575 1.0746429 -0.73414534 2.5793154e-39
2.1996903 1.1045953 -0.74246365 3.1310557e-39
2.2151737 1.0482711 -0.72628134 3.4065622e-39
2.2101467 1.0499598 -0.74289477 3.0403034e-39
2.1978922 1.0242612 -0.72684503 4.1426909e-39
2.1931715 1.0276576 -0.74289477 4.1423181e-39
2.1807146 1.0029981 -0.72628134 4.1433915e-39
2.1714625 1.0012095 -0.73800862 4.052628e-39
2.1631727 0.98270202 -0.71979845 6.2700217e-39
2.1535482 0.99010682 -0.73740327 6.0816648e-39
1.9991848 1.0454495 -0.78331739 4.2385103e-39
1.9873625 1.0352035 -0.77085894 4.5132657e-39
1.9751163 1.0322936 -0.7880103 4.8830851e-39
1.9725581 1.0195291 -0.76196003 4.4210798e-39
1.9571528 1.0176795 -0.77888304 4.8838432e-39
1.9249821 1.0033432 -0.78428048 6.1709961e-39
1.8932869 0.99356639 -0.78661531 1.1054837e-38
2.2157614 1.1435602 -0.71378666 1.2070743e-38
2.2027647 1.1302711 -0.71155834 3.7760551e-39
2.1961493 1.142208 -0.72722715 4.8795343e-39
2.2228005 1.0640608 -0.70264006 2.4885547e-39
2.2093041 1.0822473 -0.70436972 2.763341e-39
2.199158 1.1061919 -0.71361631 2.946663e-39
2.2175326 1.0448084 -0.69956118 3.4991123e-39
2.2035127 1.0019481 -0.68283486 4.3266828e-39
2.2032914 1.0191642 -0.69782275 4.050484e-39
2.199523 0.9967066 -0.68283486 4.6057892e-39
2.1806433 0.99982858 -0.70196342 4.5128887e-39
2.1606145 0.98699832 -0.69840294 6.9114268e-39
2.14782 0.98327792 -0.70706278 5.8962057e-39
1.98106 1.0356777 -0.74433446 4.5118335e-39
1.9637388 1.0170044 -0.74060267 4.4210574e-39
1.9488747 1.0119984 -0.75458866 4.7905588e-39
1.9174567 1.0041951 -0.756051 6.8142174e-39
1.9019026 0.99210048 -0.75246412 1.1239594e-38
1.8877023 0.9929502 -0.75470567 1.2808351e-38
2.2119446 1.1181886 -0.66801709 2.6697048e-39
2.2070236 1.1262662 -0.68597442 2.946656e-39
2.2198279 1.0671142 -0.67217821 2.8537541e-39
2.2074957 1.0910772 -0.67509145 3.0363307e-39
2.1997571 1.109453 -0.69104528 3.2203758e-39
2.2239962 1.0387857 -0.65944207 3.7739056e-39
2.2242055 1.0489199 -0.67236626 3.3140078e-39
2.2072797 1.0147175 -0.66440415 4.0494078e-39
2.2023463 1.0170263 -0.6798467 3.8664431e-39
2.1905658 0.99414241 -0.66114336 4.879886e-39
2.1745634 0.99097335 -0.67531025 5.4341233e-39
2.1761465 0.9786272 -0.65306222 7.9187404e-39
2.1596541 0.98041391 -0.66838068 7.8348335e-39
1.9788575 1.0348736 -0.71316153 3.6827973e-39
1.9589108 1.0169578 -0.71471536 5.2508279e-39
1.9438322 1.0044439 -0.70856661 6.8156481e-39
1.9182521 1.0044779 -0.72570616 8.1053121e-39
1.8988247 0.99820459 -0.72854877 9.7651978e-39
2.2459121 1.1244161 -0.64200342 1.0041017e-38
2.2383463 1.1257104 -0.65168607 8.1153594e-39
2.235127 1.1129972 -0.63552046 3.9597303e-39
2.2247758 1.1159468 -0.65093952 3.406188e-39
2.2157493 1.077353 -0.63943762 2.4860324e-39
2.2098598 1.0930237 -0.65147442 2.6707796e-39
2.2236362 1.0408858 -0.63423395 3.0395649e-39
2.2218907 1.0603882 -0.63816983 2.3963577e-39
2.2114527 1.0158176 -0.63405383 3.4983949e-39
2.1910291 0.99208856 -0.63125896 5.2486811e-39
2.1717799 0.97997999 -0.63635308 8.1052953e-39
2.1570668 0.97494948 -0.63881099 9.039143e-39
1.9881518 1.0231766 -0.66504669 4.4192652e-39
1.97724 1.0359032 -0.68403208 6.3571965e-39
1.9622082 1.0160551 -0.68357503 4.7891337e-39
1.938657 1.003548 -0.68360573 6.2613995e-39
1.9171757 0.99980247 -0.6932168 8.4762582e-39
1.8996077 0.99491835 -0.69854164 1.0965522e-38
2.2587085 1.1155617 -0.62214023 9.7640557e-39
2.2411017 1.0892322 -0.59351701 2.7629976e-39
2.2353768 1.1059308 -0.61459798 4.6958506e-39
2.2229095 1.1247799 -0.60608166 6.5397548e-39
2.2304144 1.0710038 -0.60097438 2.6693601e-39
2.2242191 1.077101 -0.61804533 2.8522968e-39
2.228756 1.0267726 -0.59401524 2.8544968e-39
2.2226672 1.0445919 -0.60548478 2.6708006e-39
2.2151568 1.0061932 -0.59814739 3.8682606e-39
2.2147844 1.0191174 -0.61218637 3.0395733e-39
2.2010224 0.989447 -0.59610987 5.0657276e-39
2.1867127 0.98605525 -0.60680288 6.0798585e-39
2.161525 0.97510588 -0.60218018 8.9397391e-39
2.1479549 0.97784388 -0.62386453 1.0141892e-38
2.0022786 1.0167817 -0.63547176 3.7732049e-39
1.9955058 1.0195998 -0.65205234 4.0497568e-39
1.9916263 1.0051355 -0.62993562 5.159005e-39
1.9774672 1.0073023 -0.64527029 5.2504692e-39
1.9584131 1.0057606 -0.65820593 5.5259925e-39
1.9310135 1.0018613 -0.65728563 7.6447067e-39
1.9099122 0.99828792 -0.66626006 1.0690044e-38
1.8904524 0.99563634 -0.66850191 1.0415955e-38
2.2223592 1.1378788 -0.57350713 1.5641223e-39
2.2378402 1.0917147 -0.57756734 3.4054832e-39
2.2251005 1.1107603 -0.58296448 3.8650334e-39
2.2194352 1.1278939 -0.58798468 5.9858692e-39
2.2393713 1.0553843 -0.5594539 3.2236072e-39
2.2357912 1.0717185 -0.57457811 2.7640682e-39
2.2306499 1.0318563 -0.56723636 3.0367161e-39
2.2240667 1.0478574 -0.57801664 2.7622676e-39
2.2184641 1.0084739 -0.56911486 3.6838777e-39
2.1977825 0.98724306 -0.57033926 5.5270575e-39
2.1788485 0.98464286 -0.57493353 6.4464858e-39
2.1621556 0.97527874 -0.57509297 8.4758813e-39
2.1407857 0.96691024 -0.5711875 8.678247e-39
2.0444345 1.0000092 -0.59259278 7.9987335e-39
2.0015442 1.0137402 -0.61511177 6.7227224e-39
1.9866734 1.0089053 -0.60571533 1.087366e-38
1.9700183 1.0059676 -0.61852092 9.4914836e-39
1.922302 1.0036247 -0.62910247 1.1335398e-38
1.9100106 0.99323714 -0.63025618 1.1619539e-38
1.8988432 0.99742031 -0.63403201 1.2813035e-38
2.2529826 1.1150036 -0.53341043 6.6366784e-39
2.228652 1.1347493 -0.56420833 5.4334269e-39
2.2493069 1.0804365 -0.53117645 2.6722271e-39
2.2418919 1.099493 -0.54285413 3.0395733e-39
2.2295251 1.116568 -0.55954033 4.2345222e-39
2.1527903 1.1811341 -0.56350839 1.1423599e-38
2.2432384 1.0603163 -0.53741926 3.4065594e-39
2.2395663 1.0802604 -0.55205321 3.2239702e-39
2.2331462 1.032738 -0.53931326 3.3143637e-39
2.2122569 1.0096033 -0.54045433 4.6955003e-39
2.1945467 0.98737741 -0.53906953 5.894775e-39
2.1746407 0.9742018 -0.53829914 7.3688064e-39
2.1542578 0.97291267 -0.54903758 8.7524724e-39
2.1356955 0.96882856 -0.54573983 1.0879798e-38
2.0815523 0.9797219 -0.55043417 9.5901896e-39
2.0302358 1.0011342 -0.57892269 5.2508685e-39
2.004071 1.0029684 -0.58518726 5.3405502e-39
1.9807793 1.0056468 -0.58041292 8.4812847e-39
1.9608346 1.0071642 -0.59168524 9.2134505e-39
1.9469087 1.0046247 -0.58106726 9.0308683e-39
1.9223428 1.0050446 -0.59970623 1.0042504e-38
1.9041873 0.99766934 -0.60177964 1.0514988e-38
2.2548747 1.1144145 -0.52257663 4.2287825e-39
2.220736 1.1449803 -0.51558644 3.4984075e-39
2.2086601 1.1592335 -0.52093929 3.0345202e-39
2.1887333 1.1754386 -0.53354245 8.2997325e-39
2.170882 1.1832769 -0.55220252 1.5396656e-38
2.2454519 1.0833707 -0.51232475 2.4885463e-39
2.2427258 1.1029245 -0.51655877 3.1303466e-39
2.2287953 1.1290646 -0.51778489 3.2218108e-39
2.1960015 1.1542513 -0.5336628 3.1271208e-39
2.1718225 1.1671208 -0.54899538 9.1874032e-40
2.1666725 1.1777462 -0.55220252 7.0775283e-39
2.2426865 1.0633638 -0.50933123 3.406565e-39
2.229775 1.0337942 -0.5098111 3.4069265e-39
2.2138319 1.010612 -0.50995958 4.0522973e-39
2.1943855 0.98907971 -0.51013511 5.5259771e-39
2.1689868 0.9757911 -0.51102078 6.5426541e-39
2.1425595 0.97666085 -0.51754075 8.107117e-39
2.1324744 0.97052932 -0.51884478 9.8616954e-39
2.0943601 0.97619462 -0.52206933 9.4947248e-39
2.0894032 0.97702062 -0.5409326 1.0787645e-38
2.0727677 0.97790861 -0.5275076 8.4741044e-39
2.0405874 0.98486638 -0.54003429 9.3081545e-39
2.0254214 0.9832958 -0.52891755 1.0321969e-38
2.0165832 0.98626876 -0.53873909 1.0318729e-38
1.9746274 1.0019927 -0.56261075 1.0131078e-38
1.9542698 1.0028268 -0.56390268 9.9528148e-39
1.9430925 1.0075295 -0.56240517 9.7651894e-39
1.9180994 1.0058688 -0.56928533 1.1704183e-38
1.9025241 1.0002544 -0.57580674 7.7433861e-39
2.2216232 1.1435568 -0.49873066 3.5949177e-39
2.2051301 1.1659509 -0.49920046 4.8859788e-39
2.1944914 1.1793313 -0.51005667 8.9565995e-39
2.2405384 1.0884695 -0.48509461 2.7626207e-39
2.2346749 1.1115916 -0.488051 3.0392272e-39
2.230442 1.1287566 -0.5035212 3.8686109e-39
2.2389116 1.0667583 -0.48060274 2.9470274e-39
2.2270503 1.0374455 -0.47824627 3.4051385e-39
2.2129536 1.0107435 -0.47595793 4.6976555e-39
2.1886501 0.99113607 -0.47985971 5.2515524e-39
2.1650429 0.97713912 -0.48033497 6.6355784e-39
2.1386652 0.97962499 -0.49849719 7.3605374e-39
2.1275892 0.97486651 -0.49148828 7.9230746e-39
2.0968561 0.97857833 -0.49203804 8.3880129e-39
2.0680354 0.98046565 -0.49879307 8.479491e-39
2.0380249 0.9831177 -0.50809699 8.9350686e-39
2.0211954 0.98086405 -0.51151931 9.8613647e-39
1.9397532 1.0100712 -0.54607582 1.0230493e-38
1.9231586 1.0067221 -0.54678077 1.1708492e-38
2.2149897 1.1479377 -0.46671796 3.4998396e-39
2.2049906 1.1676798 -0.47506306 4.4235756e-39
2.2407494 1.0922097 -0.45433375 2.3012908e-39
2.2311454 1.119083 -0.46070001 2.9463001e-39
2.2459035 1.0487827 -0.43855014 1.5665984e-39
2.2371626 1.0706536 -0.45234695 2.3941983e-39
2.2366171 1.0314678 -0.44457588 2.5771714e-39
2.2317257 1.0479754 -0.45681816 3.2203773e-39
2.2189586 1.0073645 -0.44351399 2.7626403e-39
2.2128701 1.0175481 -0.45809141 4.2363102e-39
2.2028685 0.98987985 -0.4406743 1.6580864e-39
2.1839743 0.98988664 -0.45389953 4.7930811e-39
2.1634357 0.97594309 -0.45129064 4.6079948e-39
2.1371443 0.97540975 -0.46756372 7.3741902e-39
2.1382923 0.96924627 -0.44948593 2.3016692e-39
2.1195803 0.96812403 -0.45746958 3.5023619e-39
2.1015942 0.9730773 -0.47146204 5.8072387e-39
2.1019964 0.96332169 -0.45954016 3.5016473e-39
2.0756559 0.96521688 -0.46770719 6.5397885e-39
2.0589683 0.97253489 -0.4840526 8.1996783e-39
2.051224 0.95900226 -0.4718788 8.7542913e-39
2.2300234 1.1376239 -0.43160981 8.2905021e-40
2.2171328 1.156917 -0.44013903 1.8410455e-39
2.2024908 1.180065 -0.43935034 3.2203941e-39
2.1864457 1.1940471 -0.45046282 3.403342e-39
2.2388487 1.0981914 -0.42561278 7.3650566e-40
2.2298594 1.1229097 -0.43112725 8.2905021e-40
2.2445898 1.0528687 -0.41762075 1.0127184e-39
2.239763 1.0763216 -0.42213088 7.3649865e-40
2.2359715 1.0328897 -0.41632566 1.0116548e-39
2.2176673 1.0107654 -0.41661152 1.2875158e-39
2.1994009 0.99289405 -0.42025131 1.1049252e-39
2.1772699 0.991781 -0.41762853 1.1060028e-39
2.1572967 0.97975802 -0.42389369 1.4747896e-39
2.1337948 0.97266948 -0.42749235 1.7488555e-39
2.1131516 0.97327483 -0.43168214 2.2123658e-39
2.0967779 0.96729374 -0.43402079 2.3982046e-39
2.0714214 0.97067821 -0.43725988 3.1325284e-39
2.050714 0.9729619 -0.44677505 3.5928017e-39
2.0391636 0.96665454 -0.44998205 3.8722711e-39
2.01807 0.97423708 -0.44715205 5.3434607e-39
2.2060013 1.1575733 -0.41015288 1.0120107e-39
2.1955216 1.1824095 -0.4155958 1.3804401e-39
2.2350068 1.1057436 -0.39290723 2.3952913e-39
2.2223072 1.1330861 -0.40304455 1.2900298e-39
2.2414765 1.0598407 -0.38461536 3.1342913e-39
2.2376013 1.0801208 -0.39377487 1.2903899e-39
2.2300453 1.035314 -0.38450661 2.8562835e-39
2.2121801 1.0132645 -0.3864274 2.5814987e-39
2.1918697 0.99729407 -0.38656256 3.4116111e-39
2.1733646 0.9940896 -0.39105561 2.2119959e-39
2.1563511 0.9823103 -0.39144683 3.5938499e-39
2.1241245 0.97172022 -0.3949641 4.2392179e-39
2.1067595 0.96678913 -0.40103155 2.5804379e-39
2.0921311 0.96562397 -0.38740966 3.3223413e-39
2.0635076 0.97236896 -0.41044626 5.6214531e-39
2.0396748 0.96847999 -0.41282606 6.6388308e-39
2.1972435 1.1979712 -0.38626036 3.4105517e-39
2.2336168 1.1331472 -0.35836962 6.0906541e-39
2.2247896 1.1393726 -0.37060383 3.6882007e-39
2.1960082 1.1646791 -0.3836689 3.6853211e-39
2.1942267 1.1843197 -0.38498735 3.5002236e-39
2.2429066 1.0865552 -0.35230371 2.7648249e-39
2.2362227 1.1093602 -0.36332983 3.132869e-39
2.2386212 1.0660895 -0.35560799 3.040316e-39
2.2377195 1.0869548 -0.37146056 1.3818989e-39
2.2295184 1.0299739 -0.33973885 9.1946619e-40
2.2278829 1.0377029 -0.35553974 3.0399657e-39
2.2260175 1.0017349 -0.34054241 1.7517352e-39
2.2069101 1.0157086 -0.36094132 3.132513e-39
2.2222099 0.96690369 -0.33316711 3.5027221e-39
2.211633 0.97487414 -0.34470972 2.2112952e-39
2.1886148 1.0015947 -0.36353663 2.5797064e-39
2.1693697 0.99846852 -0.3683666 3.4098412e-39
2.2045174 0.9392345 -0.33441088 2.9477616e-39
2.1928422 0.95272779 -0.34645426 2.4868017e-39
2.1519699 0.98382652 -0.36908606 4.1481195e-39
2.1850066 0.91596115 -0.33803228 1.839996e-39
2.1806645 0.92672455 -0.34502095 2.2123588e-39
2.1213455 0.96807408 -0.37265512 5.2522656e-39
2.1633997 0.90069771 -0.33924121 1.7485024e-39
2.0993147 0.96322751 -0.37914151 8.4820498e-39
2.0490801 0.97364664 -0.3878729 5.9905958e-39
2.0348501 0.96782255 -0.39369565 3.2233144e-39
2.1873875 1.2099402 -0.35789087 5.9916482e-39
2.2325826 1.1367502 -0.33634478 3.686756e-39
2.2226079 1.1510384 -0.34238249 3.5034522e-39
2.1965976 1.1736761 -0.34911266 3.2247087e-39
2.1858568 1.1917077 -0.35773069 3.7789488e-39
2.2626781 1.0733813 -0.30797026 2.0236726e-39
2.2485619 1.0903833 -0.3279818 3.1332221e-39
2.2366867 1.118421 -0.33542886 3.4083712e-39
2.2700009 1.0330656 -0.30685002 5.1618693e-39
2.261409 1.0522089 -0.31499892 3.133578e-39
2.2408476 1.070327 -0.33194545 2.5818476e-39
2.2561634 1.0156198 -0.31143424 3.316547e-39
2.246664 1.0273255 -0.32875881 2.3949424e-39
2.2395129 0.99009418 -0.31354591 3.7796733e-39
2.2378531 1.0029529 -0.32878557 2.0240061e-39
2.2287965 0.96081889 -0.31227222 3.686756e-39
2.2231843 0.93924534 -0.30494398 2.1183765e-39
2.2109554 0.93581903 -0.31586528 3.7803852e-39
2.1883912 0.91807199 -0.31396747 1.1049393e-39
2.1743226 0.87567163 -0.30347875 5.7078516e-39
2.1731584 0.89301956 -0.31389764 2.0261641e-39
2.1644435 0.86227763 -0.30445555 6.9028004e-39
2.1592979 0.86541736 -0.31969288 5.0628591e-39
2.1374712 0.84596348 -0.31043661 6.9985974e-39
2.1276355 0.85814703 -0.32878557 3.7696288e-39
2.1277802 0.79443574 -0.29055482 5.4323913e-39
2.1181118 0.82973063 -0.301985 7.0915315e-39
2.1140091 0.7872135 -0.30029222 4.6055173e-39
2.2786527 1.1795866 -0.29797372 1.6776679e-38
2.245748 1.1877732 -0.30335104 1.6784881e-38
2.1855288 1.2108194 -0.32774371 6.2746922e-39
2.2814126 1.1015983 -0.2793909 1.6573816e-39
2.2510982 1.1226546 -0.29259115 2.2116245e-39
2.235919 1.1372048 -0.30686322 3.0413824e-39
2.2191691 1.1608489 -0.3134352 3.8733095e-39
2.1948271 1.1834173 -0.32067311 2.9492204e-39
2.1824942 1.1986715 -0.329759 4.1470153e-39
2.286041 1.0640205 -0.27621695 2.7651556e-39
2.2765312 1.0786424 -0.29105744 3.2247003e-39
2.2509484 1.1029478 -0.30401918 3.2243359e-39
2.2372618 1.1149591 -0.31308344 1.8410624e-39
2.2828717 1.0316528 -0.27197623 3.8689851e-39
2.2760224 1.0394269 -0.28780061 3.4080153e-39
2.2691061 1.0566895 -0.29891226 5.071103e-39
2.2720652 1.0069505 -0.27617109 4.3306863e-39
2.2624545 1.009918 -0.29212058 3.5038053e-39
2.2540605 0.99089432 -0.27346757 5.5274358e-39
2.2415614 0.98766637 -0.28554195 3.595645e-39
2.2226532 0.96547902 -0.28394711 3.5942072e-39
2.2162971 0.93840361 -0.2856029 3.3186867e-39
2.2032299 0.93764079 -0.27907979 3.5970799e-39
2.1921701 0.91341984 -0.2697784 2.3009741e-39
2.1890178 0.9172591 -0.2848005 1.5644769e-39
2.1746788 0.88736713 -0.27701837 3.2218248e-39
2.1756058 0.896788 -0.28982598 1.4737232e-39
2.1569719 0.8620882 -0.28176662 7.3641499e-39
2.1586637 0.87685847 -0.28433824 6.9045983e-39
2.1424572 0.8390193 -0.28001332 8.746713e-39
2.1340709 0.84017444 -0.29464462 7.736531e-39
2.1216273 0.81332874 -0.27978113 7.3652443e-39
2.1218181 0.8265754 -0.28875527 5.9855441e-39
2.1098723 0.79189163 -0.28759286 9.4842879e-39
2.3043675 1.11269 -0.24397364 2.8534416e-39
2.3011239 1.1235309 -0.25257483 3.5945548e-39
2.1896338 1.2118173 -0.29792649 5.2547936e-39
2.3034148 1.0903119 -0.25147092 3.5942044e-39
2.2924051 1.111661 -0.26216203 3.2239786e-39
2.2635398 1.1307995 -0.27576092 6.3593152e-39
2.2374189 1.1487328 -0.2851997 4.5176013e-39
2.2201395 1.1655004 -0.29462942 2.5825777e-39
2.1857967 1.1926039 -0.29516712 3.9615618e-39
2.1820343 1.2023854 -0.2966235 3.960815e-39
2.2887993 1.0528076 -0.24047373 1.654174e-39
2.290875 1.0658983 -0.25461745 3.2264981e-39
2.2817502 1.033137 -0.24943569 3.2247059e-39
2.2793994 1.0486023 -0.2534191 3.597433e-39
2.2647643 1.0096674 -0.25135419 3.6856826e-39
2.2486911 0.98490262 -0.25151467 4.884223e-39
2.2257559 0.96427941 -0.24908732 4.7938238e-39
2.2201204 0.96572256 -0.26519781 4.2377928e-39
2.205847 0.94055891 -0.2481662 3.5927709e-39
2.2011786 0.94278014 -0.26061717 3.7807565e-39
2.1916115 0.91828132 -0.25659129 2.76662e-39
2.1767087 0.92043948 -0.25035778 3.5938653e-39
2.1746058 0.89332747 -0.26274523 1.8406924e-39
2.161896 0.9020406 -0.25106835 2.2112686e-39
2.150656 0.8613646 -0.26391745 8.2878803e-39
2.1470082 0.87674844 -0.25564933 9.1172906e-39
2.1378284 0.84451127 -0.26391745 7.6382215e-39
2.1255932 0.8562665 -0.2534273 1.1236341e-38
2.1030583 0.86134899 -0.24514027 1.5104934e-38
2.1032066 0.83357537 -0.26605719 1.3077048e-38
2.0881548 0.84316087 -0.25576591 1.1973915e-38
2.0920219 0.81706631 -0.26711833 2.1016559e-38
2.0701404 0.83107185 -0.2587648 8.2760631e-39
2.03443 0.83238924 -0.26963699 1.6562042e-38
1.9993559 0.83001232 -0.2802788 2.1203566e-38
1.9804666 0.82651734 -0.27910087 2.1192785e-38
2.3209717 1.139257 -0.21670333 4.1452188e-39
2.3210788 1.1068221 -0.21312273 1.1045889e-39
2.3151321 1.1200423 -0.22381774 3.8711515e-39
2.3070965 1.1339818 -0.23438588 4.6036844e-39
2.1928906 1.2077159 -0.27348179 4.1502635e-39
2.1841872 1.2176536 -0.26730642 7.7523601e-39
2.3102603 1.0897069 -0.21996042 4.2384864e-39
2.3061697 1.0912708 -0.23575099 2.2094847e-39
2.1838465 1.1982943 -0.27571836 2.1187367e-39
2.1787035 1.2049205 -0.28033626 3.3125897e-39
2.2970858 1.0597202 -0.21964027 3.226145e-39
2.2957206 1.0246974 -0.20360504 4.0519484e-39
2.2890229 1.0306393 -0.22045945 4.5168838e-39
2.261879 1.0128453 -0.22116689 5.7147095e-39
2.2426209 0.99150252 -0.22684561 4.792033e-39
2.224972 1.0003562 -0.2146689 7.0997992e-39
2.2229369 0.96686244 -0.22837818 5.621788e-39
2.2037883 0.98404396 -0.21966223 4.2352663e-39
2.1928329 0.99070501 -0.21825428 5.8148687e-39
2.2052636 0.94604111 -0.23344059 4.610157e-39
2.1938457 0.9502691 -0.22562009 6.9193694e-39
2.1691587 0.95833361 -0.22124161 9.2201235e-40
2.1723113 0.93209219 -0.23258246 4.9782291e-39
2.1554356 0.93776906 -0.22721627 1.8371093e-39
2.1271448 0.96579337 -0.22624291 1.0049684e-38
1.940416 0.98141932 -0.27013621 3.8704424e-39
1.9335263 0.99962401 -0.27018172 4.5150831e-39
2.0630407 0.84984505 -0.24878602 1.1875612e-38
1.9998868 0.89360225 -0.25344831 1.3353954e-38
1.9757401 0.91850984 -0.25725088 1.1508231e-38
1.9606416 0.93564034 -0.2598564 6.44686e-39
1.9410436 0.96122539 -0.26945102 8.4733351e-39
2.0092874 0.87264729 -0.25058323 1.160334e-38
1.9907238 0.88727725 -0.24902357 9.2955904e-39
2.32375 1.1404954 -0.19254217 3.6878126e-39
2.3186865 1.1125427 -0.1922338 3.5920422e-39
2.3193085 1.1287085 -0.19623731 4.2395725e-39
2.3075192 1.0892217 -0.19071245 3.6871189e-39
2.3059778 1.0478036 -0.18091016 3.0414104e-39
2.3026404 1.0639584 -0.19330257 3.6856728e-39
2.2942119 1.0285107 -0.18994699 3.9630038e-39
2.2806053 1.0306537 -0.17782931 7.0961894e-39
2.2565682 1.015739 -0.19294967 8.2954529e-39
2.2364054 1.0221034 -0.18274672 1.4697799e-39
2.2406933 1.0057696 -0.20237771 5.2566363e-39
2.2227528 1.0087268 -0.19954936 5.2523035e-39
2.1948419 1.0169671 -0.19713347 8.3930589e-39
2.1765804 1.0053684 -0.20702958 7.6533163e-39
2.1564894 1.0080969 -0.20133446 6.4461523e-39
2.141046 0.99039721 -0.20837858 7.2813094e-39
2.1210277 0.97137558 -0.21128783 6.6348638e-39
2.0958395 0.97012949 -0.20748068 9.3913075e-39
1.9381349 0.98315549 -0.25898185 3.041402e-39
1.9215369 1.0062232 -0.2539036 4.4272147e-39
1.917619 1.0243818 -0.267039 7.2781102e-39
1.9404024 0.9386059 -0.25046507 2.027606e-39
1.9305863 0.96178198 -0.25082538 4.1502719e-39
1.913577 0.98415601 -0.24486671 4.1459531e-39
1.9689257 0.91183186 -0.24519356 7.4588399e-39
1.9462014 0.92975092 -0.24911338 1.941855e-39
1.9270828 0.94038987 -0.24519521 1.9368705e-39
2.3233588 1.1449515 -0.16514033 3.4112495e-39
2.315367 1.1200418 -0.16428161 3.9622695e-39
2.3174977 1.1361411 -0.16507863 3.5963484e-39
2.3159137 1.0717521 -0.15054642 3.8733025e-39
2.3105896 1.0926449 -0.16074477 3.2265051e-39
2.3038526 1.0558172 -0.15544252 4.0566245e-39
2.2895019 1.0406235 -0.14681637 3.130697e-39
2.2774506 1.0365051 -0.16114104 5.0704205e-39
2.2527757 1.0281807 -0.16849007 7.9331542e-39
2.2278011 1.0336652 -0.16903378 7.5575501e-39
2.2090034 1.0378765 -0.16619211 7.4692894e-39
2.184691 1.0309421 -0.1747625 5.2544503e-39
2.163959 1.0110396 -0.1724401 3.4091083e-39
2.1562791 1.0144715 -0.18566029 5.2530111e-39
2.1483507 0.99537408 -0.16996025 2.7666438e-39
2.1361957 0.99168539 -0.18284842 5.0704163e-39
2.1174138 0.97552776 -0.18522435 4.8853076e-39
2.0931468 0.97753167 -0.18169771 6.5419605e-39
2.0777245 0.97924805 -0.1841379 1.4658002e-38
1.8862102 1.0279964 -0.23860808 3.1300313e-39
1.8750808 1.0405258 -0.22986169 7.9285383e-39
1.9191662 0.96864653 -0.23444225 4.8766798e-39
1.904121 0.96705115 -0.2358118 8.1957449e-39
2.315865 1.1504554 -0.13432316 3.9644093e-39
2.3130002 1.1216345 -0.13187514 3.6860413e-39
2.3126802 1.1398077 -0.14152117 5.5295672e-39
2.3131421 1.0812278 -0.12432076 3.7789544e-39
2.3124073 1.0977709 -0.13455662 3.2264995e-39
2.2982287 1.0601623 -0.12666479 4.147374e-39
2.2890596 1.0411327 -0.13219395 4.4243224e-39
2.2714939 1.046064 -0.12885748 6.3589901e-39
2.2365232 1.0505883 -0.14812224 1.022684e-38
2.2218194 1.0655476 -0.13162161 1.1448098e-38
2.2272768 1.0517759 -0.14883395 9.7734472e-39
2.2021377 1.0520662 -0.14301147 4.3307017e-39
2.1874185 1.0309646 -0.14437532 3.4091013e-39
2.1690621 1.009383 -0.14450592 4.8849461e-39
2.1432014 0.99679077 -0.14746258 7.2830988e-39
2.1272469 0.9903692 -0.15257029 4.3332058e-39
2.1144471 0.98187172 -0.15414768 3.9637086e-39
2.0860474 0.98458791 -0.15513961 1.1793125e-38
2.0588913 0.98891306 -0.15728533 1.5408864e-38
1.8714818 1.0387503 -0.22290252 1.0408443e-38
2.311799 1.1538515 -0.10569416 6.4580395e-39
2.31301 1.1237434 -0.1025096 3.962631e-39
2.3099208 1.0843096 -0.096492119 3.5938471e-39
2.309104 1.1010411 -0.097263396 3.9651366e-39
2.2978458 1.0657248 -0.097423889 3.9637002e-39
2.277746 1.0601693 -0.096492857 5.34592e-39
2.2606931 1.0583735 -0.10216288 4.6105144e-39
2.2311413 1.0645846 -0.10382894 6.3622215e-39
2.2199869 1.0669425 -0.12265962 6.9200742e-39
2.1998999 1.0570251 -0.11421023 3.0388839e-39
2.1884098 1.0196348 -0.10423721 2.8580799e-39
2.1874657 1.0320301 -0.11508958 3.8711445e-39
2.1834402 1.0118442 -0.10721033 3.6809588e-40
2.1670976 1.0091721 -0.11493509 5.7161473e-39
2.1376619 0.99668908 -0.11876471 6.2682463e-39
2.1215198 0.99319029 -0.12818834 4.335382e-39
2.1125464 0.98786151 -0.12434649 3.9637283e-39
2.0794077 0.9917568 -0.12823166 9.3131935e-39
2.0576391 0.98922384 -0.12857008 8.5695469e-39
2.0438547 0.9956888 -0.14899652 5.8220462e-39
2.3096175 1.151035 -0.073437214 2.2969734e-39
2.306818 1.1600918 -0.07824377 1.1897953e-38
2.3143938 1.107489 -0.066305891 4.8856621e-39
2.3044651 1.1324695 -0.074039727 3.962994e-39
2.3092885 1.0906993 -0.068473011 3.4090971e-39
2.2953081 1.0738596 -0.069821596 4.7938014e-39
2.2746296 1.0699704 -0.067761794 4.8842272e-39
2.2503822 1.0619886 -0.07147406 4.7009093e-39
2.22718 1.0615534 -0.080494121 3.4091083e-39
2.2169762 1.0634739 -0.089371637 6.4479656e-39
2.1991293 1.0564966 -0.084417678 2.9477743e-39
2.1930983 1.02512 -0.080829635 3.5020004e-39
2.188715 1.0398002 -0.08979892 3.6889168e-39
2.1779683 1.0160091 -0.080452278 5.8130176e-39
2.1611896 1.0086963 -0.085487686 7.3749441e-39
2.1338201 0.99814916 -0.090069093 6.3644034e-39
2.1118414 0.99857962 -0.085519776 1.1974656e-39
2.1024938 0.99356413 -0.091927633 6.730295e-39
2.0749474 0.99553561 -0.10099549 9.4072263e-39
2.0505581 0.99273574 -0.10439346 7.4588917e-39
2.0371704 0.99413788 -0.11387491 9.2253546e-39
2.3066559 1.1570916 -0.049993522 7.001166e-39
2.2990766 1.1639172 -0.042579848 8.1183134e-39
2.3097012 1.1123043 -0.040427547 4.0576951e-39
2.3051782 1.1348248 -0.043346148 3.8707927e-39
2.3033175 1.0946337 -0.040290579 3.8707927e-39
2.2845018 1.0771539 -0.041224107 5.536044e-39
2.271677 1.0760368 -0.040306289 3.504157e-39
2.2489455 1.0598366 -0.041964531 6.4529892e-39
2.222111 1.0625541 -0.059226915 6.6395539e-39
2.2255063 1.0520582 -0.038228776 1.6584928e-39
2.2056398 1.0527462 -0.049303863 3.780032e-39
2.1931295 1.0563749 -0.064406618 3.2218472e-39
2.1905961 1.0317088 -0.051560853 4.5158006e-39
2.1728005 1.0199425 -0.055180807 8.2050537e-39
2.1554101 1.0133882 -0.052728608 6.3607936e-39
2.1290212 1.0010254 -0.06086814 7.8319748e-39
2.0919223 0.99800432 -0.066269107 1.0880906e-38
2.0608659 1.000939 -0.07177949 1.0506025e-38
2.0456009 0.99752796 -0.077750899 8.386243e-39
2.0167241 0.99998927 -0.084988542 3.2265612e-39
2.2872026 1.1707308 -0.021898022 8.4813113e-39
2.2727184 1.1818551 -0.01511567 8.1010732e-39
2.3055739 1.1142021 -0.023175297 3.2203983e-39
2.2977197 1.1357116 -0.012445392 4.60692e-39
2.2885935 1.1581411 -0.023733908 6.0002647e-39
2.2955317 1.1006783 -0.011419269 4.7005562e-39
2.2755165 1.0981103 -0.00017314496 8.9519626e-39
2.2724926 1.0796866 -0.0020892194 6.3632711e-39
2.2676606 1.0815935 -0.014773102 3.4112425e-39
2.2619002 1.0653632 -0.0030476616 8.5777921e-39
2.2460656 1.0591269 -0.012544408 5.9001784e-39
2.2178555 1.0493236 -0.01616285 4.5172467e-39
2.2014396 1.0443504 -0.0220512 3.7821788e-39
2.1984756 1.0302982 -0.013851085 3.5906283e-39
2.187145 1.0286983 -0.019269859 4.7963392e-39
2.161973 1.018839 -0.020239521 7.8334126e-39
2.1509843 1.0155807 -0.030052332 6.1735185e-39
2.1256599 1.0057209 -0.029942377 8.2969172e-39
2.0883732 1.002179 -0.038298339 1.1253657e-38
2.0555794 1.0051162 -0.043757871 9.1299261e-39
2.0428386 1.0036218 -0.043989204 8.1060562e-39
2.0179887 1.0055832 -0.063668773 1.6582027e-39
2.2782745 1.1768297 0.0084326742 7.1909382e-39
2.2996938 1.1186777 0.0055784634 4.0447597e-39
2.2912083 1.1374847 0.015912589 4.3328387e-39
2.2799392 1.1621809 0.012583853 4.6998107e-39
2.2863419 1.1060158 0.017079974 4.7016268e-39
2.2793775 1.1112405 0.018815558 4.6101486e-39
2.2701187 1.0852244 0.018312251 4.6090766e-39
2.2591517 1.083298 0.015588287 2.8566464e-39
2.2564187 1.0648718 0.012766911 4.8842258e-39
2.2398596 1.0602885 0.019205756 5.8083345e-39
2.2199764 1.0445727 0.014318903 3.9647806e-39
2.1955848 1.0367237 0.010243817 4.7009135e-39
2.1774893 1.0316327 0.0092775114 5.5310287e-39
2.1612716 1.0229127 0.0018011752 7.5586039e-39
2.1414077 1.022961 0.0066626077 6.5481024e-39
2.1244805 1.0145743 -0.0025887534 1.0323767e-38
2.0926828 1.0148228 -0.0039891852 1.0696171e-38
2.080189 1.0106118 -0.0093778139 1.1061001e-38
2.055584 1.0106674 -0.01260986 9.2231994e-39
2.0424562 1.0055733 -0.018921321 1.0134324e-38
2.2862463 1.1688237 0.040850904 9.133222e-39
2.2805333 1.1760159 0.030493449 1.2358595e-38
2.2781758 1.1462282 0.041990705 4.1484628e-39
2.2735043 1.1658051 0.041049112 4.1437811e-39
2.279809 1.1097691 0.046153087 4.5129279e-39
2.2755237 1.1173875 0.04523468 5.9916622e-39
2.2617288 1.0869466 0.048349582 4.5175943e-39
2.2569423 1.0914179 0.041565351 2.5829294e-39
2.2507281 1.0738666 0.051584415 5.9948585e-39
2.2342563 1.0669312 0.045335297 3.687842e-39
2.2303271 1.0446234 0.045833673 4.3385784e-39
2.2182953 1.0475223 0.045503344 4.0562602e-39
2.192153 1.0427155 0.034989957 4.6002667e-40
2.1709051 1.044252 0.034276668 5.7161725e-39
2.151505 1.0454187 0.038656335 1.217557e-38
2.1322999 1.0337045 0.029891344 1.0137939e-38
2.1112421 1.0242462 0.021019557 1.1707065e-38
2.0912161 1.0270091 0.023246277 1.1062401e-38
2.0589147 1.0354747 0.024693282 1.84111e-40
2.074594 1.0213635 0.015205379 1.2444947e-38
2.0510926 1.0212435 0.015372997 1.0604703e-38
2.2658696 1.1528547 0.068781249 3.5953171e-39
2.2677488 1.166365 0.060189527 5.1609136e-39
2.270328 1.1079837 0.071301281 6.1749324e-39
2.26578 1.1266382 0.075206138 4.2399326e-39
2.2577739 1.093128 0.0751625 4.7927462e-39
2.2454472 1.0895026 0.072644539 3.2232737e-39
2.2369874 1.0677433 0.079699263 5.3452067e-39
2.2318082 1.0721987 0.07208617 4.2410228e-39
2.2072892 1.0571758 0.071082972 4.6969815e-39
2.1840165 1.0619786 0.073440596 1.4198077e-38
2.1684341 1.0571638 0.062129717 1.0695779e-38
2.1482387 1.0556645 0.062069178 8.8486421e-39
2.1255653 1.0482616 0.054160483 7.6461542e-39
2.1031101 1.0500444 0.062804259 1.0047491e-38
2.0887866 1.0382296 0.049360376 8.1985979e-39
2.0576434 1.0386374 0.043314785 9.6841565e-39
2.0464945 1.0332575 0.043461375 9.7702298e-39
2.263833 1.1523626 0.087525547 1.0980681e-38
2.2562275 1.1282187 0.097945206 4.6079976e-39
2.2508919 1.0916506 0.092989847 7.007207e-39
2.2422891 1.1014767 0.10497055 4.5183117e-39
2.238606 1.0756314 0.093277395 4.8827769e-39
2.2246318 1.0791521 0.10312191 5.0707793e-39
2.1998863 1.0720661 0.096288487 1.0236278e-38
2.174273 1.0767796 0.095635645 1.1523738e-38
2.1509361 1.0791327 0.095766872 9.410815e-39
2.1386833 1.0676361 0.087024279 7.5557355e-39
2.1157541 1.060179 0.083697043 5.5364363e-39
2.09655 1.0564333 0.08170072 3.8672068e-39
2.08816 1.0444009 0.071687758 7.5632871e-39
2.0552149 1.0517279 0.074452586 6.5477002e-39
2.0424232 1.0451214 0.062331606 1.040557e-38
2.0085127 1.0517175 0.06716726 6.3622426e-39
2.2295895 1.1380965 0.11172149 4.2359991e-39
2.1993303 1.1585039 0.12293512 3.5135793e-39
2.2235799 1.111222 0.12056229 1.939767e-39
2.2038743 1.1240454 0.12608804 7.011544e-39
2.1938505 1.1489532 0.12342083 4.7938463e-39
2.2117076 1.0994254 0.11880734 7.8312433e-39
2.190275 1.1015601 0.12163289 7.3738749e-39
2.1722045 1.1110641 0.12927204 7.37567e-39
2.1719151 1.0900564 0.11280023 3.4141712e-39
2.1513715 1.0926919 0.1177645 5.9891468e-39
2.1278629 1.0780149 0.11119742 4.4239707e-39
2.109484 1.0834209 0.12172758 8.5720398e-39
2.0974069 1.0700889 0.11163212 7.1905473e-39
2.0647602 1.0722779 0.10538177 1.0606474e-38
2.0466893 1.0699142 0.10303282 9.3946146e-39
2.0159948 1.0729942 0.10137559 9.9689928e-39
2.0043755 1.0624595 0.076367036 9.5851323e-39
1.9799161 1.0885383 0.097049557 1.199906e-38
2.1799812 1.1465893 0.13709013 5.0769408e-39
2.1893616 1.1230702 0.13658518 8.3872744e-39
2.1631694 1.1250458 0.1408399 5.5324819e-39
2.1410394 1.136518 0.14915736 3.8715298e-39
2.1387942 1.1076996 0.13720752 6.2660812e-39
2.1205921 1.1115439 0.14825505 3.7753811e-39
2.1245985 1.094097 0.13624756 6.5516715e-39
2.1069388 1.0904444 0.13973263 6.0788089e-39
2.0850415 1.0728333 0.13919252 1.0592402e-38
2.0592833 1.0755473 0.11799187 1.3267881e-38
2.0625777 1.0571649 0.14582725 9.0243649e-39
2.0494289 1.063352 0.12940645 1.1783049e-38
2.0058312 1.0779078 0.10826629 1.125577e-38
2.1305766 1.1359524 0.15879291 3.5028034e-39
2.1131186 1.123453 0.15879856 5.8054436e-39
2.1005437 1.1351608 0.1668884 3.7797223e-39
2.1008983 1.0965481 0.15996566 6.9071052e-39
2.0968885 1.067982 0.16050163 6.5372549e-39
2.0865245 1.0711858 0.16041131 6.9971527e-39
2.0645118 1.0530866 0.15953732 8.0087823e-39
