# .PCD v0.7 - Point Cloud Data file format
VERSION 0.7
FIELDS x y z rgb
SIZE 4 4 4 4
TYPE F F F F
COUNT 1 1 1 1
WIDTH 1009
HEIGHT 1
VIEWPOINT 0 0 0 1 0 0 0
POINTS 1009
DATA ascii
3.3274748 -0.70669758 -1.4144049 7.8316147e-39
3.3592706 -0.71419609 -1.442223 8.5713391e-39
3.3980627 -0.70826006 -1.4444062 7.8312588e-39
3.2272744 -0.81291896 -1.3717713 1.7504531e-38
3.1980894 -0.80472797 -1.3457782 1.750451e-38
3.2289371 -0.79378885 -1.365621 1.5938294e-38
3.2289054 -0.76190811 -1.3656212 1.4926361e-38
3.2288797 -0.73640352 -1.365621 1.1882498e-38
3.2644558 -0.73093671 -1.3681934 9.0279957e-39
3.296562 -0.72542202 -1.387247 8.5673679e-39
3.3309565 -0.71984273 -1.401722 8.2886384e-39
3.2999752 -0.70589942 -1.3746951 7.9227243e-39
3.3309433 -0.70669413 -1.401722 7.9230844e-39
3.369766 -0.69425344 -1.4037707 7.0022057e-39
3.4051332 -0.69482541 -1.4185023 7.4620923e-39
3.4822783 -0.69610602 -1.435897 7.8218462e-39
3.2999556 -0.68638015 -1.3746951 7.4631853e-39
3.4858763 -0.67552632 -1.4226654 7.8301433e-39
3.5216668 -0.66675901 -1.4471878 6.5412024e-39
3.5222511 -0.641334 -1.4449583 5.5285092e-39
3.5221956 -0.58586252 -1.4449583 6.4464942e-39
3.2373469 -0.79378045 -1.3348696 1.6400723e-38
3.2368946 -0.76190007 -1.3364072 1.096373e-38
3.273329 -0.76957011 -1.3358897 1.1796341e-38
3.2715912 -0.73092967 -1.3421019 8.3837081e-39
3.271559 -0.69872785 -1.3421019 7.2769878e-39
3.3051045 -0.68637496 -1.3558671 6.9993373e-39
3.3430564 -0.6803847 -1.3573318 7.6457829e-39
3.3802614 -0.67431086 -1.3653184 7.9237893e-39
3.4139678 -0.67467523 -1.3861225 7.550695e-39
3.4521363 -0.66150868 -1.3943516 6.7219937e-39
3.5277591 -0.6621303 -1.4248931 6.2649784e-39
3.4930925 -0.65494299 -1.3962022 6.4490166e-39
3.5295675 -0.64132667 -1.4182048 5.9866007e-39
3.5289323 -0.61590278 -1.4204342 5.7085634e-39
3.5706208 -0.6133976 -1.4272041 5.8021982e-39
3.5295188 -0.59278911 -1.4182049 5.8933288e-39
3.5668941 -0.58535725 -1.4407295 6.0777173e-39
3.6126561 -0.59193897 -1.4364264 6.2624659e-39
3.654747 -0.58418673 -1.4454967 7.2787618e-39
3.2440679 -0.78739756 -1.3102682 1.8241355e-38
3.2457373 -0.7746436 -1.3041179 1.5019882e-38
3.2784193 -0.7631247 -1.3172529 1.1335009e-38
3.2783868 -0.73092288 -1.3172529 8.6631662e-39
3.3171573 -0.72540146 -1.3119353 7.9252368e-39
3.2766621 -0.70516306 -1.3234652 7.2780766e-39
3.3143904 -0.7045837 -1.3219768 7.6486415e-39
3.3482721 -0.69352818 -1.3383074 7.9259529e-39
3.3136859 -0.68636638 -1.3244872 7.7401253e-39
3.3505666 -0.67599434 -1.3298521 7.2791444e-39
3.3849263 -0.66544741 -1.3482285 7.1854998e-39
3.3872454 -0.64772767 -1.3396835 7.0936671e-39
3.4210248 -0.64781314 -1.3602185 6.8170676e-39
3.4610584 -0.63435847 -1.3616266 6.8181494e-39
3.5003021 -0.62750089 -1.3697391 6.4497172e-39
3.5350478 -0.6343872 -1.3981397 5.4366541e-39
3.5368559 -0.61358362 -1.3914515 5.8958344e-39
3.5368352 -0.59278184 -1.3914515 6.4457768e-39
3.5816891 -0.58534247 -1.3866279 6.7234398e-39
3.6182668 -0.59193337 -1.4159101 6.7227224e-39
3.2846463 -0.76097172 -1.2944746 1.0415224e-38
3.2873075 -0.73252404 -1.2846386 8.6613768e-39
3.3222868 -0.70587707 -1.2931074 7.7394149e-39
3.3222673 -0.6863578 -1.2931074 6.9103717e-39
3.3569233 -0.67379647 -1.3066 6.7248804e-39
3.3925166 -0.6610105 -1.3204573 7.0925881e-39
3.3930829 -0.64329249 -1.3183211 7.4613664e-39
3.4298642 -0.63213885 -1.3278387 7.3695267e-39
3.5057297 -0.62749541 -1.3498917 6.8188627e-39
3.507525 -0.61377621 -1.3432759 6.3564538e-39
3.5450833 -0.61010838 -1.3613538 5.8958302e-39
3.5441513 -0.59277451 -1.3646979 6.1706262e-39
3.2608361 -0.73637158 -1.248765 1.2349541e-38
3.2953689 -0.72446549 -1.2551303 1.0781141e-38
3.3291521 -0.70587021 -1.2680035 8.1092806e-39
3.3638799 -0.69351256 -1.2812341 7.2773675e-39
3.3638601 -0.67378962 -1.2812341 7.4624538e-39
3.3977742 -0.66100526 -1.3012311 7.4620937e-39
3.3655682 -0.64749062 -1.2748927 7.3706169e-39
3.4003799 -0.63774848 -1.2916181 7.3698911e-39
3.4369438 -0.62765592 -1.3019348 7.1847949e-39
3.4047449 -0.62113404 -1.2755964 7.3699079e-39
3.4404657 -0.60751116 -1.2889829 7.0922308e-39
3.4735739 -0.62077522 -1.3158116 7.0933084e-39
3.5111434 -0.61377257 -1.3300443 6.816004e-39
3.4771197 -0.58684516 -1.3027216 6.4468501e-39
3.511116 -0.58633769 -1.3300443 6.447576e-39
3.3021643 -0.72445869 -1.2302812 1.1058078e-38
3.3021386 -0.69869727 -1.2302812 8.477689e-39
3.3359976 -0.68634409 -1.2428995 8.3865793e-39
3.3718359 -0.67246681 -1.2520633 7.8326685e-39
3.372498 -0.64090937 -1.2495269 7.4628154e-39
3.4100025 -0.6211288 -1.2563702 7.461742e-39
3.4457786 -0.6075058 -1.269555 7.1847865e-39
3.4117019 -0.56797481 -1.2499615 8.6501383e-39
3.4451632 -0.58288932 -1.2717135 7.0907692e-39
3.3083913 -0.72230572 -1.207503 1.1059161e-38
3.3106329 -0.69868869 -1.1992199 9.1230654e-39
3.3106093 -0.67507404 -1.1992199 8.4777002e-39
3.3452499 -0.67071939 -1.2090093 8.2018321e-39
3.3445401 -0.64729702 -1.2115197 7.924141e-39
3.3811626 -0.6343264 -1.2178196 7.6471968e-39
3.4170063 -0.61447775 -1.2307353 7.3709715e-39
3.4528556 -0.60078502 -1.243651 7.2783975e-39
3.4169598 -0.5679695 -1.2307353 6.9992882e-39
3.4528422 -0.58735752 -1.243651 6.9089073e-39
3.3531735 -0.69933975 -1.1801398 1.1429757e-38
3.3534932 -0.67591625 -1.1788845 9.4007271e-39
3.3173833 -0.65359938 -1.1743709 8.2943711e-39
3.3531151 -0.64078206 -1.1801398 8.1085393e-39
3.3530955 -0.62126273 -1.1801398 7.9234376e-39
3.3880796 -0.61459655 -1.1924536 7.9241536e-39
3.42401 -0.60782671 -1.2051004 7.5564403e-39
3.4239867 -0.58457267 -1.2051004 7.1876522e-39
3.4581552 -0.58735216 -1.2242231 7.1855096e-39
3.3897548 -0.55542612 -1.1861122 7.0936517e-39
3.4222043 -0.55467618 -1.2115091 6.8174305e-39
3.3933675 -0.70005739 -1.1734293 1.2070806e-38
3.4342678 -0.70083296 -1.1679298 1.1057372e-38
3.4724438 -0.70818567 -1.1724154 1.1152426e-38
3.3582833 -0.66029614 -1.1613119 9.0312187e-39
3.3968077 -0.67156523 -1.1607463 9.5818757e-39
3.3599801 -0.6407752 -1.1550359 8.5691685e-39
3.3599541 -0.61474943 -1.1550359 7.7412001e-39
3.3967376 -0.60143924 -1.1607463 7.6493394e-39
3.3990321 -0.58390552 -1.1522911 7.4642447e-39
3.430414 -0.58567357 -1.1816018 7.3709588e-39
3.3966916 -0.55541915 -1.1607463 7.1862088e-39
3.4362116 -0.54137409 -1.1602395 7.1844054e-39
3.3949375 -0.53569788 -1.1670878 7.0940034e-39
3.4361982 -0.52808601 -1.1602395 5.1597309e-39
3.4777701 -0.72160786 -1.1529874 1.1887125e-38
3.4777434 -0.69475281 -1.1529874 8.2907964e-39
3.5148356 -0.71572858 -1.1652766 1.0044635e-38
3.4037402 -0.66717541 -1.1353805 8.9372154e-39
3.4433546 -0.67424774 -1.1346046 8.292569e-39
3.3668454 -0.64076835 -1.1299319 9.0304956e-39
3.407182 -0.64087474 -1.1226976 9.1208835e-39
3.3662496 -0.61691195 -1.1320239 8.2940096e-39
3.4054151 -0.60800487 -1.129039 8.2014566e-39
3.4036481 -0.57513511 -1.1353805 7.4642643e-39
3.4421022 -0.59009123 -1.138877 7.5575263e-39
3.4053626 -0.5554105 -1.129039 7.4628069e-39
3.4414692 -0.54136884 -1.1410133 7.0932916e-39
3.4414558 -0.52808076 -1.1410133 5.804373e-39
3.477562 -0.51348132 -1.1529874 1.2705635e-38
3.483083 -0.72160256 -1.1335595 1.0879798e-38
3.5237985 -0.72929025 -1.1325517 1.0418459e-38
3.522342 -0.70486456 -1.1377877 8.2940166e-39
3.4468467 -0.66095614 -1.1217871 8.1931777e-39
3.484807 -0.67460442 -1.1270835 7.27878e-39
3.411798 -0.63210434 -1.105787 9.0301144e-39
3.4503386 -0.64766461 -1.1089697 7.3741986e-39
3.4123518 -0.60799789 -1.1036732 8.5705964e-39
3.410598 -0.5882768 -1.1100147 8.0181387e-39
3.4491081 -0.58565485 -1.1132421 7.9252256e-39
3.4122992 -0.55540353 -1.1036732 7.3716833e-39
3.446727 -0.54136354 -1.1217871 7.1865438e-39
3.4140136 -0.5356788 -1.0973318 6.8181354e-39
3.4484599 -0.52142966 -1.1153784 6.8170466e-39
3.4864101 -0.50675869 -1.1206076 6.6283253e-39
3.4466872 -0.5014993 -1.1217871 8.8327275e-39
3.4972646 -0.73501587 -1.0817517 1.1701637e-38
3.5300663 -0.73267668 -1.1096442 1.0508493e-38
3.5304849 -0.70383859 -1.1080079 7.8323209e-39
3.5727391 -0.69601554 -1.1051073 7.3706169e-39
3.4901133 -0.66788536 -1.1076556 7.0936517e-39
3.5308969 -0.66821527 -1.1063716 6.7255866e-39
3.5727186 -0.67543948 -1.1051073 6.91141e-39
3.4538305 -0.63437301 -1.0961522 8.1078078e-39
3.4945138 -0.6410259 -1.0914657 7.092923e-39
3.4555631 -0.61443919 -1.0897435 8.663134e-39
3.4555364 -0.58786309 -1.0897435 8.3858408e-39
3.4192359 -0.55539662 -1.0783074 7.4638803e-39
3.4195523 -0.52515435 -1.077039 6.9081758e-39
3.453711 -0.5147804 -1.0961522 6.4504249e-39
3.4560299 -0.49706066 -1.0876073 6.4461131e-39
3.4899387 -0.49332765 -1.1076556 8.0887263e-39
3.5025775 -0.73501056 -1.0623238 1.1608735e-38
3.5399072 -0.72927409 -1.0736467 1.013972e-38
3.5398867 -0.70891821 -1.0736467 8.1088994e-39
3.5781667 -0.69601011 -1.0852599 7.2812813e-39
3.5781462 -0.67543405 -1.0852599 6.5415821e-39
3.50247 -0.62759042 -1.0623238 5.7103809e-39
3.5398257 -0.64785033 -1.0736467 5.5292239e-39
3.4625669 -0.60778815 -1.0641086 7.9244928e-39
3.5042276 -0.61416113 -1.0558479 6.5397717e-39
3.4642994 -0.58785433 -1.0576999 8.0170513e-39
3.427907 -0.55538797 -1.0466001 7.5582242e-39
3.4278738 -0.52251637 -1.0466 6.9103492e-39
3.4642065 -0.49483779 -1.0576999 7.2765996e-39
3.5848601 -0.75544566 -1.061002 1.1239934e-38
3.5470667 -0.72926694 -1.0474668 9.7705774e-39
3.5474 -0.70483947 -1.0461577 7.6471996e-39
3.5835943 -0.69600469 -1.0654126 7.3727581e-39
3.5487885 -0.661412 -1.0409217 6.541208e-39
3.5847824 -0.67771363 -1.061002 7.0943972e-39
3.5113316 -0.63429534 -1.0299439 5.2519125e-39
3.5451887 -0.64105964 -1.0540117 4.7019841e-39
3.4748349 -0.60777587 -1.0192477 5.985481e-39
3.5077696 -0.61415762 -1.0428959 5.6181685e-39
3.4730623 -0.58784556 -1.0256563 7.5560606e-39
3.436578 -0.55537927 -1.0148927 8.0166898e-39
3.4368944 -0.52513701 -1.0136243 6.5419142e-39
3.4712367 -0.51476288 -1.032065 6.9099513e-39
3.4729693 -0.49482906 -1.0256563 6.5401192e-39
3.4747019 -0.47489518 -1.0192477 7.1836977e-39
3.5536339 -0.73378396 -1.0234684 1.0413786e-38
3.554199 -0.70211858 -1.0212867 7.2802164e-39
3.5541651 -0.66819191 -1.0212867 6.3582601e-39
3.5166445 -0.63429004 -1.010516 5.0682345e-39
3.51721 -0.60967237 -1.0083573 5.2486615e-39
3.4794865 -0.58562452 -1.0021577 8.475161e-39
3.4435148 -0.55537236 -0.98952693 7.4638775e-39
3.4434819 -0.52250069 -0.98952693 6.9096065e-39
3.44519 -0.49620175 -0.98318541 7.3684491e-39
3.4793935 -0.49260792 -1.0021577 6.3553692e-39
3.4799597 -0.47488993 -1.0000215 5.8943896e-39
3.5238156 -0.72156179 -0.98461211 1.0231193e-38
3.563189 -0.74282146 -0.98856175 1.1793119e-38
3.561003 -0.70482588 -0.99641573 7.6479087e-39
3.5255396 -0.67456365 -0.97813618 6.9096248e-39
3.5607255 -0.66592366 -0.99728841 6.4493515e-39
3.5237284 -0.63428295 -0.98461211 5.1593357e-39
3.5237017 -0.6074279 -0.98461211 5.7103403e-39
3.4870763 -0.58118749 -0.97438657 7.09293e-39
3.4504516 -0.55536538 -0.96416104 6.6330421e-39
3.4504187 -0.52249378 -0.96416104 7.09293e-39
3.4503925 -0.49619657 -0.96416104 7.2766248e-39
3.4869833 -0.48817098 -0.97438657 7.1836921e-39
3.4869635 -0.46823886 -0.97438657 6.5383297e-39
3.5362394 -0.74840438 -0.93928033 1.1605463e-38
3.5703616 -0.75638497 -0.96238172 1.1331387e-38
3.5344481 -0.72826493 -0.94575632 9.5829519e-39
3.5667617 -0.73603255 -0.97547174 1.0690355e-38
3.5326507 -0.70141166 -0.9522323 7.5535662e-39
3.5326238 -0.67455667 -0.9522323 7.0943635e-39
3.5666871 -0.66139412 -0.97547174 6.079504e-39
3.5330942 -0.63906908 -0.95038205 4.975306e-39
3.5702531 -0.64781994 -0.96238172 5.1579064e-39
3.4993713 -0.60775131 -0.92952555 4.7880533e-39
3.5307922 -0.61413455 -0.95870823 4.5118279e-39
3.4626107 -0.57507616 -0.91977084 8.0123682e-39
3.495146 -0.58915234 -0.94490641 6.9088989e-39
3.4256823 -0.55178833 -0.91445678 7.3706015e-39
3.4568081 -0.55316758 -0.94090903 7.4627957e-39
3.4267981 -0.52359265 -0.91027272 7.1865536e-39
3.4580967 -0.52060771 -0.93607742 7.5538984e-39
3.4590566 -0.48961359 -0.93245375 7.1854802e-39
3.495733 -0.47487414 -0.942343 7.0007218e-39
3.5306444 -0.46643189 -0.95870823 6.4490067e-39
3.5065277 -0.75391304 -0.90389067 1.07811e-38
3.5415523 -0.74839908 -0.91985238 1.1057362e-38
3.541532 -0.72825783 -0.91985238 8.5688014e-39
3.5415053 -0.70140284 -0.91985238 7.3691694e-39
3.5414784 -0.67454779 -0.91985238 7.0007442e-39
3.5410936 -0.64366484 -0.92114758 4.6065263e-39
3.5052173 -0.61217481 -0.90816319 4.5103776e-39
3.4683957 -0.57945323 -0.89863259 7.7390127e-39
3.5028629 -0.59445983 -0.91670811 6.8181256e-39
3.431973 -0.54961318 -0.8914448 7.5542571e-39
3.4319468 -0.52358747 -0.8914448 7.5546242e-39
3.4677474 -0.50932777 -0.90074641 7.5553361e-39
3.4677277 -0.48960489 -0.90074641 7.0039546e-39
3.5044959 -0.47486538 -0.91029942 6.9092492e-39
3.5135448 -0.76055008 -0.87825584 1.0688924e-38
3.5468719 -0.75510752 -0.90042448 1.0412341e-38
3.5135248 -0.74061793 -0.87825584 9.6787194e-39
3.5486159 -0.72825074 -0.8939485 8.1985839e-39
3.5123119 -0.69632554 -0.88252831 7.4624454e-39
3.5468116 -0.69468373 -0.90042448 7.3706169e-39
3.5134518 -0.66753358 -0.87825584 6.3589761e-39
3.5467913 -0.67454243 -0.90042448 6.3582601e-39
3.5116725 -0.6409592 -0.88466454 4.9745969e-39
3.4742072 -0.61012751 -0.87749439 5.617458e-39
3.4406002 -0.59514952 -0.86006492 7.1858417e-39
3.4747565 -0.58163834 -0.87538058 7.924134e-39
3.4382684 -0.55177575 -0.86843294 7.2762465e-39
3.4764578 -0.54876506 -0.86903912 6.7223538e-39
3.438812 -0.52358061 -0.86634088 7.0003771e-39
3.4764185 -0.50931913 -0.86903912 6.8145481e-39
3.4370763 -0.50406307 -0.87261689 7.2765954e-39
3.4746644 -0.48959798 -0.87538058 7.0007218e-39
3.5109177 -0.47042963 -0.88680077 7.001819e-39
3.5212543 -0.75921363 -0.85005742 1.0229392e-38
3.5539761 -0.77524173 -0.8745206 1.0872954e-38
3.5212305 -0.735295 -0.85005742 8.9365021e-39
3.5551071 -0.72600633 -0.8702032 8.0141955e-39
3.5196157 -0.6974256 -0.8558253 7.2777024e-39
3.4852538 -0.67366815 -0.83733183 6.1727772e-39
3.5169568 -0.66753006 -0.8654384 6.2628316e-39
3.4509366 -0.6341778 -0.82240903 7.3709406e-39
3.4829085 -0.64079893 -0.84578711 5.8947638e-39
3.4497709 -0.61249083 -0.8265931 7.8301475e-39
3.4811394 -0.60573769 -0.85212857 6.7234286e-39
3.450891 -0.58863282 -0.82240903 6.8203046e-39
3.4827323 -0.58031547 -0.84620976 8.0152422e-39
3.4474194 -0.54959768 -0.83496094 7.1865858e-39
3.4473932 -0.52357203 -0.83496094 6.7245132e-39
3.4798868 -0.50931567 -0.8563562 7.1840523e-39
3.4496582 -0.49971288 -0.8265931 7.4617083e-39
3.4826403 -0.48827511 -0.8462097 7.2776856e-39
3.5202637 -0.4695344 -0.8526209 7.1840537e-39
3.557209 -0.4664053 -0.86156863 7.0872057e-39
3.5293181 -0.76053429 -0.82057738 9.6783677e-39
3.5292914 -0.73395813 -0.82057738 8.0148835e-39
3.5610061 -0.7215246 -0.84861672 8.2932753e-39
3.4939444 -0.6933825 -0.80562449 6.2624631e-39
3.5286827 -0.70959729 -0.82271361 7.0943776e-39
3.4561117 -0.66019827 -0.80358112 5.6203223e-39
3.4921973 -0.68023556 -0.81196594 5.5281266e-39
3.4226871 -0.62773263 -0.78921068 7.8308552e-39
3.4555225 -0.64284843 -0.80567318 7.0025351e-39
3.4226677 -0.60841155 -0.78921068 7.1862004e-39
3.45435 -0.61465502 -0.80985713 7.4624384e-39
3.4226484 -0.58909047 -0.78921068 6.817041e-39
3.4560335 -0.58212119 -0.80358112 7.091858e-39
3.4903579 -0.57504839 -0.8183074 7.6453961e-39
3.4226098 -0.55044824 -0.78921068 7.0918426e-39
3.4554272 -0.54742098 -0.80567318 7.0929258e-39
3.4554055 -0.52573282 -0.80567318 6.9106897e-39
3.4926085 -0.51368582 -0.80985212 7.0003686e-39
3.4914305 -0.49177262 -0.81407976 6.8163501e-39
3.530798 -0.48812717 -0.81416863 6.8156257e-39
3.5290258 -0.46819681 -0.82057738 6.9049458e-39
3.4647906 -0.75778604 -0.77220124 9.6776447e-39
3.4974787 -0.75912213 -0.79294157 9.6783593e-39
3.4647646 -0.73176026 -0.77220124 7.4642335e-39
3.4974523 -0.7328248 -0.79294157 7.2773353e-39
3.4295468 -0.69212943 -0.76436162 5.8025639e-39
3.464745 -0.71224099 -0.77220124 6.171722e-39
3.497426 -0.70652765 -0.79294157 6.2617582e-39
3.4295211 -0.66636795 -0.76436162 5.4359324e-39
3.4624267 -0.68188006 -0.78056926 5.5266931e-39
3.3986583 -0.6405915 -0.74443913 5.6185174e-39
3.4277966 -0.64060825 -0.77057391 6.7241601e-39
3.4277644 -0.60840642 -0.77057391 7.2769513e-39
3.4277387 -0.58264494 -0.77057391 6.8152557e-39
3.4611695 -0.5691033 -0.7847532 7.0018246e-39
3.3951988 -0.54495269 -0.75673974 7.3669932e-39
3.4277034 -0.54722291 -0.77057391 6.8170592e-39
3.429373 -0.51823968 -0.76436162 6.9088779e-39
3.4611237 -0.52355832 -0.7847532 7.0007428e-39
3.4972289 -0.50929832 -0.79294157 6.4515165e-39
3.4645369 -0.50403559 -0.77220124 7.096537e-39
3.4989433 -0.48957366 -0.78660011 6.6305281e-39
3.4994929 -0.46108446 -0.78448629 7.9111832e-39
3.5342898 -0.4748356 -0.80135119 7.0911476e-39
3.3967595 -0.42380428 -0.75058943 1.8061997e-38
3.3967404 -0.40467587 -0.75058943 1.4817982e-38
3.4292507 -0.39587271 -0.76436162 1.8790897e-38
3.5451777 -0.84689099 -0.76289892 1.2075112e-38
3.5079494 -0.82485479 -0.75489283 1.189575e-38
3.541646 -0.8203184 -0.77571636 1.1892883e-38
3.4730587 -0.78770727 -0.74207658 9.8616716e-39
3.5044417 -0.78541237 -0.76757574 1.0597065e-38
3.4716556 -0.75777918 -0.74709731 7.3731238e-39
3.438067 -0.71788239 -0.73330033 4.6983912e-39
3.4707749 -0.73500752 -0.75023532 6.079518e-39
3.4363487 -0.69856298 -0.73951256 4.6061816e-39
3.403723 -0.65971488 -0.72598821 4.4207113e-39
3.435477 -0.67602253 -0.74261874 4.7891225e-39
3.4037039 -0.64058644 -0.72598821 4.2366676e-39
3.4328802 -0.62772244 -0.75193709 6.5401346e-39
3.4042411 -0.61720669 -0.72393799 3.7767712e-39
3.4345598 -0.60839963 -0.74572486 5.3415802e-39
3.4053414 -0.59595174 -0.71983784 3.8668187e-39
3.4362328 -0.58263648 -0.73951256 4.8813251e-39
3.4036083 -0.54494429 -0.72598821 4.14413e-39
3.4348466 -0.5555883 -0.74448234 5.5270476e-39
3.4035892 -0.52581584 -0.72598821 4.4225036e-39
3.4353161 -0.51501352 -0.74261874 6.2635169e-39
3.4378481 -0.49891001 -0.73330033 6.1713254e-39
3.4713955 -0.49752229 -0.74709731 6.3557321e-39
3.5058799 -0.48956674 -0.76123422 6.7237874e-39
3.5058601 -0.4698438 -0.76123428 5.9883873e-39
3.5430398 -0.46153876 -0.76930761 1.0209203e-38
3.3375418 -0.42163047 -0.70554471 2.0085964e-38
3.3675387 -0.4258427 -0.72476453 1.8522262e-38
3.3691912 -0.41321719 -0.71867615 2.0367245e-38
3.4034617 -0.39829299 -0.72598821 1.4093688e-38
3.4326484 -0.39586931 -0.75193709 7.820103e-39
3.4353483 -0.3778336 -0.74199742 1.2878932e-38
3.5894897 -0.86919892 -0.74500114 1.4933209e-38
3.5131652 -0.83799821 -0.73586839 9.5930483e-39
3.5556931 -0.84688044 -0.72444659 8.0314721e-39
3.5148797 -0.8182736 -0.72952694 5.897998e-39
3.4802632 -0.78379619 -0.71571743 4.4218071e-39
3.4796674 -0.75994003 -0.7178095 4.3296031e-39
3.4452124 -0.72817993 -0.70720881 4.2374018e-39
3.4448431 -0.69855452 -0.70845127 4.2355956e-39
3.4121327 -0.65970647 -0.69523662 3.8693424e-39
3.4442532 -0.67494041 -0.71052206 4.0508512e-39
3.4104316 -0.6405797 -0.70138693 3.5002011e-39
3.4104061 -0.61507511 -0.70138693 3.407651e-39
3.410387 -0.59594667 -0.70138693 3.4998326e-39
3.4447272 -0.58262795 -0.70845127 3.4991067e-39
3.410336 -0.54493755 -0.70138693 3.590952e-39
3.4447079 -0.56330687 -0.70845127 3.6820729e-39
3.4103169 -0.52580911 -0.70138693 3.5001759e-39
3.4446564 -0.51178396 -0.70845127 3.4994781e-39
3.4429448 -0.49890491 -0.71466357 3.9586584e-39
3.4816933 -0.49751201 -0.70944148 3.3161672e-39
3.5145576 -0.4961324 -0.72952694 4.0501407e-39
3.5518291 -0.48810616 -0.73726404 4.6965653e-39
3.514523 -0.46194598 -0.72952682 8.7455808e-39
3.5518157 -0.47481808 -0.73726404 4.4116981e-39
3.3741987 -0.42583606 -0.70041102 2.0180336e-38
3.4118969 -0.42378911 -0.69523662 2.036001e-38
3.374186 -0.41321221 -0.70041102 2.0820665e-38
3.4096308 -0.40041223 -0.70343697 1.6493979e-38
3.4462395 -0.39585572 -0.70223904 1.2519164e-38
3.4781499 -0.38690639 -0.72199345 1.0492295e-38
3.4462202 -0.37653464 -0.70223904 1.1043647e-38
3.5127048 -0.37779662 -0.73586839 1.0768488e-38
3.5218363 -0.83798951 -0.70416111 8.2151403e-39
3.4888837 -0.82282615 -0.68433762 6.0881514e-39
3.5218165 -0.81826663 -0.70416111 4.6058172e-39
3.4874754 -0.78769284 -0.68935835 4.6994562e-39
3.4533956 -0.75650936 -0.67738998 4.2406346e-39
3.4853926 -0.76427186 -0.69688952 4.3313855e-39
3.4516706 -0.73074955 -0.68360227 4.4228651e-39
3.4188986 -0.69795656 -0.67063528 4.4217847e-39
3.4188735 -0.67245203 -0.67063546 4.1452216e-39
3.4188416 -0.6405713 -0.67063546 3.8682704e-39
3.4188161 -0.61506671 -0.67063546 3.4087356e-39
3.4187841 -0.58318597 -0.67063546 3.4080083e-39
3.4187455 -0.54492915 -0.67063528 3.408702e-39
3.4515033 -0.56330007 -0.68360227 3.5927415e-39
3.4187269 -0.5258007 -0.67063546 3.3154357e-39
3.4514518 -0.51177716 -0.68360227 3.1317844e-39
3.4514389 -0.49889642 -0.68360227 3.313998e-39
3.4868355 -0.49100047 -0.69061357 3.5916611e-39
3.5605919 -0.4880974 -0.70522046 4.3274086e-39
3.4885128 -0.45196024 -0.68433762 5.8882491e-39
3.5214548 -0.45667961 -0.70416111 4.9627195e-39
3.5605786 -0.47480932 -0.70522046 5.4333975e-39
3.4186249 -0.42378244 -0.67063546 1.5846781e-38
3.4179275 -0.39955375 -0.67309546 1.4269766e-38
3.4152162 -0.37915277 -0.68293595 1.196991e-38
3.4568448 -0.80802882 -0.66496545 4.6076011e-39
3.4964366 -0.82411987 -0.65672326 6.1807183e-39
3.4585307 -0.79514635 -0.65875316 4.4232252e-39
3.4965777 -0.79353958 -0.65609568 4.5147104e-39
3.4601974 -0.76294291 -0.65254086 4.974618e-39
3.460165 -0.73074108 -0.65254092 4.5147118e-39
3.4618382 -0.70497787 -0.64632863 4.3313939e-39
3.427283 -0.67244363 -0.63988388 4.3310352e-39
3.4272509 -0.64056289 -0.63988376 4.0555259e-39
3.4272254 -0.6150583 -0.63988376 3.7771426e-39
3.4271936 -0.58317757 -0.63988388 3.3176049e-39
3.4265988 -0.5491721 -0.6419338 3.2253995e-39
3.4599977 -0.56329161 -0.65254092 2.9506301e-39
3.4271424 -0.53216845 -0.63988376 3.224689e-39
3.4606307 -0.51692033 -0.65005594 3.4998242e-39
3.4954305 -0.50400472 -0.65923369 3.5916415e-39
3.5307388 -0.49173331 -0.67034 4.5125342e-39
3.5658498 -0.48809212 -0.68599427 5.0660541e-39
3.4581828 -0.44736674 -0.65875316 9.6520555e-39
3.5318732 -0.46981782 -0.6661123 5.0660793e-39
3.5658364 -0.47480404 -0.68599427 5.0675128e-39
3.4273744 -0.42759934 -0.6386537 1.5938634e-38
3.42645 -0.40039539 -0.6419338 1.3444338e-38
3.5049047 -0.82497883 -0.62576181 6.1792596e-39
3.5403125 -0.81605667 -0.63651884 4.1444649e-39
3.5042913 -0.78377217 -0.62785381 4.6994576e-39
3.5042717 -0.76425296 -0.62785375 4.8838502e-39
3.4686594 -0.73073256 -0.62147957 5.0664436e-39
3.4686272 -0.69853073 -0.62147963 4.9735235e-39
3.4340041 -0.66606075 -0.61528248 5.0653646e-39
3.4032645 -0.63199663 -0.59487921 4.8827544e-39
3.4334199 -0.64268214 -0.61733252 4.6969549e-39
3.4043577 -0.6151638 -0.59082037 4.1455874e-39
3.433953 -0.61505157 -0.61528248 3.6856658e-39
3.4339213 -0.58317083 -0.6152826 3.4083614e-39
3.4009521 -0.539424 -0.60299712 4.1426713e-39
3.4338894 -0.55129015 -0.61528248 3.5927499e-39
3.4667931 -0.56328481 -0.62769186 3.4080293e-39
3.4344265 -0.52791041 -0.61323231 3.6834826e-39
3.4678786 -0.51605439 -0.62355042 3.775681e-39
3.5048599 -0.49423563 -0.62471575 3.8675249e-39
3.5370955 -0.48953554 -0.64708793 4.6958478e-39
3.4041936 -0.45105377 -0.59082037 6.8998984e-39
3.4354758 -0.45564631 -0.60913217 6.2563128e-39
3.5022562 -0.46495938 -0.63412976 5.1478339e-39
3.5353415 -0.46981433 -0.65342939 5.2529635e-39
3.4015093 -0.43085825 -0.60056174 1.4836212e-38
3.4320991 -0.44289738 -0.62143284 1.2148928e-38
3.3999901 -0.41003045 -0.60604125 1.3161638e-38
3.5094988 -0.84232479 -0.60902584 1.1981889e-38
3.4772568 -0.83376992 -0.59041834 1.1980447e-38
3.5111954 -0.82280385 -0.60274988 4.4268238e-39
3.5478227 -0.81166631 -0.60903919 4.3295793e-39
3.5111563 -0.78376532 -0.60274988 4.6976667e-39
3.4754808 -0.75648725 -0.59663057 4.6076235e-39
3.4754548 -0.73072577 -0.59663057 4.6991045e-39
3.4424455 -0.69793302 -0.58453083 4.5139915e-39
3.4424205 -0.67242849 -0.58453101 4.8820482e-39
3.4093716 -0.63409454 -0.57255524 4.5154195e-39
3.4110115 -0.60884523 -0.56646693 3.7782328e-39
3.4412391 -0.61291891 -0.58863109 3.9618982e-39
3.4423385 -0.59081382 -0.58453089 3.3165217e-39
3.4758708 -0.58045006 -0.59455985 3.2236086e-39
3.4422925 -0.5449056 -0.58453083 3.6838497e-39
3.4752874 -0.56327629 -0.59663057 3.4079915e-39
3.4422739 -0.52577716 -0.58453101 3.4991081e-39
3.4752359 -0.51175338 -0.59663057 3.8660914e-39
3.4455991 -0.48751694 -0.57223034 3.5884213e-39
3.4769089 -0.48599023 -0.59041834 3.8653459e-39
3.5103004 -0.49965224 -0.60484195 3.5916429e-39
3.4091949 -0.45736068 -0.57255524 5.887215e-39
3.4422162 -0.46839187 -0.58453089 5.1532471e-39
3.4734983 -0.47311291 -0.60284287 4.4232154e-39
3.3771191 -0.43408996 -0.56086802 9.8501445e-39
3.4086168 -0.43421754 -0.57458466 1.0495873e-38
3.4074857 -0.41317889 -0.57864362 1.1784103e-38
3.5942764 -0.87341803 -0.58345479 1.4758166e-38
3.4806676 -0.8466472 -0.57799381 1.5863427e-38
3.5197964 -0.84231448 -0.57136995 9.1166586e-39
3.4806547 -0.83376652 -0.57799381 1.1236792e-38
3.5180607 -0.822797 -0.57764596 4.1491411e-39
3.4874115 -0.7951175 -0.55314475 3.9629631e-39
3.5176873 -0.79286778 -0.57890117 4.1466453e-39
3.4846594 -0.76163036 -0.5630843 4.6969268e-39
3.4525692 -0.72980362 -0.547629 4.3317387e-39
3.4819129 -0.73329544 -0.57302392 4.6990904e-39
3.4508617 -0.7043007 -0.55377936 4.6065333e-39
3.45083 -0.67242008 -0.55377948 4.4225064e-39
3.4160316 -0.63408786 -0.5482018 4.7902057e-39
3.3871915 -0.61531669 -0.52469885 4.1463048e-39
3.4160063 -0.60884029 -0.5482018 3.9619024e-39
3.3871727 -0.59656811 -0.52469885 3.59311e-39
3.4176524 -0.58990282 -0.54211342 3.2228772e-39
3.4504015 -0.58060396 -0.55500937 3.2239632e-39
3.480397 -0.57615197 -0.57799381 3.7757118e-39
3.4507086 -0.55127335 -0.55377936 3.4087118e-39
3.4803841 -0.56327122 -0.57799381 3.8678724e-39
3.4503429 -0.52194345 -0.55500937 2.9473651e-39
3.4803326 -0.51174831 -0.57799381 3.6806239e-39
3.3859653 -0.48824385 -0.52871764 2.7633325e-39
3.4158926 -0.49522555 -0.5482018 3.222873e-39
3.3844025 -0.46408048 -0.5343439 7.9151475e-39
3.4142089 -0.47629145 -0.55429012 3.8664627e-39
3.354197 -0.44225234 -0.51961517 1.1415684e-38
3.3837216 -0.44241607 -0.53675526 1.1324912e-38
3.4158359 -0.43841827 -0.5482018 1.150896e-38
3.5995343 -0.87341273 -0.56422865 1.3837266e-38
3.6391039 -0.89600438 -0.56367391 1.7146254e-38
3.5249453 -0.84230936 -0.55254203 7.551781e-39
3.4925272 -0.81443352 -0.53450793 4.0558945e-39
3.5232096 -0.82279181 -0.55881804 4.5143517e-39
3.4925015 -0.78867203 -0.53450793 4.0523001e-39
3.5231769 -0.79025972 -0.55881804 4.1455383e-39
3.459316 -0.74892539 -0.52302778 4.5139831e-39
3.4919116 -0.76505798 -0.53657871 4.3277954e-39
3.4576149 -0.72979856 -0.52917808 4.7880547e-39
3.4244132 -0.69088686 -0.51775992 3.9633429e-39
3.4570305 -0.70642 -0.53122813 4.3306709e-39
3.4243879 -0.66563916 -0.51775992 4.4207001e-39
3.457221 -0.67241371 -0.53040814 3.9622415e-39
3.4243627 -0.64039147 -0.51775986 4.4224909e-39
3.3921371 -0.61531174 -0.50661427 4.6058116e-39
3.3608758 -0.59078151 -0.49573606 4.2341466e-39
3.3904698 -0.59656483 -0.5126425 3.1321249e-39
3.4243124 -0.58989614 -0.51775986 3.3161546e-39
3.4574618 -0.57677114 -0.52917808 2.8566226e-39
3.4568734 -0.54914182 -0.53122813 3.132478e-39
3.4939749 -0.56325763 -0.5282957 3.039918e-39
3.4259017 -0.51415128 -0.51167154 2.5789483e-39
3.4568522 -0.527888 -0.53122813 2.9466532e-39
3.3914604 -0.48823836 -0.50862372 5.8868282e-39
3.4275539 -0.50152576 -0.50558317 5.1442465e-39
3.3919871 -0.46532282 -0.50661427 1.1692269e-38
3.3914146 -0.44240838 -0.50862372 1.1968497e-38
3.4274907 -0.43840662 -0.50558317 1.0681371e-38
3.6814823 -0.90555102 -0.55659187 1.6778202e-38
3.5739014 -0.87738335 -0.51391727 1.4477603e-38
3.6065512 -0.88004977 -0.53859377 1.4199235e-38
3.5358198 -0.84663612 -0.51279426 8.0144982e-39
3.5686791 -0.8576656 -0.53294164 9.2109198e-39
3.4993229 -0.81442672 -0.50965893 4.5139887e-39
3.4992971 -0.78866524 -0.50965893 4.1434196e-39
3.4626799 -0.74892205 -0.51072711 4.418919e-39
3.4998398 -0.76505005 -0.50758821 4.32888e-39
3.4660249 -0.72979015 -0.49842662 4.3296031e-39
3.4327381 -0.69087857 -0.48731807 4.7869925e-39
3.4651611 -0.70747453 -0.50150168 4.4203652e-39
3.4327254 -0.67825472 -0.48731807 4.4196421e-39
3.4646215 -0.67240632 -0.50334674 4.1441188e-39
3.4003985 -0.63405216 -0.4764733 4.3310198e-39
3.4327002 -0.65300703 -0.48731807 3.8679145e-39
3.3680789 -0.61057913 -0.46946904 4.4221574e-39
3.3970764 -0.60905725 -0.48852971 4.3306933e-39
3.364141 -0.59077823 -0.48379648 3.8700514e-39
3.4025548 -0.59238636 -0.46843576 3.6856574e-39
3.4326372 -0.58988786 -0.48731807 3.4090663e-39
3.4658718 -0.57676274 -0.49842662 3.2225142e-39
3.4325867 -0.53939241 -0.48731807 3.131406e-39
3.4658477 -0.55338359 -0.4984265 3.1303354e-39
3.4973726 -0.56325424 -0.51587117 3.1317844e-39
3.4024839 -0.52155828 -0.46843576 3.405102e-39
3.4320149 -0.52256113 -0.48934746 2.577512e-39
3.4624629 -0.53213316 -0.51072711 2.4871282e-39
3.3705723 -0.49174795 -0.45991734 1.0307914e-38
3.4002547 -0.49031276 -0.47647333 1.1506816e-38
3.4308774 -0.49521056 -0.49340644 9.2001326e-39
3.3705475 -0.46699199 -0.45991734 1.224616e-38
3.4013267 -0.46323028 -0.47245449 1.2613138e-38
3.430846 -0.463651 -0.49340639 1.2243644e-38
3.3705227 -0.44223601 -0.45991734 1.1695137e-38
3.4002109 -0.44656596 -0.47647333 1.2429828e-38
3.4657376 -0.44286373 -0.49842653 1.0038468e-38
3.6497433 -0.90942127 -0.52481806 1.6961859e-38
3.4762626 -0.87643147 -0.46152464 1.6775294e-38
3.5112727 -0.87237811 -0.46617308 1.466596e-38
3.5421407 -0.87482429 -0.48978227 1.4935702e-38
3.577383 -0.89052844 -0.50123429 1.6593451e-38
3.5078523 -0.84984022 -0.47859761 1.022254e-38
3.5403919 -0.84229386 -0.49605829 6.823515e-39
3.5082467 -0.81924814 -0.47704455 4.3331904e-39
3.5069451 -0.79187775 -0.48170373 3.7771356e-39
3.4744787 -0.77441484 -0.46767494 3.7793048e-39
3.5077655 -0.76289535 -0.47859761 4.0544315e-39
3.4744341 -0.72978175 -0.46767494 3.9629631e-39
3.4388473 -0.6950804 -0.46499401 4.3292345e-39
3.4760966 -0.71065164 -0.46152464 4.6058074e-39
3.4403768 -0.67067271 -0.45931157 3.9608164e-39
3.4069927 -0.63404554 -0.45236054 4.1433999e-39
3.4418545 -0.6498419 -0.45383206 3.7764083e-39
3.3755813 -0.60314482 -0.44200796 4.4221532e-39
3.4086285 -0.62154484 -0.44633237 4.4217889e-39
3.4085972 -0.59029716 -0.44633237 3.7778488e-39
3.4409497 -0.57725567 -0.45687625 3.2246568e-39
3.4742811 -0.57675433 -0.46767494 3.1306731e-39
3.4425955 -0.5583182 -0.4507879 2.9462931e-39
3.4725797 -0.55762762 -0.47382525 3.039223e-39
3.3483129 -0.51159412 -0.42007515 7.6310356e-39
3.3760428 -0.52062446 -0.440018 4.5031847e-39
3.4068925 -0.53405291 -0.45236054 2.3012796e-39
3.3754699 -0.49174306 -0.44200796 1.160187e-38
3.3461039 -0.45846722 -0.42795941 1.2613827e-38
3.3738124 -0.46698871 -0.44797775 1.233799e-38
3.4068177 -0.45905846 -0.45236054 1.2246885e-38
3.3737876 -0.44223273 -0.44797775 1.086612e-38
3.5158074 -0.8766672 -0.44960707 1.4845301e-38
3.5507286 -0.88132215 -0.4584024 1.3545586e-38
3.51635 -0.8530519 -0.44753632 9.943073e-39
3.4829264 -0.81266332 -0.43692335 3.5931395e-39
3.5159779 -0.82085049 -0.44877872 4.7923735e-39
3.4829009 -0.78715873 -0.43692335 4.1448461e-39
3.5145931 -0.79509032 -0.45374858 3.9633303e-39
3.4811938 -0.76165581 -0.44307375 4.0522889e-39
3.4811618 -0.72977501 -0.44307366 3.9622429e-39
3.4510529 -0.69086021 -0.42034605 4.422533e-39
3.4811363 -0.70427042 -0.44307366 4.05517e-39
3.4493692 -0.67192614 -0.4264344 3.9600919e-39
3.479435 -0.68514377 -0.449224 4.0537238e-39
3.4152415 -0.64028686 -0.42221957 3.6831463e-39
3.3837502 -0.60932565 -0.41215903 4.4221602e-39
3.3869905 -0.58456641 -0.40021947 3.7789264e-39
3.4151852 -0.584041 -0.42221957 3.5016249e-39
3.386972 -0.56599945 -0.40021947 3.0413474e-39
3.4157014 -0.55070961 -0.42021018 2.4860478e-39
3.4475968 -0.56462508 -0.43252277 2.856247e-39
3.3537073 -0.51567554 -0.4003647 9.1151368e-39
3.3820372 -0.5288704 -0.41812879 3.3096918e-39
3.3547628 -0.49319679 -0.39642254 1.2520218e-38
3.3826976 -0.48996755 -0.41557026 1.2703892e-38
3.3531151 -0.46254706 -0.4023357 1.2704617e-38
3.5231647 -0.87236619 -0.42268723 1.2532177e-38
3.4930499 -0.84453386 -0.40002146 9.2991441e-39
3.5231454 -0.85304511 -0.42268729 9.4788747e-39
3.4896605 -0.81903273 -0.4123221 4.608334e-39
3.5214081 -0.81440467 -0.42889953 3.3176204e-39
3.4903066 -0.79225224 -0.40986195 3.5019892e-39
3.5213759 -0.78220278 -0.42889953 3.958664e-39
3.4900224 -0.76005292 -0.4107846 3.8689696e-39
3.4895716 -0.72976661 -0.41232222 3.8704088e-39
3.4577129 -0.6908536 -0.39599252 4.4203526e-39
3.4895489 -0.70745015 -0.4123221 3.8704214e-39
3.4251578 -0.66527504 -0.38605037 4.1452048e-39
3.4543641 -0.67192113 -0.4081693 3.6860091e-39
3.3903115 -0.64026403 -0.38827983 3.5920184e-39
3.4234827 -0.63902873 -0.39207852 3.5923645e-39
3.3913667 -0.60725498 -0.38430002 4.4214316e-39
3.4267623 -0.62152666 -0.38002217 4.5107321e-39
3.3918881 -0.58456153 -0.38231006 3.8700388e-39
3.3918571 -0.55361658 -0.38231006 3.2207164e-39
3.4200995 -0.55278838 -0.40413505 2.4864023e-39
3.3612554 -0.5177114 -0.37276986 1.2429107e-38
3.3612309 -0.49319035 -0.37276986 1.2520218e-38
3.3595955 -0.47480112 -0.378683 1.2704241e-38
3.5299602 -0.8723594 -0.39783818 1.2805889e-38
3.498436 -0.84835416 -0.38034043 1.0685684e-38
3.4975071 -0.81689948 -0.38362056 4.1459069e-39
3.5316205 -0.83371556 -0.39162594 5.2518943e-39
3.4980447 -0.79351974 -0.38157052 3.5941764e-39
3.498013 -0.761639 -0.38157064 4.2359613e-39
3.4677534 -0.74133903 -0.35946232 3.9608135e-39
3.4979811 -0.7297582 -0.38157052 3.5941708e-39
3.4627078 -0.69084859 -0.37772745 3.9622429e-39
3.4979618 -0.71062976 -0.38157052 3.593117e-39
3.4317517 -0.66526842 -0.36193758 3.7793006e-39
3.4033718 -0.64025098 -0.34052154 3.5009256e-39
3.4317267 -0.64027035 -0.36193758 3.1339115e-39
3.3992565 -0.60621566 -0.35544601 4.3292275e-39
3.4333565 -0.6215201 -0.35590944 3.7767782e-39
3.4000509 -0.58455336 -0.35246113 3.7785593e-39
3.4000196 -0.55360842 -0.35246107 5.1546638e-39
3.3693409 -0.51770335 -0.34320414 1.3442538e-38
3.3693223 -0.49931249 -0.34320414 1.2706403e-38
3.4006038 -0.48429111 -0.35007319 1.196776e-38
3.5418522 -0.87234753 -0.35435236 8.5728245e-39
3.5042646 -0.8466481 -0.35901928 8.6577614e-39
3.5401406 -0.85946846 -0.36056465 7.2690382e-39
3.5071514 -0.81774002 -0.34835878 3.6856462e-39
3.5384159 -0.83370876 -0.36677688 4.6043753e-39
3.5064545 -0.79351133 -0.35081905 3.5938247e-39
3.506429 -0.76800674 -0.35081905 3.7771341e-39
3.473299 -0.73712558 -0.33916765 3.7771285e-39
3.5047088 -0.72975147 -0.35696924 3.2254163e-39
3.4433351 -0.70900369 -0.31974024 3.7767586e-39
3.4743752 -0.70346069 -0.33510873 3.3161686e-39
3.5046833 -0.70424694 -0.35696924 3.5001997e-39
3.4399943 -0.6652602 -0.33179665 4.3281625e-39
3.4098897 -0.62786651 -0.3166424 3.4101481e-39
3.4399693 -0.64026213 -0.33179665 3.2261296e-39
3.4082384 -0.60930115 -0.3226122 4.1451936e-39
3.4366534 -0.62151676 -0.34385303 4.4196099e-39
3.4082136 -0.5845452 -0.3226122 3.777144e-39
3.4081826 -0.55360025 -0.3226122 5.1535862e-39
3.3466692 -0.51273519 -0.30477786 4.599339e-39
3.3752682 -0.51565403 -0.32152262 1.2155009e-38
3.3482463 -0.48844731 -0.29892132 2.3924341e-39
3.3757846 -0.49317575 -0.31955153 1.1232361e-38
3.348228 -0.47023264 -0.29892132 2.9473875e-39
3.3765655 -0.46558872 -0.3165949 6.2581401e-39
3.4064574 -0.46076706 -0.32858196 9.5652661e-39
3.3773465 -0.43800169 -0.31363836 8.2689782e-40
3.5469489 -0.87234241 -0.33571556 5.6121583e-39
3.5143518 -0.8423872 -0.32211739 3.5927555e-39
3.5452306 -0.85302305 -0.34192786 3.7753475e-39
3.5148895 -0.81900752 -0.32006735 3.7782202e-39
3.481111 -0.77919716 -0.31075531 4.0501113e-39
3.5143051 -0.79562885 -0.32211739 3.8686011e-39
3.5148385 -0.76799834 -0.32006735 4.0533763e-39
3.4794018 -0.73501545 -0.31684372 4.3277954e-39
3.4499292 -0.70899707 -0.2956275 4.5107728e-39
3.4793704 -0.70345575 -0.31684372 3.7732035e-39
3.4164572 -0.66499382 -0.29276326 4.2356194e-39
3.447422 -0.67462713 -0.3046698 4.1427021e-39
3.4151237 -0.63776368 -0.29753909 3.959736e-39
3.4147687 -0.60929459 -0.29873303 3.868255e-39
3.3817978 -0.57695025 -0.29787007 3.4105096e-39
3.4163828 -0.59072602 -0.29276326 4.238485e-39
3.3845792 -0.55569583 -0.28762051 3.0402712e-39
3.4141607 -0.54534227 -0.30072302 3.7774943e-39
3.3849764 -0.52177459 -0.28604364 3.2250338e-39
3.3854871 -0.49316606 -0.28407264 3.3165231e-39
3.3838389 -0.46251631 -0.28998575 3.3165147e-39
3.3821976 -0.43799683 -0.29589894 3.6827889e-39
3.5199926 -0.87638772 -0.3016164 1.39338e-38
3.5554497 -0.87877434 -0.30465427 1.0603271e-38
3.4861815 -0.85493535 -0.29249024 6.8232866e-39
3.5222008 -0.84237939 -0.2934159 3.5016319e-39
3.5537314 -0.85945487 -0.3108665 2.7651388e-39
3.5216172 -0.81900078 -0.2954661 3.135013e-39
3.489779 -0.78928757 -0.2790958 4.0522903e-39
3.5199096 -0.79349786 -0.3016164 3.868957e-39
3.4894168 -0.76025313 -0.28031346 3.7782356e-39
3.5198841 -0.76799327 -0.3016164 4.0533833e-39
3.4855089 -0.73711336 -0.29451966 4.1451922e-39
3.523216 -0.7361092 -0.28931576 3.5945548e-39
3.4565108 -0.69649148 -0.27151468 3.5956296e-39
3.4877017 -0.70975935 -0.28640184 3.5002053e-39
3.423645 -0.66993785 -0.26649618 3.9600877e-39
3.4532013 -0.68399566 -0.28357109 3.3136449e-39
3.4229622 -0.64023137 -0.268884 3.9601031e-39
3.4229314 -0.60928643 -0.26888409 3.7764209e-39
3.4229066 -0.58453047 -0.26888409 3.5012745e-39
3.3920166 -0.55446231 -0.26042002 3.5916667e-39
3.3604438 -0.51393574 -0.25441182 3.6838595e-39
3.3919983 -0.53607148 -0.26042002 4.1423153e-39
3.3919554 -0.49315959 -0.26042002 3.5012605e-39
3.391937 -0.47476879 -0.26042002 3.593075e-39
3.4235992 -0.46074992 -0.26589921 4.1444607e-39
3.4562733 -0.45900899 -0.27151468 5.5248602e-39
3.4194992 -0.44218701 -0.28082368 4.0512141e-39
3.4313231 -0.83827084 -0.23903517 9.6031754e-39
3.4599578 -0.84647703 -0.25945836 8.4049658e-39
3.528708 -0.84577334 -0.26963475 4.3346351e-39
3.4036119 -0.83031327 -0.21902794 1.1817981e-38
3.4296782 -0.82589447 -0.24500497 3.3154259e-39
3.4632423 -0.83397472 -0.24740195 2.94271e-39
3.5307007 -0.8202669 -0.26225436 3.5934576e-39
3.4955449 -0.7833907 -0.25798941 3.6863945e-39
3.5333714 -0.79986054 -0.25241387 4.1469999e-39
3.4955239 -0.76235098 -0.25798944 3.8697193e-39
3.5308008 -0.752042 -0.26163936 3.9604352e-39
3.4960454 -0.72868687 -0.25595999 3.7757048e-39
3.5265799 -0.7361058 -0.27701512 3.5934758e-39
3.465307 -0.70064896 -0.23936436 3.9611555e-39
3.4954734 -0.71185553 -0.25798941 3.7771341e-39
3.4311559 -0.67116815 -0.23903517 3.7760594e-39
3.4034219 -0.64027476 -0.21902794 4.1448489e-39
3.4311252 -0.64022326 -0.23903517 4.2348837e-39
3.4033973 -0.61575371 -0.21902794 4.3292107e-39
3.4310942 -0.60927832 -0.23903517 4.1437461e-39
3.4012027 -0.57693088 -0.2269122 3.5016319e-39
3.4294369 -0.58452398 -0.24500497 3.22684e-39
3.3675258 -0.54914367 -0.22864315 3.8653851e-39
3.4001019 -0.55445427 -0.23085424 3.3172392e-39
3.3690972 -0.51878428 -0.22278664 3.866083e-39
3.4000709 -0.52380288 -0.23085418 3.6842211e-39
3.3674712 -0.49449968 -0.22864315 3.7749776e-39
3.4000394 -0.49192542 -0.23085424 3.3154399e-39
3.4004753 -0.4660027 -0.22916473 3.5913108e-39
3.4309394 -0.45455357 -0.23903517 4.0522637e-39
3.5367734 -0.83811402 -0.24011324 3.9604814e-39
3.406846 -0.83031005 -0.20720167 1.4211467e-38
3.4714849 -0.83396649 -0.21726102 4.9682098e-39
3.5055728 -0.82125235 -0.2214592 3.3172574e-39
3.5378733 -0.81685913 -0.23601297 3.8682354e-39
3.5077634 -0.79179448 -0.21334139 4.1462796e-39
3.5384109 -0.79347938 -0.23396292 4.1448405e-39
3.4730587 -0.75897038 -0.21123281 4.0523001e-39
3.5037346 -0.75897646 -0.22795349 4.0533651e-39
3.4719262 -0.72564059 -0.21525161 3.8700514e-39
3.5021586 -0.73709667 -0.23363593 3.9615184e-39
3.4415183 -0.6938507 -0.20122649 3.5005403e-39
3.4708064 -0.70480984 -0.21927041 3.5938065e-39
3.4099085 -0.65865916 -0.19537531 3.9622513e-39
3.4386673 -0.67239845 -0.21157412 3.8696955e-39
3.408273 -0.64026994 -0.20128846 3.9622583e-39
3.4085684 -0.61207038 -0.20010583 4.0522931e-39
3.4376183 -0.60308278 -0.21515603 3.9618982e-39
3.4082117 -0.57896727 -0.20128852 3.4094278e-39
3.4359734 -0.59070641 -0.22112581 3.7775041e-39
3.4081872 -0.55444616 -0.20128846 3.4094152e-39
3.3739018 -0.51877952 -0.20521706 3.0410195e-39
3.4084799 -0.52379447 -0.20010588 3.4087244e-39
3.3738654 -0.48235014 -0.20521706 3.1328465e-39
3.4086671 -0.4951863 -0.19931753 3.3168777e-39
3.4072897 -0.46555799 -0.20424508 3.5916653e-39
3.4423797 -0.46692017 -0.19724661 3.5002011e-39
3.5826249 -0.87230676 -0.20525809 1.4856128e-38
3.5451832 -0.83810562 -0.20936172 2.4885617e-39
3.5468459 -0.81897557 -0.20321134 4.146267e-39
3.5121949 -0.78337407 -0.19710566 3.8715018e-39
3.4796526 -0.75896376 -0.18712001 3.8707801e-39
3.4480855 -0.73097819 -0.17734735 3.8696997e-39
3.4771581 -0.73709285 -0.19616225 4.1444873e-39
3.4475126 -0.70209682 -0.17933719 3.777137e-39
3.4163771 -0.65865266 -0.17172275 4.5121951e-39
3.4474878 -0.67734081 -0.17933725 4.327794e-39
3.4163582 -0.64026183 -0.17172264 4.1448419e-39
3.4490709 -0.62782729 -0.17336747 4.3292373e-39
3.4158621 -0.60610807 -0.17341214 4.1437643e-39
3.416297 -0.57895917 -0.17172264 3.1350031e-39
3.4162724 -0.55443805 -0.17172264 2.6729362e-39
3.4473517 -0.54118311 -0.17933725 3.2228814e-39
3.4167004 -0.52028322 -0.17003313 3.5913136e-39
3.4162111 -0.49313536 -0.17172264 3.2246918e-39
3.4456573 -0.47929487 -0.18530704 3.7753363e-39
3.418345 -0.4706555 -0.16383855 3.2253869e-39
3.4472775 -0.46691525 -0.17933725 2.9505909e-39
3.6193671 -0.86824065 -0.20736326 6.4541481e-39
3.5871339 -0.85083437 -0.188692 4.0587699e-39
3.5513287 -0.81684566 -0.18681043 3.9633191e-39
3.5893819 -0.8336578 -0.18040901 3.8700571e-39
3.5542221 -0.79473883 -0.17614992 4.0555119e-39
3.4524598 -0.75160378 -0.16142789 4.3292331e-39
3.4895439 -0.75895387 -0.1509508 3.5037759e-39
3.4524412 -0.73303682 -0.16142789 3.9622611e-39
3.4886916 -0.73083174 -0.15396491 4.0540952e-39
3.487839 -0.70270962 -0.15697901 3.8675529e-39
3.4562988 -0.67238081 -0.14710039 4.1434238e-39
3.4249849 -0.64229667 -0.14018592 4.0526322e-39
3.4539747 -0.63401139 -0.15545811 4.2377494e-39
3.4244127 -0.60960245 -0.14215685 4.0533637e-39
3.4243824 -0.57895112 -0.14215691 3.594196e-39
3.4243579 -0.55443001 -0.14215691 2.8562583e-39
3.3947225 -0.51875871 -0.12908231 3.4976802e-39
3.4240038 -0.52377892 -0.14333956 3.2228996e-39
3.4237597 -0.49517122 -0.14412802 3.3179483e-39
3.4587302 -0.49165979 -0.13754874 3.7760453e-39
3.389863 -0.46411943 -0.14665188 4.3259793e-39
3.5927925 -0.84653509 -0.16798455 3.6802876e-39
3.6330843 -0.85521406 -0.15715545 4.6094396e-39
3.5619769 -0.81258428 -0.14785849 4.0562266e-39
3.5939078 -0.82935965 -0.16384305 3.8696899e-39
3.5310731 -0.79177105 -0.12810419 4.1477159e-39
3.5619578 -0.79345584 -0.14785849 3.8707745e-39
3.495043 -0.76311475 -0.13085681 4.1448349e-39
3.4941344 -0.73395115 -0.1340718 4.0533721e-39
3.5310225 -0.74127573 -0.12810419 4.6040334e-39
3.4944332 -0.702703 -0.13286622 3.5913136e-39
3.4638071 -0.67113549 -0.11963939 4.1423265e-39
3.4637764 -0.6401906 -0.11963944 3.6853169e-39
3.4303384 -0.60550964 -0.12047546 4.1444873e-39
3.4653716 -0.603055 -0.1136696 3.319386e-39
3.4303138 -0.58098859 -0.12047546 3.4104998e-39
3.4653468 -0.57829905 -0.1136696 2.7669325e-39
3.4302893 -0.55646747 -0.12047546 3.2221625e-39
3.4642255 -0.5452922 -0.11764948 3.4976774e-39
3.4330518 -0.51641357 -0.11022591 3.3143721e-39
3.4291537 -0.49925268 -0.12441751 3.3143651e-39
3.4652727 -0.50403118 -0.1136696 3.8678948e-39
3.6365168 -0.85521066 -0.14460352 4.422952e-39
3.567029 -0.81895536 -0.12940754 3.4069447e-39
3.6029663 -0.82720381 -0.13071096 3.1335668e-39
3.5703673 -0.79344743 -0.11710691 4.3303163e-39
3.4994349 -0.75894403 -0.11478167 4.3270625e-39
3.5377078 -0.76651675 -0.10375073 4.1426881e-39
3.502707 -0.73394251 -0.10272527 4.1455593e-39
3.5360112 -0.73495889 -0.10983907 4.1462866e-39
3.4719884 -0.68969429 -0.089790456 4.2331055e-39
3.5020173 -0.70394534 -0.10513655 3.95975e-39
3.4703374 -0.67112893 -0.095760241 3.589157e-39
3.4703066 -0.64018404 -0.095760301 3.6838595e-39
3.4702756 -0.6092391 -0.095760241 3.594182e-39
3.4702508 -0.58448315 -0.095760241 3.2257526e-39
3.5058417 -0.57145125 -0.090668872 3.1306731e-39
3.4685934 -0.55972886 -0.10173003 3.4083348e-39
3.5025196 -0.5464564 -0.10272527 3.4083783e-39
3.5753813 -0.76156163 -0.098656021 4.6054725e-39
3.509295 -0.72768646 -0.078612529 3.3179945e-39
3.5410125 -0.74126577 -0.091573991 4.3306947e-39
3.4752536 -0.68969101 -0.077850878 4.0558931e-39
3.4763215 -0.66905993 -0.073871002 3.1332151e-39
3.4762967 -0.64430404 -0.073871002 3.2228856e-39
3.5114076 -0.6422739 -0.070574872 3.4069223e-39
3.5091825 -0.61519474 -0.078612529 3.5931296e-39
3.5091574 -0.59019661 -0.078612529 3.5009004e-39
3.5441785 -0.57715243 -0.079397261 2.765499e-39
3.5158267 -0.66518438 -0.054499727 7.3619317e-40
3.4866445 -0.65254569 -0.036062375 1.1788443e-38
3.5182774 -0.64330858 -0.045457486 6.62801e-39
3.5517244 -0.63079619 -0.051999565 7.5503194e-39
3.5475461 -0.61502063 -0.067220464 3.6827917e-39
3.5858843 -0.61277425 -0.059703898 3.2214773e-39
3.5847418 -0.59152156 -0.063804112 6.1680842e-39
3.5609229 -0.67181462 -0.018513532 1.5111804e-38
3.4964397 -0.65253592 -0.0002436568 7.2748424e-39
3.5289898 -0.64017314 -0.0062741847 5.3279245e-39
3.559557 -0.63773149 -0.023384213 1.2428021e-38
3.5608535 -0.60238349 -0.018513532 1.1508203e-38
3.5920537 -0.6148935 -0.037152857 1.178588e-38
3.5608408 -0.58975965 -0.018513532 1.1511074e-38
3.5920284 -0.58938891 -0.037152797 1.1047602e-38
3.625653 -0.57922691 -0.04684544 1.0866785e-38
3.5035307 -0.66903269 0.025625514 1.0323015e-38
3.5642591 -0.67812318 -0.0063368557 1.6227842e-38
3.50297 -0.65252936 0.023635548 2.2047708e-39
3.5339353 -0.64016819 0.011810472 2.2065784e-39
3.5675385 -0.62762445 0.0058398782 5.8018283e-39
3.6038463 -0.63401014 0.0058994158 1.5623105e-39
3.5675197 -0.60868871 0.0058398782 4.4120723e-39
3.6013074 -0.61807233 -0.0033260589 5.431601e-39
3.5666587 -0.58028591 0.0027956518 8.2795622e-39
3.6012661 -0.57662737 -0.0033260589 8.2839034e-39
3.6333075 -0.58887982 -0.018890228 1.1230526e-38
3.6671238 -0.56889737 -0.031635977 5.9894747e-39
3.5657916 -0.54557109 -0.00024845987 8.7416249e-39
3.6004059 -0.55749983 -0.0064012744 8.2853509e-39
3.6332817 -0.56311834 -0.018890228 7.2762451e-39
3.5438828 -0.6964041 0.047979556 9.3142992e-39
3.5438578 -0.67140591 0.047979616 2.6704237e-39
3.5111079 -0.62776524 0.053484481 2.0286486e-39
3.5415194 -0.64141047 0.039540194 2.300216e-39
3.5741985 -0.62761778 0.030193403 1.8414043e-39
3.5110893 -0.60919827 0.053484481 2.3012866e-39
3.5421529 -0.61516172 0.041951358 2.6671965e-39
3.5741858 -0.61499399 0.030193403 1.6584339e-39
3.6088665 -0.60850054 0.024350308 1.8388693e-39
3.5110707 -0.59063131 0.053484481 2.117617e-39
3.5741544 -0.58343434 0.030193403 2.7561523e-39
3.6082761 -0.57874572 0.022300318 5.891133e-39
3.5741229 -0.5518747 0.030193403 8.5536772e-39
3.6434748 -0.56310815 0.01838325 8.5622994e-39
3.5144348 -0.68965185 0.065424055 5.7900209e-39
3.5176876 -0.67727059 0.077363685 3.3125603e-39
3.5496275 -0.67140013 0.0690782 2.8515807e-39
3.5176485 -0.63836843 0.077363625 2.6689929e-39
3.4907005 -0.59727561 0.10028228 2.3920613e-39
3.5176196 -0.60919178 0.077363566 2.4846003e-39
3.6139123 -0.60849547 0.042801257 2.8508633e-39
3.4906881 -0.58501506 0.10028228 2.0268423e-39
3.5175948 -0.58443582 0.077363566 1.8413819e-39
3.5175762 -0.56586885 0.077363685 1.6566291e-39
3.5275016 -0.69582778 0.1131824 4.7884218e-39
3.5587194 -0.69638926 0.10223336 3.0338042e-39
3.4956129 -0.65857345 0.11802181 3.2192884e-39
3.5253022 -0.67313695 0.10522265 3.3118386e-39
3.5553973 -0.67139435 0.090176843 3.2207136e-39
3.4950538 -0.63813972 0.11605075 3.2203562e-39
3.5241809 -0.64013016 0.10124283 2.3931151e-39
3.5553722 -0.64639628 0.090176843 2.5796826e-39
3.4950335 -0.61770552 0.11605075 2.7618906e-39
3.5257823 -0.60918361 0.10721262 2.7604557e-39
3.5273964 -0.59061503 0.1131824 2.3913144e-39
3.5586026 -0.57973123 0.10223336 2.2097958e-39
3.5941279 -0.57710248 0.1032538 1.8424524e-39
3.5307665 -0.6958245 0.12512198 4.1452244e-39
3.5004888 -0.68308973 0.13576122 1.4737134e-39
3.5307479 -0.67725754 0.12512198 3.0345553e-39
3.5307233 -0.65250164 0.12512198 3.7699497e-39
3.5323126 -0.60917705 0.13109176 2.8526597e-39
3.5068588 -0.58499891 0.15941383 2.9459231e-39
