# .PCD v0.7 - Point Cloud Data file format
VERSION 0.7
FIELDS x y z rgb
SIZE 4 4 4 4
TYPE F F F F
COUNT 1 1 1 1
WIDTH 939
HEIGHT 1
VIEWPOINT 0 0 0 1 0 0 0
POINTS 939
DATA ascii
6.3552547 -3.483 -1.2745911 4.6097815e-40
6.4662395 -3.448164 -1.2529439 2.7658689e-40
6.4512558 -3.4838223 -1.2469392 3.6878252e-40
6.4225407 -3.491714 -1.2469392 3.6878252e-40
6.3938255 -3.4996057 -1.2469392 3.6878252e-40
6.3718824 -3.5051682 -1.2445999 3.6878252e-40
6.3502817 -3.4800322 -1.2529439 9.219563e-40
6.334516 -3.4494343 -1.2472945 2.7658689e-40
6.338686 -3.4832189 -1.2529439 3.6878252e-40
6.3240271 -3.4570916 -1.2711405 3.6878252e-40
6.3200464 -3.4244373 -1.2713948 3.6878252e-40
6.3160534 -3.3917398 -1.2714187 3.6878252e-40
6.4666896 -3.4725549 -1.2118514 3.6878252e-40
6.465333 -3.4448667 -1.2352325 6.4536941e-40
6.44976 -3.4783788 -1.2176993 3.6878252e-40
6.4210448 -3.4862704 -1.2176993 5.5317378e-40
6.3923297 -3.4941621 -1.2176993 3.6878252e-40
6.3693576 -3.5004754 -1.2176993 4.6097815e-40
6.3487716 -3.4745369 -1.2234248 4.6097815e-40
6.333601 -3.4461045 -1.2294102 2.7658689e-40
6.3178906 -3.4165933 -1.229261 2.7658689e-40
6.4699678 -3.4665022 -1.1861204 5.5317378e-40
6.4482636 -3.4729352 -1.1884596 6.4536941e-40
6.4210591 -3.4807043 -1.1899216 5.5317378e-40
6.3908334 -3.4887185 -1.1884596 3.6878252e-40
6.3678613 -3.4950318 -1.1884596 2.7658689e-40
6.3472614 -3.4690409 -1.1939058 1.8439126e-40
6.335979 -3.4394827 -1.199603 2.7658689e-40
6.3281727 -3.4077411 -1.1991656 2.7658689e-40
6.3203669 -3.4437733 -1.1996028 1.8439126e-40
6.3163505 -3.4109902 -1.1991656 2.7658689e-40
6.3013196 -3.3848381 -1.2167279 2.7658689e-40
6.4772992 -3.4886425 -1.1485062 3.6878252e-40
6.4642959 -3.4638453 -1.1650678 6.4536941e-40
6.4515462 -3.4951398 -1.1456091 4.6097815e-40
6.4528098 -3.4670019 -1.1650678 5.5317378e-40
6.4260898 -3.5027161 -1.1485062 4.6097815e-40
6.4046454 -3.5093055 -1.1519824 4.6097815e-40
6.3835945 -3.484853 -1.1592199 3.6878252e-40
6.3683381 -3.4549735 -1.1525792 3.6878252e-40
6.3721085 -3.4880097 -1.1592199 3.6878252e-40
6.3579507 -3.4625566 -1.1761944 1.8439126e-40
6.3539691 -3.42857 -1.1697956 2.7658689e-40
6.333468 -3.4038754 -1.1871274 2.7658689e-40
6.3352604 -3.3682096 -1.1802673 3.6878252e-40
6.3202276 -3.3410263 -1.1979507 3.6878252e-40
6.3120246 -3.3072815 -1.1975142 2.7658689e-40
6.3123221 -3.3781641 -1.1984975 1.8439126e-40
6.4761133 -3.4843278 -1.1253304 8.2976067e-40
6.4533534 -3.4905829 -1.1253304 5.5317378e-40
6.4249039 -3.4984014 -1.1253306 1.0141519e-39
6.3987894 -3.5058103 -1.1264893 5.5317378e-40
6.3820982 -3.4794095 -1.12998 1.2907388e-39
6.367734 -3.452775 -1.1407715 1.1063476e-39
6.3700137 -3.4803886 -1.1182841 3.6878252e-40
6.3518338 -3.4208012 -1.1280653 4.6097815e-40
6.3454127 -3.3933611 -1.1510128 2.7658689e-40
6.3343277 -3.3648157 -1.162037 3.6878252e-40
6.3183441 -3.334172 -1.1611334 4.6097815e-40
6.4746313 -3.4789343 -1.0963609 6.4536941e-40
6.4552073 -3.4846039 -1.0980163 5.5317378e-40
6.4380326 -3.4581823 -1.1007402 1.2907388e-39
6.4234219 -3.4930081 -1.0963609 4.6097815e-40
6.3935156 -3.5018899 -1.0996717 3.6878252e-40
6.3716192 -3.5049243 -1.0847731 4.6097815e-40
6.3694153 -3.4782112 -1.1065881 4.6097815e-40
6.3482261 -3.449861 -1.0994449 2.7658689e-40
6.3395147 -3.4217994 -1.1161425 3.6878252e-40
6.3211489 -3.3635705 -1.1377299 3.6878252e-40
6.4503894 -3.4797962 -1.0673913 9.219563e-40
6.4219394 -3.4876146 -1.0673914 3.6878252e-40
6.4020181 -3.5239322 -1.0631742 2.7658689e-40
6.3821096 -3.4985609 -1.0673913 2.7658689e-40
6.3668375 -3.5023711 -1.0654601 2.7658689e-40
6.3484769 -3.4769399 -1.0715004 2.7658689e-40
6.4489808 -3.4746723 -1.0398701 3.6878252e-40
6.4462271 -3.4430499 -1.0364126 2.7658689e-40
6.4165792 -3.5107358 -1.0172553 7.3756504e-40
6.4217138 -3.4823399 -1.0407394 4.6097815e-40
6.4002562 -3.5175207 -1.028735 3.6878252e-40
6.3809237 -3.4942462 -1.0442157 3.6878252e-40
6.3827581 -3.5200305 -1.0172553 1.8439126e-40
6.3635578 -3.4978588 -1.0384218 2.7658689e-40
6.343451 -3.4736371 -1.0481086 2.7658689e-40
6.3458948 -3.5003922 -1.026834 1.8439126e-40
6.3277373 -3.4763944 -1.0403112 1.8439126e-40
6.4571152 -3.4377155 -1.0247167 4.6097815e-40
6.4544587 -3.4052978 -1.0226953 3.6878252e-40
6.4363413 -3.4732153 -1.0152462 5.5317378e-40
6.4392877 -3.4402733 -1.0130208 2.7658689e-40
6.4422588 -3.4062865 -1.0108877 1.1063476e-39
6.4156981 -3.50753 -1.0000358 2.7658689e-40
6.424665 -3.4752641 -1.0094522 3.6878252e-40
6.3987875 -3.5121775 -1.0000358 2.7658689e-40
6.3732748 -3.5186143 -0.9971658 1.8439126e-40
6.3623719 -3.4935439 -1.0152462 1.8439126e-40
6.3477621 -3.5250511 -0.9942959 2.7658689e-40
6.331409 -3.5011253 -1.0106111 1.8439126e-40
6.3065991 -3.4743974 -1.0013249 2.7658689e-40
6.4394054 -3.3728607 -1.0088362 1.2907388e-39
6.4320483 -3.4364078 -0.98378098 4.6097815e-40
6.4407482 -3.4007909 -0.98136866 1.3829344e-39
6.4142299 -3.5021868 -0.97133642 2.7658689e-40
6.4231825 -3.4698703 -0.98048276 2.7658689e-40
6.3973193 -3.5068343 -0.97133636 1.8439126e-40
6.3773665 -3.481302 -0.97468877 2.7658689e-40
6.3695755 -3.5161829 -0.9799462 2.7658689e-40
6.3583012 -3.4861546 -0.97275752 1.8439126e-40
6.3321433 -3.4948907 -0.98048264 2.7658689e-40
6.3057017 -3.4711311 -0.98378098 1.8439126e-40
6.4350271 -3.4292662 -0.95220196 3.6878252e-40
6.4157143 -3.4649627 -0.94571912 2.7658689e-40
6.3961444 -3.5025599 -0.94837695 2.7658689e-40
6.385469 -3.4726119 -0.94240838 1.8439126e-40
6.3588147 -3.4806001 -0.94571918 3.6878252e-40
6.3303647 -3.4884188 -0.94571918 2.7658689e-40
6.3034163 -3.4942777 -0.937994 1.8439126e-40
6.2987618 -3.4683547 -0.9603892 2.7658689e-40
6.2842522 -3.4987712 -0.93413138 2.7658689e-40
6.4290562 -3.4255207 -0.92530137 6.4536941e-40
6.4322319 -3.3924921 -0.9282344 5.5317378e-40
6.4142318 -3.4595692 -0.91674966 2.7658689e-40
6.3857822 -3.4673882 -0.9167496 2.7658689e-40
6.3573322 -3.4752066 -0.91674966 2.7658689e-40
6.3288827 -3.4830256 -0.9167496 2.7658689e-40
6.3061228 -3.4892802 -0.91674966 2.7658689e-40
6.2854805 -3.4649789 -0.92530137 3.6878252e-40
6.2719831 -3.4986627 -0.91674966 1.8439126e-40
6.4269619 -3.4178994 -0.88436568 6.4536941e-40
6.4307218 -3.3869965 -0.89871538 5.5317378e-40
6.4101186 -3.4872265 -0.89097828 2.7658689e-40
6.4148436 -3.4543734 -0.89164275 1.6595213e-39
6.3948908 -3.4906452 -0.88715172 1.8439126e-40
6.3773532 -3.4634395 -0.88546252 1.8439126e-40
6.3558502 -3.4698133 -0.88778001 1.8439126e-40
6.3424759 -3.5058162 -0.89097828 2.7658689e-40
6.3274002 -3.477632 -0.88778001 1.8439126e-40
6.2979312 -3.4861948 -0.89009768 1.8439126e-40
6.2788873 -3.4903843 -0.88488311 1.8439126e-40
6.2670546 -3.465359 -0.90190959 1.8439126e-40
6.426064 -3.4146333 -0.86682183 6.4536941e-40
6.4125056 -3.4812069 -0.86419225 4.6097815e-40
6.413065 -3.4479015 -0.85687929 4.6097815e-40
6.3976698 -3.4860504 -0.86801887 2.7658689e-40
6.3828177 -3.4566014 -0.85881048 2.7658689e-40
6.3543677 -3.4644198 -0.85881054 2.7658689e-40
6.3294401 -3.5025027 -0.85653913 1.8439126e-40
6.3286147 -3.4709175 -0.85591358 2.7658689e-40
6.3115196 -3.5078876 -0.85883504 1.8439126e-40
6.2917781 -3.481621 -0.85881054 2.7658689e-40
6.2690187 -3.4878762 -0.85881048 1.8439126e-40
6.4245682 -3.4091895 -0.83758199 6.4536941e-40
6.4097853 -3.4433894 -0.8298409 5.5317378e-40
6.3813353 -3.4512081 -0.8298409 1.8439126e-40
6.3568726 -3.4876082 -0.81980395 2.7658689e-40
6.3477883 -3.4627476 -0.84142876 2.7658689e-40
6.332305 -3.4952793 -0.82439584 2.7658689e-40
6.313056 -3.4699726 -0.82984102 2.7658689e-40
6.2959862 -3.4746642 -0.8298409 1.8439126e-40
6.27495 -3.4491374 -0.83173406 1.8439126e-40
6.273819 -3.4830761 -0.84142876 2.7658689e-40
6.2580204 -3.4549611 -0.83758199 1.8439126e-40
6.4256692 -3.4343834 -0.8066653 5.5317378e-40
6.4227729 -3.402657 -0.80249423 5.5317378e-40
6.4161057 -3.4648931 -0.78766072 2.1204995e-39
6.4065051 -3.4388764 -0.80280274 5.5317378e-40
6.3798532 -3.4458146 -0.80087137 2.7658689e-40
6.354394 -3.4830022 -0.79340059 1.8439126e-40
6.3411102 -3.5181155 -0.79755402 3.6878252e-40
6.3298697 -3.4893591 -0.79148728 1.8439126e-40
6.3115735 -3.4645793 -0.80087143 2.7658689e-40
6.303956 -3.4980135 -0.79914045 1.8439126e-40
6.2925081 -3.4694319 -0.79894018 2.7658689e-40
6.2737532 -3.4447825 -0.80834222 1.8439126e-40
6.2622671 -3.4479392 -0.80834222 2.7658689e-40
6.2574482 -3.4145198 -0.79835057 3.6878252e-40
6.4221745 -3.4004798 -0.79079831 2.7658689e-39
6.4206066 -3.4867771 -0.75015724 5.5317378e-40
6.4124064 -3.4624617 -0.77044111 1.9361082e-39
6.4055181 -3.4901648 -0.74636543 5.5317378e-40
6.3882341 -3.4664233 -0.75704813 9.219563e-40
6.3747754 -3.442183 -0.77576441 4.6097815e-40
6.3472886 -3.4792085 -0.76470131 1.8439126e-40
6.3556108 -3.4466758 -0.77190191 2.7658689e-40
6.3363085 -3.4833753 -0.77044111 1.8439126e-40
6.3181353 -3.4566441 -0.77024639 1.8439126e-40
6.2941594 -3.4635644 -0.77190185 1.8439126e-40
6.2762852 -3.4390123 -0.78300107 2.7658689e-40
6.2678356 -3.4069364 -0.77473533 2.7658689e-40
6.2484279 -3.3489063 -0.79588515 1.8439126e-40
6.2227526 -3.2523949 -0.80087626 1.8439126e-40
6.2278209 -3.2877862 -0.805233 1.8439126e-40
6.4196367 -3.4832475 -0.73119849 3.6878252e-40
6.4024825 -3.4594426 -0.74174184 9.219563e-40
6.4043541 -3.4859295 -0.72361499 5.5317378e-40
6.3852782 -3.4630215 -0.73600197 8.2976067e-40
6.3658051 -3.4392338 -0.74872619 4.6097815e-40
6.3532381 -3.4714434 -0.73408866 3.6878252e-40
6.3541288 -3.4412825 -0.74293232 1.3829344e-39
6.3306909 -3.4776402 -0.73408866 1.8439126e-40
6.312501 -3.4531093 -0.74486363 1.8439126e-40
6.2915392 -3.4584837 -0.74293232 1.8439126e-40
6.270761 -3.4338951 -0.74986261 2.7658689e-40
6.2428164 -3.3120916 -0.77312428 1.8439126e-40
6.2214847 -3.2477798 -0.77608639 1.8439126e-40
6.2175412 -3.2159839 -0.7965036 2.7658689e-40
6.4105115 -3.4500523 -0.70586771 6.4536941e-40
6.38381 -3.4576786 -0.70730263 5.5317378e-40
6.3571081 -3.4653037 -0.70873767 4.6097815e-40
6.3467522 -3.4949267 -0.68948925 4.6097815e-40
6.3274412 -3.47317 -0.70730263 1.8439126e-40
6.304894 -3.4793665 -0.70730263 1.8439126e-40
6.2843671 -3.454654 -0.71396279 1.8439126e-40
6.2692652 -3.4284515 -0.72062284 2.7658689e-40
6.2450404 -3.3365796 -0.72967494 1.8439126e-40
6.2373614 -3.2753351 -0.75614327 2.7658689e-40
6.2159395 -3.210156 -0.76520103 1.8439126e-40
6.2729874 -3.4577818 -0.71396273 2.7658689e-40
6.4126148 -3.4722703 -0.66673881 4.6097815e-40
6.4134912 -3.4443493 -0.68147326 4.6097815e-40
6.3904181 -3.47894 -0.66958261 6.4536941e-40
6.3769984 -3.4549532 -0.68434316 1.3829344e-39
6.3679304 -3.4845507 -0.66673881 5.5317378e-40
6.3541574 -3.4600811 -0.67860329 6.4536941e-40
6.3461704 -3.4928088 -0.67811406 2.7658689e-40
6.325973 -3.4678268 -0.67860329 2.7658689e-40
6.3034253 -3.4740233 -0.67860329 1.8439126e-40
6.2828851 -3.4492607 -0.68499315 1.8439126e-40
6.2435002 -3.3309765 -0.69957936 2.7658689e-40
6.2189479 -3.2385495 -0.72650659 1.8439126e-40
6.1973085 -3.1735203 -0.74129021 1.8439126e-40
6.2715049 -3.4523883 -0.68499315 1.8439126e-40
6.2485194 -3.3656361 -0.71076322 2.7658689e-40
6.1952529 -3.2070663 -0.72137737 1.8439126e-40
6.4351673 -3.4313045 -0.64607739 4.6097815e-40
6.4293413 -3.4032102 -0.65602362 9.219563e-40
6.4143891 -3.4677968 -0.64683211 5.5317378e-40
6.4200377 -3.4350796 -0.64416414 3.6878252e-40
6.3993835 -3.501287 -0.6457929 4.6097815e-40
6.385191 -3.4744928 -0.64019656 6.4536941e-40
6.3667665 -3.4803152 -0.64398837 8.2976067e-40
6.3470521 -3.4562871 -0.64990401 4.6097815e-40
6.3256321 -3.4621739 -0.64990401 1.8439126e-40
6.3155422 -3.434485 -0.65602362 1.8439126e-40
6.3049221 -3.4684403 -0.65277392 1.8439126e-40
6.2870927 -3.4423037 -0.65602362 2.7658689e-40
6.272016 -3.4159858 -0.66214323 2.7658689e-40
6.2620959 -3.3860531 -0.66256297 1.8439126e-40
6.2422686 -3.3264942 -0.6755029 1.8439126e-40
6.2173624 -3.2327802 -0.69551933 1.8439126e-40
6.1942921 -3.2035697 -0.70259577 1.8439126e-40
6.4278593 -3.3978171 -0.62705398 5.5317378e-40
6.4102869 -3.4637995 -0.62123787 6.4536941e-40
6.4072952 -3.4328351 -0.61546481 4.6097815e-40
6.3876538 -3.4688809 -0.61555022 4.6097815e-40
6.3512206 -3.4493952 -0.62120467 3.6878252e-40
6.3248172 -3.4562681 -0.61929137 1.8439126e-40
6.3086667 -3.4317341 -0.63284796 2.7658689e-40
6.3058319 -3.4607198 -0.61546481 2.7658689e-40
6.2856102 -3.4369104 -0.62705404 1.8439126e-40
6.2608881 -3.3816566 -0.63894773 1.8439126e-40
6.2410364 -3.3220119 -0.65142649 1.8439126e-40
6.2157769 -3.2270114 -0.66453201 1.8439126e-40
6.2209139 -3.2626536 -0.67023629 1.8439126e-40
6.1930108 -3.1989076 -0.67755365 1.8439126e-40
6.4470577 -3.3561704 -0.60366356 4.6097815e-40
6.4308105 -3.3907411 -0.5957669 5.5317378e-40
6.4111881 -3.4561491 -0.58426833 4.6097815e-40
6.4176884 -3.4265306 -0.5982452 4.6097815e-40
6.3992286 -3.4862797 -0.57063061 5.5317378e-40
6.386282 -3.4638891 -0.58873719 4.6097815e-40
6.3722997 -3.437855 -0.59250534 7.3756504e-40
6.3532672 -3.4749143 -0.59848738 3.6878252e-40
6.3496785 -3.4437845 -0.59107041 2.7658689e-40
6.3244662 -3.4794128 -0.58142453 1.8439126e-40
6.322155 -3.4539349 -0.60398507 2.7658689e-40
6.2990203 -3.457994 -0.59250534 1.8439126e-40
6.2784381 -3.4330807 -0.59808457 1.8439126e-40
6.2632809 -3.4066768 -0.60366362 1.8439126e-40
6.2394967 -3.3164089 -0.62133092 2.7658689e-40
6.2359762 -3.2872024 -0.63943553 2.7658689e-40
6.2148256 -3.2235498 -0.64593959 1.8439126e-40
6.2430291 -3.3456585 -0.60345691 2.7658689e-40
6.2184024 -3.2535143 -0.62114662 2.7658689e-40
6.1943231 -3.1916521 -0.64312083 1.8439126e-40
6.1806822 -3.1616292 -0.65908366 1.8439126e-40
6.1627684 -3.1286025 -0.65945512 1.8439126e-40
6.4676361 -3.3411469 -0.55687994 4.6097815e-40
6.4527516 -3.3770542 -0.55752712 5.5317378e-40
6.4516039 -3.3502369 -0.58027178 6.4536941e-40
6.4269061 -3.4159522 -0.55806613 6.4536941e-40
6.4359779 -3.3828237 -0.56332105 3.6878252e-40
6.4067945 -3.4510925 -0.5529865 9.219563e-40
6.4156322 -3.4190505 -0.55806613 6.4536941e-40
6.392539 -3.4836028 -0.54808187 5.5317378e-40
6.3799839 -3.458461 -0.55298644 8.2976067e-40
6.3591719 -3.4636114 -0.55014265 3.6878252e-40
6.3423529 -3.4391894 -0.55806613 3.6878252e-40
6.3262405 -3.4749393 -0.56151783 1.8439126e-40
6.3212929 -3.4434447 -0.55041301 1.8439126e-40
6.3065457 -3.4797826 -0.55867404 1.8439126e-40
6.2942929 -3.451823 -0.55519623 1.8439126e-40
6.2766595 -3.4266088 -0.56332099 1.8439126e-40
6.2653141 -3.3990922 -0.56857586 1.8439126e-40
6.257565 -3.3695662 -0.57400584 2.7658689e-40
6.2421141 -3.342329 -0.58557254 1.8439126e-40
6.2218642 -3.282563 -0.5968982 1.8439126e-40
6.2004333 -3.2188184 -0.6025573 1.8439126e-40
6.1962762 -3.186728 -0.62120897 1.8439126e-40
6.1790643 -3.1557426 -0.62746578 1.8439126e-40
6.1561337 -3.087553 -0.64051563 1.8439126e-40
6.4667387 -3.3378808 -0.53933609 5.5317378e-40
6.4476914 -3.4033437 -0.52362698 1.4751301e-39
6.4535613 -3.3725777 -0.53628284 4.6097815e-40
6.4273911 -3.4385993 -0.5188607 1.0141519e-39
6.4330516 -3.4088995 -0.5312801 9.219563e-40
6.405086 -3.4159722 -0.52821887 4.6097815e-40
6.3832884 -3.4529972 -0.53023601 5.5317378e-40
6.3744121 -3.4234829 -0.52362698 3.6878252e-40
6.3609462 -3.4591377 -0.53023595 8.2976067e-40
6.3442082 -3.4327033 -0.52821887 3.6878252e-40
6.3183374 -3.440043 -0.52936685 1.8439126e-40
6.3064718 -3.4126151 -0.53435147 1.8439126e-40
6.2865572 -3.418088 -0.53435147 1.8439126e-40
6.2657328 -3.3931224 -0.53933609 1.8439126e-40
6.2441568 -3.366158 -0.53858298 1.8439126e-40
6.2408943 -3.3378894 -0.56172669 1.8439126e-40
6.2180681 -3.3078356 -0.54910159 1.8439126e-40
6.2206206 -3.2780378 -0.57259113 1.8439126e-40
6.2041521 -3.2488301 -0.57819313 1.8439126e-40
6.5126729 -3.3501451 -0.50538188 2.7658689e-40
6.4970446 -3.3222923 -0.50307864 3.6878252e-40
6.4722505 -3.3589339 -0.49379408 4.6097815e-40
6.4712849 -3.3319476 -0.51594424 5.5317378e-40
6.447104 -3.4012065 -0.51214725 1.8439126e-39
6.4511032 -3.3666019 -0.50306433 4.6097815e-40
6.4291654 -3.4341257 -0.49895406 5.5317378e-40
6.4349494 -3.4010992 -0.49492764 8.2976067e-40
6.4094706 -3.4389689 -0.49611026 4.6097815e-40
6.3907356 -3.4166982 -0.51214725 3.6878252e-40
6.3838987 -3.444288 -0.48757881 5.5317378e-40
6.3735313 -3.4202771 -0.50640738 4.6097815e-40
6.3530326 -3.4522016 -0.48473501 2.7658689e-40
6.3436103 -3.4280071 -0.5039475 2.7658689e-40
6.3149896 -3.4352162 -0.50066751 1.8439126e-40
6.3059382 -3.4069612 -0.50538182 1.8439126e-40
6.2850747 -3.4126945 -0.50538194 2.7658689e-40
6.2655048 -3.3877988 -0.51243538 2.7658689e-40
6.2435527 -3.3639598 -0.52677536 1.8439126e-40
6.238759 -3.3301206 -0.51999646 2.7658689e-40
6.2230549 -3.3028491 -0.53104424 1.8439126e-40
6.2008519 -3.2761703 -0.53613061 1.8439126e-40
6.516881 -3.3431878 -0.47641233 4.6097815e-40
6.4982047 -3.3175235 -0.48085648 3.6878252e-40
6.4770513 -3.3541343 -0.47641227 7.3756504e-40
6.4450483 -3.3937261 -0.47196817 9.219563e-40
6.4542913 -3.360389 -0.47641233 3.6878252e-40
6.4244809 -3.4280102 -0.46198454 4.6097815e-40
6.4281378 -3.3983736 -0.47196817 9.219563e-40
6.431828 -3.3677227 -0.48220623 3.6878252e-40
6.4097795 -3.459676 -0.45224994 5.5317378e-40
6.4083061 -3.4347332 -0.47335976 4.6097815e-40
6.3928833 -3.4631908 -0.44661278 6.4536941e-40
6.385673 -3.4398146 -0.46767217 4.6097815e-40
6.3678174 -3.4730895 -0.46164525 4.6097815e-40
6.3503947 -3.4498894 -0.46956807 2.7658689e-40
6.3323112 -3.4247093 -0.47196817 3.6878252e-40
6.3210373 -3.4278076 -0.47196817 2.7658689e-40
6.3006625 -3.4026101 -0.47641233 1.8439126e-40
6.2835927 -3.4073012 -0.47641233 1.8439126e-40
6.2684836 -3.3806567 -0.48085648 1.8439126e-40
6.253336 -3.3541787 -0.49135253 1.8439126e-40
6.2333374 -3.2939968 -0.50094873 2.7658689e-40
6.2375388 -3.3256812 -0.49615064 3.6878252e-40
6.2156043 -3.2988708 -0.50094867 1.8439126e-40
6.2018018 -3.3331151 -0.48422775 1.8439126e-40
6.1941352 -3.3055739 -0.50496149 1.8439126e-40
6.5097084 -3.3393583 -0.44744271 3.6878252e-40
6.4755688 -3.3487408 -0.44744271 5.5317378e-40
6.4482069 -3.3875713 -0.44556484 5.5317378e-40
6.4522161 -3.3528383 -0.43585494 4.6097815e-40
6.4262552 -3.423537 -0.44207788 4.6097815e-40
6.4320126 -3.390413 -0.437529 4.6097815e-40
6.4086261 -3.455478 -0.42970124 6.4536941e-40
6.3771634 -3.4361744 -0.43781215 4.6097815e-40
6.3568721 -3.4443135 -0.4506093 2.7658689e-40
6.3444886 -3.4160759 -0.44556481 2.7658689e-40
6.331028 -3.3869169 -0.43971762 3.6878252e-40
6.3145194 -3.426151 -0.4547486 3.6878252e-40
6.304574 -3.3945744 -0.44164881 1.8439126e-40
6.2976089 -3.4307985 -0.4547486 1.8439126e-40
6.2821102 -3.4019074 -0.44744283 1.8439126e-40
6.2669873 -3.3752131 -0.4516167 1.8439126e-40
6.2518258 -3.3486826 -0.46183348 1.8439126e-40
6.2402301 -3.3518693 -0.46183348 2.7658689e-40
6.224 -3.3222399 -0.4603819 2.7658689e-40
6.2121964 -3.2941823 -0.47285959 1.8439126e-40
6.2008867 -3.3297856 -0.46634334 1.8439126e-40
6.5215292 -3.3876727 -0.39373311 4.6097815e-40
6.5207343 -3.3602834 -0.40882966 3.6878252e-40
6.5060096 -3.334806 -0.41963199 6.4536941e-40
6.4740868 -3.3433475 -0.41847315 4.6097815e-40
6.4421115 -3.3830402 -0.41456953 6.4536941e-40
6.4513268 -3.3496022 -0.41847321 5.5317378e-40
6.4265742 -3.4137685 -0.39373311 4.6097815e-40
6.4252009 -3.3876877 -0.41456953 4.6097815e-40
6.4038134 -3.4227571 -0.40738341 6.4536941e-40
6.3768864 -3.4297023 -0.40510836 5.5317378e-40
6.3462849 -3.4093759 -0.41456953 2.7658689e-40
6.326148 -3.3840046 -0.41847321 2.7658689e-40
6.3033881 -3.3902597 -0.41847315 1.8439126e-40
6.2712345 -3.368191 -0.42237687 1.8439126e-40
6.2509193 -3.3453851 -0.44412205 3.6878252e-40
6.2458925 -3.3102548 -0.4305746 2.7658689e-40
6.2393236 -3.3485718 -0.44412205 3.6878252e-40
6.2258596 -3.3175509 -0.43951678 2.7658689e-40
6.2122164 -3.2865441 -0.43473849 2.7658689e-40
6.199667 -3.325346 -0.44249749 1.8439126e-40
6.1941752 -3.290297 -0.42871937 1.8439126e-40
6.5222869 -3.4140825 -0.37896669 4.6097815e-40
6.5109572 -3.3577983 -0.38300031 3.6878252e-40
6.4900126 -3.3632097 -0.38127834 4.6097815e-40
6.4729009 -3.3390329 -0.3952975 4.6097815e-40
6.4495449 -3.3747909 -0.38357428 4.6097815e-40
6.4504375 -3.3463662 -0.40109149 3.6878252e-40
6.4289947 -3.4094591 -0.37553275 5.5317378e-40
6.4033589 -3.4167321 -0.37667027 6.4536941e-40
6.4074092 -3.3891294 -0.39734995 4.6097815e-40
6.3777237 -3.4240053 -0.3778078 4.6097815e-40
6.3611398 -3.397248 -0.37439051 3.6878252e-40
6.3448162 -3.4040327 -0.38587025 3.6878252e-40
6.3246655 -3.3786111 -0.38950372 4.6097815e-40
6.3019061 -3.3848662 -0.3895036 2.7658689e-40
6.2697382 -3.3627474 -0.3931371 1.8439126e-40
6.248805 -3.3376913 -0.4027954 3.6878252e-40
6.2329636 -3.3090332 -0.40672874 4.6097815e-40
6.2109847 -3.2820618 -0.41066206 2.7658689e-40
6.1929431 -3.2858145 -0.40464294 2.7658689e-40
6.511867 -3.3500779 -0.34569117 4.6097815e-40
6.5091538 -3.322495 -0.36246544 4.6097815e-40
6.4908581 -3.3574607 -0.35372698 3.6878252e-40
6.4654322 -3.3341243 -0.36053407 4.6097815e-40
6.4468498 -3.368767 -0.34979111 6.4536941e-40
6.4232459 -3.4060283 -0.35050723 6.4536941e-40
6.4270201 -3.3722465 -0.33995131 4.6097815e-40
6.399848 -3.4112437 -0.34444049 3.6878252e-40
6.3967514 -3.3834386 -0.35430095 4.6097815e-40
6.3770599 -3.4194045 -0.35391977 4.6097815e-40
6.3653083 -3.3903561 -0.34569117 3.6878252e-40
6.3522158 -3.427371 -0.3596074 3.6878252e-40
6.3418093 -3.3975039 -0.34913507 4.6097815e-40
6.3231835 -3.3732178 -0.36053407 2.7658689e-40
6.3004236 -3.379473 -0.36053401 1.8439126e-40
6.2776637 -3.3857276 -0.36053407 1.8439126e-40
6.2567563 -3.3604605 -0.36389726 1.8439126e-40
6.2478991 -3.3343937 -0.38508397 3.6878252e-40
6.2395272 -3.3651955 -0.36389726 1.8439126e-40
6.2216635 -3.3387671 -0.37091485 2.7658689e-40
6.2144852 -3.3105304 -0.38884437 2.7658689e-40
6.5174551 -3.3728485 -0.31410646 3.6878252e-40
6.5106921 -3.3458035 -0.32273173 3.6878252e-40
6.5037799 -3.3177848 -0.33156452 4.6097815e-40
6.4824491 -3.3533356 -0.32158375 4.6097815e-40
6.4776216 -3.3265202 -0.33928978 4.6097815e-40
6.4509997 -3.3624382 -0.32387969 6.4536941e-40
6.4260845 -3.3988705 -0.31865656 6.4536941e-40
6.4022808 -3.432389 -0.30568343 3.6878252e-40
6.4007401 -3.4072022 -0.32548171 5.5317378e-40
6.379848 -3.4374254 -0.30004627 3.6878252e-40
6.3781071 -3.4122837 -0.31979409 5.5317378e-40
6.3584967 -3.3876307 -0.32273173 3.6878252e-40
6.3498878 -3.4189003 -0.31410646 3.6878252e-40
6.3337531 -3.3946607 -0.32387969 3.6878252e-40
6.3222942 -3.3699818 -0.34315234 2.7658689e-40
6.2989416 -3.3740797 -0.33156449 1.8439126e-40
6.2761817 -3.3803341 -0.33156458 1.8439126e-40
6.2565284 -3.3551366 -0.33699659 2.7658689e-40
6.2341914 -3.4206433 -0.31699187 2.7658689e-40
6.247139 -3.3859956 -0.31997669 2.7658689e-40
6.2325873 -3.3624189 -0.34050542 2.7658689e-40
6.2112994 -3.3373594 -0.34966111 2.7658689e-40
6.2248392 -3.4800258 -0.30004627 2.7658689e-40
6.2214198 -3.4542065 -0.31410646 2.7658689e-40
6.2150588 -3.366065 -0.33465746 2.7658689e-40
6.1997037 -3.3405464 -0.34966111 1.8439126e-40
6.2088079 -3.4866889 -0.3113206 2.7658689e-40
6.1934919 -3.4618816 -0.31410646 2.7658689e-40
6.1823211 -3.4649518 -0.31410646 2.7658689e-40
6.1609125 -3.4407823 -0.31699187 2.7658689e-40
6.1189303 -3.2941029 -0.34445181 2.7658689e-40
6.1063333 -3.3638425 -0.33785349 2.7658689e-40
6.1008096 -3.3322217 -0.3411527 1.8439126e-40
6.5117059 -3.3694174 -0.28908095 4.6097815e-40
6.5041742 -3.344147 -0.30551213 4.6097815e-40
6.4821954 -3.3757052 -0.27998084 6.4536941e-40
6.4813328 -3.3492751 -0.29977223 4.6097815e-40
6.4506626 -3.4134488 -0.27749756 3.6878252e-40
6.4560833 -3.3856153 -0.29363105 5.5317378e-40
6.4340549 -3.4180131 -0.27749756 6.4536941e-40
6.4295053 -3.3938305 -0.29818115 6.4536941e-40
6.4066629 -3.4266696 -0.28313473 4.6097815e-40
6.378983 -3.4342768 -0.28313476 4.6097815e-40
6.360477 -3.4137123 -0.30273122 3.6878252e-40
6.3534594 -3.4410658 -0.28200728 3.6878252e-40
6.3434296 -3.4172585 -0.29704362 2.7658689e-40
6.3294311 -3.3921707 -0.30551213 2.7658689e-40
6.3177981 -3.4499633 -0.27749756 2.7658689e-40
6.3152103 -3.4238749 -0.29135606 3.6878252e-40
6.3068838 -3.3983674 -0.30551213 2.7658689e-40
6.2863755 -3.3728924 -0.30838886 2.7658689e-40
6.2867007 -3.4294324 -0.27998078 1.8439126e-40
6.2837486 -3.4024265 -0.29403239 1.8439126e-40
6.2672114 -3.3773854 -0.30452633 1.8439126e-40
6.27351 -3.4621348 -0.27749756 1.8439126e-40
6.2515192 -3.4398601 -0.28377259 2.7658689e-40
6.2521982 -3.4126298 -0.30168554 2.7658689e-40
6.2295103 -3.4753559 -0.28313473 1.8439126e-40
6.2375946 -3.4474833 -0.30273122 2.7658689e-40
6.207366 -3.4814415 -0.28313476 1.8439126e-40
6.1952662 -3.457408 -0.29419979 1.8439126e-40
6.1740055 -3.4900453 -0.28031614 1.8439126e-40
6.1730695 -3.4640777 -0.29704362 1.8439126e-40
6.1546879 -3.4401946 -0.30551213 2.7658689e-40
6.1384373 -3.4135497 -0.30838886 2.7658689e-40
6.1289206 -3.3552706 -0.3260459 2.7658689e-40
6.1435318 -3.4695377 -0.28377259 2.7658689e-40
6.1238418 -3.4456072 -0.29020581 1.8439126e-40
6.121367 -3.4182408 -0.30838886 2.7658689e-40
6.1057291 -3.3616445 -0.3260459 1.8439126e-40
6.0977321 -3.4535487 -0.29403239 1.8439126e-40
6.0983109 -3.4234171 -0.30259499 2.7658689e-40
6.0990014 -3.3932765 -0.31126565 2.7658689e-40
6.0767817 -3.3364379 -0.32922977 1.8439126e-40
6.5167661 -3.4176474 -0.24149397 3.6878252e-40
6.5162296 -3.3920431 -0.26058605 4.6097815e-40
6.5039558 -3.3674474 -0.2686055 3.6878252e-40
6.5081797 -3.4750443 -0.22623552 5.5317378e-40
6.5003066 -3.4221706 -0.24149397 4.6097815e-40
6.4937973 -3.3970792 -0.25494888 6.4536941e-40
6.4871988 -3.3720527 -0.2686055 2.7658689e-40
6.4866228 -3.4809687 -0.22623552 6.4536941e-40
6.4855461 -3.4553652 -0.23931345 4.6097815e-40
6.4657493 -3.4324136 -0.24521846 3.6878252e-40
6.4637818 -3.4070215 -0.26340467 5.5317378e-40
6.4420505 -3.467319 -0.23931345 4.6097815e-40
6.4406223 -3.4411836 -0.25452965 4.6097815e-40
6.4327312 -3.4957795 -0.22623552 4.6097815e-40
6.4203029 -3.4732957 -0.23931345 6.4536941e-40
6.4143062 -3.4484904 -0.25490212 4.6097815e-40
6.387681 -3.4822609 -0.23931345 3.6878252e-40
6.3880854 -3.4561443 -0.25713679 3.6878252e-40
6.3725815 -3.4326501 -0.26622322 3.6878252e-40
6.3659334 -3.4882379 -0.23931345 4.6097815e-40
6.3526483 -3.4646156 -0.25080517 3.6878252e-40
6.3449016 -3.4402573 -0.26622322 2.7658689e-40
6.3240995 -3.4723868 -0.25043273 3.6878252e-40
6.3112526 -3.4478116 -0.25776747 1.8439126e-40
6.2889643 -3.4533725 -0.25494888 1.8439126e-40
6.269362 -3.4319196 -0.2686055 2.7658689e-40
6.2641964 -3.4607439 -0.25776747 2.7658689e-40
6.2517323 -3.4333484 -0.25154266 1.8439126e-40
6.2286448 -3.4722075 -0.26622322 1.8439126e-40
6.2211571 -3.4423208 -0.25438645 1.8439126e-40
6.2006764 -3.478765 -0.26058605 1.8439126e-40
6.1955857 -3.4476402 -0.24585505 1.8439126e-40
6.1722608 -3.5168006 -0.26384088 1.8439126e-40
6.1726117 -3.484973 -0.25306979 1.8439126e-40
6.1788292 -3.4522452 -0.24585505 2.7658689e-40
6.1505637 -3.4914086 -0.25494888 1.8439126e-40
6.1297231 -3.4702959 -0.2686055 2.7658689e-40
6.1297913 -3.4378421 -0.25959319 1.8439126e-40
6.1133056 -3.4111753 -0.26203755 2.7658689e-40
6.0965571 -3.4492743 -0.27107292 2.7658689e-40
6.0974216 -3.420181 -0.28521323 1.8439126e-40
6.0972061 -3.386744 -0.27617785 2.7658689e-40
6.5276256 -3.4382579 -0.21163206 3.6878252e-40
6.5073371 -3.4719791 -0.20977263 5.5317378e-40
6.5117393 -3.4442866 -0.21993646 4.6097815e-40
6.4843431 -3.5048113 -0.19975466 6.4536941e-40
6.4857802 -3.4779036 -0.20977263 3.6878252e-40
6.4686689 -3.4577863 -0.22824089 5.5317378e-40
6.4655089 -3.5094426 -0.19703513 4.6097815e-40
6.4571319 -3.4861431 -0.21160185 4.6097815e-40
6.4437776 -3.4629643 -0.21993646 4.6097815e-40
6.4321694 -3.493736 -0.21526027 3.6878252e-40
6.4159818 -3.4697323 -0.21558653 4.6097815e-40
6.3897357 -3.4775786 -0.21875012 4.6097815e-40
6.3729739 -3.4526904 -0.21914704 5.5317378e-40
6.3513141 -3.4597616 -0.22473378 3.6878252e-40
6.3296542 -3.4668331 -0.23032053 6.4536941e-40
6.3152986 -3.4408679 -0.22864208 2.7658689e-40
6.3117185 -3.4111686 -0.22310457 4.6097815e-40
6.2971354 -3.3849556 -0.22515401 1.8439126e-40
6.2822256 -3.3577909 -0.2272741 9.219563e-41
6.2899585 -3.4194264 -0.23447981 1.8439126e-40
6.2695384 -3.394839 -0.23663375 1.8439126e-40
6.2651558 -3.3624821 -0.2272741 1.8439126e-40
6.2416477 -3.4036534 -0.24237362 1.8439126e-40
6.2371011 -3.3717389 -0.23499939 1.8439126e-40
6.2117605 -3.440917 -0.23447981 2.7658689e-40
6.2193937 -3.4109182 -0.24811348 2.7658689e-40
6.2145391 -3.3787131 -0.23886193 2.7658689e-40
6.1950035 -3.4455223 -0.23447981 2.7658689e-40
6.1737113 -3.4211745 -0.23663375 1.8439126e-40
6.1798062 -3.3859382 -0.2272741 2.7658689e-40
6.1670761 -3.4531975 -0.23447981 2.7658689e-40
6.1511641 -3.4273713 -0.23663375 2.7658689e-40
6.1456666 -3.3953207 -0.2272741 1.8439126e-40
6.1444426 -3.4582789 -0.22879218 2.7658689e-40
6.1280289 -3.4314303 -0.22515401 2.7658689e-40
6.1237965 -3.4048116 -0.24465585 2.7658689e-40
6.1071963 -3.3781438 -0.24693808 2.7658689e-40
6.0908108 -3.3527405 -0.26110396 1.8439126e-40
6.0795169 -3.3570266 -0.2670078 2.7658689e-40
6.0731215 -3.3231194 -0.25769225 3.6878252e-40
6.5272093 -3.4599252 -0.1768468 7.3756504e-40
6.5267758 -3.4351659 -0.19502318 7.3756504e-40
6.5101323 -3.4652777 -0.18013938 5.5317378e-40
6.5159016 -3.4381542 -0.19502318 5.5317378e-40
6.4857559 -3.4717886 -0.17919855 4.6097815e-40
6.4574308 -3.4802008 -0.18233442 5.5317378e-40
6.4428425 -3.4560156 -0.18395062 3.6878252e-40
6.4261241 -3.4313715 -0.1856267 4.6097815e-40
6.4289107 -3.4620616 -0.19502318 3.6878252e-40
6.4099503 -3.4369349 -0.1912134 4.6097815e-40
6.3899283 -3.4428103 -0.19307566 3.6878252e-40
6.3717442 -3.4187706 -0.19575855 5.5317378e-40
6.3546572 -3.3925347 -0.18897888 4.6097815e-40
6.3455596 -3.4271762 -0.20179838 4.6097815e-40
6.3434858 -3.3956048 -0.18897888 3.6878252e-40
6.3161402 -3.4053979 -0.20035411 3.6878252e-40
6.2962542 -3.3817501 -0.20793444 2.7658689e-40
6.2849803 -3.3848486 -0.20793444 1.8439126e-40
6.2642665 -3.3592463 -0.20989236 1.8439126e-40
6.2471967 -3.3639376 -0.20989236 1.8439126e-40
6.2263041 -3.3395553 -0.21769825 2.7658689e-40
6.209374 -3.3453791 -0.22354624 1.8439126e-40
6.158875 -3.3281243 -0.23158495 1.8439126e-40
6.1522431 -3.3622513 -0.2293942 2.7658689e-40
6.5263667 -3.4568601 -0.16038385 4.6097815e-40
6.5163069 -3.4852448 -0.14590861 1.1985432e-39
6.5114341 -3.4587662 -0.14940859 3.6878252e-40
6.4870405 -3.4937236 -0.14808416 5.5317378e-40
6.480536 -3.467258 -0.14940856 6.4536941e-40
6.4598327 -3.4469121 -0.16180548 4.6097815e-40
6.4608545 -3.4715681 -0.14392093 4.6097815e-40
6.4483924 -3.447839 -0.15073292 4.6097815e-40
6.4341245 -3.4246981 -0.16327977 5.5317378e-40
6.42275 -3.3985448 -0.16475411 3.6878252e-40
6.4145794 -3.432307 -0.17445324 6.4536941e-40
6.4023552 -3.4037733 -0.16287506 4.6097815e-40
6.3920617 -3.4362581 -0.1632798 3.6878252e-40
6.3729258 -3.4122376 -0.16475408 3.6878252e-40
6.3537841 -3.389358 -0.17191601 3.6878252e-40
6.3344622 -3.4239371 -0.17039129 2.7658689e-40
6.3426127 -3.3924282 -0.17191601 3.6878252e-40
6.3113918 -3.4012363 -0.17305353 2.7658689e-40
6.294786 -3.3764069 -0.17923513 1.8439126e-40
6.27912 -3.3811722 -0.18153107 1.8439126e-40
6.2597909 -3.3540955 -0.17802587 2.7658689e-40
6.2457142 -3.3585439 -0.18092288 1.8439126e-40
6.2268219 -3.3339484 -0.19040784 2.7658689e-40
6.214437 -3.3033972 -0.18435448 2.7658689e-40
6.5297904 -3.4482274 -0.12197036 5.5317378e-40
6.5144706 -3.4785616 -0.11001114 5.5317378e-40
6.5085144 -3.4551735 -0.12745802 1.2907388e-39
6.4827003 -3.4883819 -0.11545013 7.3756504e-40
6.4569502 -3.495023 -0.11327451 9.219563e-40
6.4435639 -3.4719248 -0.12197036 4.6097815e-40
6.4421053 -3.4462414 -0.13412407 4.6097815e-40
6.4293237 -3.4215429 -0.14093287 4.6097815e-40
6.4252281 -3.4486625 -0.12305149 7.3756504e-40
6.4077892 -3.4247763 -0.12752469 8.2976067e-40
6.3939161 -3.4019539 -0.14220542 3.6878252e-40
6.3900609 -3.4289773 -0.12417267 4.6097815e-40
6.3714838 -3.4069903 -0.13656823 6.4536941e-40
6.3526201 -3.3851225 -0.14916556 2.7658689e-40
6.3415318 -3.4149961 -0.13544083 2.7658689e-40
6.3361545 -3.3907866 -0.15485315 3.6878252e-40
6.3213711 -3.4196339 -0.13093108 3.6878252e-40
6.3076444 -3.3963444 -0.14347798 2.7658689e-40
6.293611 -3.3721323 -0.15627566 1.8439126e-40
6.2786679 -3.3448467 -0.15774716 1.8439126e-40
6.2791348 -3.4019015 -0.1321027 1.8439126e-40
6.2702804 -3.3754795 -0.14096932 1.8439126e-40
6.2595038 -3.3493397 -0.15388463 2.7658689e-40
6.2442322 -3.3531506 -0.15195328 2.7658689e-40
6.2290549 -3.3270895 -0.1592187 2.7658689e-40
6.209054 -3.2678566 -0.16827038 2.7658689e-40
6.5310812 -3.4423788 -0.094532117 5.5317378e-40
6.5116739 -3.4736123 -0.081456415 3.6878252e-40
6.4810305 -3.4823062 -0.082816154 6.4536941e-40
6.4543238 -3.4896462 -0.082816124 6.4536941e-40
6.4373322 -3.470341 -0.10550741 6.4536941e-40
6.4385777 -3.4950626 -0.088255152 5.5317378e-40
6.4254308 -3.4692166 -0.083556831 4.6097815e-40
6.418375 -3.445003 -0.095370062 4.6097815e-40
6.4036431 -3.4211426 -0.10368794 1.0141519e-39
6.3779445 -3.4278324 -0.10182574 9.219563e-40
6.3706183 -3.4038415 -0.11965667 5.5317378e-40
6.3423615 -3.4093499 -0.10838235 5.5317378e-40
6.3104572 -3.417836 -0.10697301 2.7658689e-40
6.2953091 -3.3951788 -0.1207274 1.8439126e-40
6.2870011 -3.4245644 -0.10838233 2.7658689e-40
6.2768536 -3.3979731 -0.10935216 2.7658689e-40
6.2577343 -3.3739474 -0.11609656 3.6878252e-40
6.2427497 -3.3477571 -0.12298375 2.7658689e-40
6.2275586 -3.3216462 -0.1299789 2.7658689e-40
6.2078338 -3.263417 -0.14442454 1.8439126e-40
6.187232 -3.2032564 -0.15329465 1.8439126e-40
6.5116878 -3.4684358 -0.055621203 4.6097815e-40
6.4796391 -3.4772434 -0.055621143 3.6878252e-40
6.4529324 -3.4845834 -0.055621143 7.3756504e-40
6.4353666 -3.4631894 -0.067093909 4.6097815e-40
6.4366293 -3.4879744 -0.050182175 4.6097815e-40
6.4243078 -3.4651296 -0.06160631 4.6097815e-40
6.4115214 -3.4413435 -0.067688629 3.6878252e-40
6.3984613 -3.4166007 -0.073892079 4.6097815e-40
6.3765154 -3.422632 -0.073892079 4.6097815e-40
6.3435965 -3.431679 -0.073892139 4.6097815e-40
6.307415 -3.4121819 -0.074559294 6.4536941e-40
6.2849822 -3.417218 -0.068922102 1.0141519e-39
6.2747507 -3.3932359 -0.082810014 7.3756504e-40
6.2562656 -3.3686039 -0.087397255 3.6878252e-40
6.2523508 -3.3381577 -0.088220231 3.6878252e-40
6.2369504 -3.3108683 -0.08904314 3.6878252e-40
6.2415638 -3.3434427 -0.099808 2.7658689e-40
6.2260628 -3.3162026 -0.10073906 2.7658689e-40
6.1986122 -3.2911961 -0.10170113 3.6878252e-40
6.2033815 -3.258672 -0.1146172 3.6878252e-40
6.190599 -3.2310181 -0.12776379 3.6878252e-40
6.1870165 -3.294383 -0.10170113 3.6878252e-40
6.1828909 -3.2643034 -0.1146172 4.6097815e-40
6.5049548 -3.4648407 -0.028426191 3.6878252e-40
6.4782476 -3.4721801 -0.028426131 3.6878252e-40
6.4515405 -3.4795203 -0.028426191 4.6097815e-40
6.428884 -3.4848754 -0.024075005 5.5317378e-40
6.4175148 -3.4615028 -0.034168076 6.4536941e-40
6.4020915 -3.438947 -0.042775344 3.6878252e-40
6.3809195 -3.4434721 -0.036316365 3.6878252e-40
6.367866 -3.4197888 -0.047820665 1.1063476e-39
6.3418813 -3.4254384 -0.040371697 7.3756504e-40
6.3059726 -3.4069343 -0.046373412 7.3756504e-40
6.2738271 -3.3869605 -0.050200969 7.3756504e-40
6.2508688 -3.3327644 -0.05925066 2.7658689e-40
6.2397852 -3.3369703 -0.065044634 4.6097815e-40
6.2245665 -3.3107588 -0.071499236 2.7658689e-40
6.2086978 -3.2825136 -0.072182082 3.6878252e-40
6.199234 -3.2550373 -0.090771392 3.6878252e-40
6.1881351 -3.2220533 -0.079610944 2.7658689e-40
6.176621 -3.226423 -0.085630052 2.7658689e-40
6.5023375 -3.4326971 -0.0067298985 6.4536941e-40
6.5002675 -3.4025428 0.0042830519 3.6878252e-40
6.4701681 -3.4678664 0.004207788 3.6878252e-40
6.482203 -3.4367654 0.00058698026 3.6878252e-40
6.4498711 -3.4734447 0.0042077298 3.6878252e-40
6.4244299 -3.4801643 0.0055675302 3.6878252e-40
6.4037232 -3.4605312 -0.010388338 3.6878252e-40
6.4015198 -3.4856436 0.0096468143 3.6878252e-40
6.3886032 -3.4617567 0.0042454195 5.5317378e-40
6.3830333 -3.4369791 -0.0067894738 2.7658689e-40
6.3678842 -3.4126985 -0.012438116 2.7658689e-40
6.3404522 -3.4202378 -0.012438057 2.7658689e-40
6.3100667 -3.4001653 -0.018187536 3.6878252e-40
6.2903624 -3.3771777 -0.024037967 3.6878252e-40
6.2719226 -3.352042 -0.026172064 5.5317378e-40
6.2496829 -3.3284497 -0.036075003 3.6878252e-40
6.2342572 -3.3010697 -0.036411528 8.2976067e-40
6.2236691 -3.3074925 -0.05395538 4.6097815e-40
6.2187834 -3.2738309 -0.042663034 2.7658689e-40
6.2032585 -3.246769 -0.055002641 4.6097815e-40
6.1875191 -3.2198119 -0.067572713 3.6878252e-40
6.1745071 -3.1880958 -0.060117643 4.6097815e-40
6.4992309 -3.4284229 0.018879117 3.6878252e-40
6.4645038 -3.4639776 0.0314028 3.6878252e-40
6.480062 -3.4317868 0.028390991 3.6878252e-40
6.4484797 -3.4683816 0.0314028 8.2976067e-40
6.4238534 -3.4749317 0.032490581 3.6878252e-40
6.4016643 -3.4530392 0.029854378 5.5317378e-40
6.3817115 -3.432169 0.019046498 5.5317378e-40
6.3635693 -3.4077322 0.018288923 2.7658689e-40
6.3390226 -3.4150374 0.015495583 3.6878252e-40
6.3086243 -3.3949177 0.0099982843 1.8439126e-40
6.2891979 -3.3729422 -0.0012874278 2.7658689e-40
6.2744079 -3.3463786 -0.0012993356 1.8439126e-40
6.2595806 -3.3199286 -0.0071054939 2.7658689e-40
6.2445464 -3.2935581 -0.013019685 2.7658689e-40
6.2288685 -3.2651486 -0.013144044 3.6878252e-40
6.2134423 -3.2380018 -0.025195362 2.7658689e-40
6.1978016 -3.2109601 -0.037477206 7.3756504e-40
6.1774497 -3.1832316 -0.039861798 4.6097815e-40
6.4931307 -3.3978531 0.037500747 6.4536941e-40
6.4725294 -3.456599 0.057238068 3.6878252e-40
6.4470882 -3.4633188 0.058597811 3.6878252e-40
6.4217858 -3.4705446 0.057238068 3.6878252e-40
6.399128 -3.4473264 0.061865661 3.6878252e-40
6.3832588 -3.4236143 0.059645917 9.219563e-40
6.3705125 -3.40079 0.043429222 4.6097815e-40
6.3433657 -3.4093692 0.037842482 3.6878252e-40
6.3316617 -3.3812497 0.046639912 6.4536941e-40
6.3100944 -3.3894343 0.035365537 2.7658689e-40
6.2983322 -3.3624599 0.038525838 2.7658689e-40
6.2842131 -3.3379369 0.02740003 1.8439126e-40
6.2732334 -3.3421042 0.021660132 1.8439126e-40
6.2487936 -3.2865362 0.016220089 1.8439126e-40
6.2236261 -3.2292345 0.0046119755 1.8439126e-40
6.2080841 -3.2021079 -0.0073816376 4.6097815e-40
6.2030187 -3.1672814 0.0047011445 2.7658689e-40
6.192327 -3.1750867 -0.019605894 3.6878252e-40
6.181294 -3.1420732 -0.013661422 2.7658689e-40
6.4459748 -3.4592683 0.080353796 4.6097815e-40
6.4272242 -3.4335616 0.092047669 3.6878252e-40
6.4246092 -3.4651401 0.080353796 7.3756504e-40
6.4060421 -3.4408479 0.084730789 5.5317378e-40
6.403307 -3.4114532 0.092863612 3.6878252e-40
6.3745699 -3.3940818 0.071362861 6.4536941e-40
6.3578997 -3.3683951 0.074825794 3.6878252e-40
6.3389564 -3.3752942 0.06637004 2.7658689e-40
6.3192196 -3.3510253 0.066963956 2.7658689e-40
6.3080482 -3.3540955 0.066963956 5.5317378e-40
6.2910533 -3.329736 0.058969226 2.7658689e-40
6.2706928 -3.3046935 0.053730693 9.219563e-41
6.2530408 -3.2795141 0.045459863 1.8439126e-40
6.2380476 -3.2531686 0.034086414 2.7658689e-40
6.2186747 -3.1943767 0.016694816 2.7658689e-40
6.2137108 -3.159476 0.029008182 1.8439126e-40
6.1978025 -3.1313927 0.017019618 4.6097815e-40
6.4167466 -3.3757784 0.10488325 3.6878252e-40
6.3950863 -3.3828497 0.099296562 3.6878252e-40
6.3795724 -3.3569832 0.10207213 5.5317378e-40
6.3596582 -3.363961 0.094555914 4.6097815e-40
6.3465767 -3.3369014 0.099952117 4.6097815e-40
6.3261428 -3.3434281 0.095402069 2.7658689e-40
6.3073859 -3.3193092 0.088625282 2.7658689e-40
6.2919626 -3.3220153 0.096278436 2.7658689e-40
6.2756019 -3.2965772 0.087528534 1.8439126e-40
6.2630305 -3.2709138 0.074699752 1.8439126e-40
6.2518439 -3.2751594 0.068851821 1.8439126e-40
6.2570667 -3.4174254 0.11605673 2.7658689e-40
6.3947983 -3.3200045 0.11815255 3.6878252e-40
6.3789644 -3.3518827 0.12837893 4.6097815e-40
6.3830452 -3.3209567 0.12952776 9.219563e-40
6.3628869 -3.3540437 0.1396533 3.6878252e-40
6.3498225 -3.3312261 0.12384012 2.7658689e-40
6.3271894 -3.3363073 0.12952776 2.7658689e-40
6.3101144 -3.3124294 0.11923773 2.7658689e-40
6.2861614 -3.318553 0.12153374 3.6878252e-40
6.2707214 -3.2936645 0.10877278 1.8439126e-40
6.2638154 -3.3835287 0.12837899 2.7658689e-40
6.2716246 -3.3527167 0.12384018 1.8439126e-40
6.2435393 -3.3877463 0.13514358 2.7658689e-40
6.3733821 -3.3489017 0.15092762 2.7658689e-40
6.3582349 -3.3515596 0.15844388 1.1063476e-39
6.3450317 -3.3283665 0.14469467 4.6097815e-40
6.3288054 -3.360024 0.1565648 4.6097815e-40
6.3233781 -3.3333688 0.14943451 2.7658689e-40
6.2926769 -3.3693883 0.15938342 2.7658689e-40
6.2950954 -3.3419387 0.14545314 2.7658689e-40
6.267909 -3.3767598 0.1565648 1.8439126e-40
6.270752 -3.3495402 0.14090303 2.7658689e-40
6.2431412 -3.3841312 0.15374623 1.8439126e-40
6.2304888 -3.35605 0.16365345 2.7658689e-40
6.2183733 -3.3915021 0.15092762 2.7658689e-40
6.2081466 -3.3621902 0.16365345 1.8439126e-40
6.3539362 -3.3474739 0.18475068 3.6878252e-40
6.3273635 -3.3547766 0.18475068 3.6878252e-40
6.2941475 -3.3639052 0.18475068 1.8439126e-40
6.2664671 -3.3715124 0.18475062 1.8439126e-40
6.2470064 -3.4022915 0.20544438 1.8439126e-40
6.2387872 -3.3791196 0.18475068 2.7658689e-40
6.2160659 -3.3831062 0.196025 2.7658689e-40
6.2072735 -3.3590136 0.18071629 2.7658689e-40
6.3477769 -3.3423939 0.21857363 4.6097815e-40
6.3563375 -3.3112137 0.21484205 2.7658689e-40
6.3256326 -3.3484795 0.21857363 3.6878252e-40
6.3027477 -3.3832436 0.22406682 3.6878252e-40
6.288918 -3.3593221 0.21481557 1.8439126e-40
6.2647367 -3.3652153 0.21857375 2.7658689e-40
6.2461491 -3.3991711 0.22220454 2.7658689e-40
6.2259846 -3.3758655 0.21857375 2.7658689e-40
6.2149124 -3.3789084 0.21857375 1.8439126e-40
6.200233 -3.3552537 0.20915441 1.8439126e-40
6.3463349 -3.3371465 0.24675956 3.6878252e-40
6.3548827 -3.3059192 0.2432801 2.7658689e-40
6.3231688 -3.371665 0.25386265 1.8439126e-40
6.3316684 -3.3415534 0.24488048 1.8439126e-40
6.2995849 -3.3788924 0.25013819 1.8439126e-40
6.2860699 -3.4104161 0.25895214 1.8439126e-40
6.2708521 -3.3870685 0.24874151 1.8439126e-40
6.2392335 -3.3954785 0.25013813 2.7658689e-40
6.2079339 -3.3751824 0.24675956 1.8439126e-40
6.1910396 -3.3509474 0.2432801 1.8439126e-40
6.1837444 -3.3253222 0.2282953 2.7658689e-40
6.1721768 -3.327352 0.23403513 2.7658689e-40
6.3709197 -3.3254983 0.27118734 3.6878252e-40
6.3679991 -3.2677886 0.26273444 2.7658689e-40
6.3478198 -3.3611617 0.27248514 1.8439126e-40
6.3485832 -3.3308847 0.27494538 2.7658689e-40
6.3537188 -3.3016839 0.26603058 2.7658689e-40
6.3222485 -3.3662715 0.28206238 1.8439126e-40
6.3332438 -3.3328428 0.28621975 2.7658689e-40
6.306685 -3.4003165 0.28109726 1.8439126e-40
6.2967725 -3.3729534 0.28365856 1.8439126e-40
6.2704372 -3.3801911 0.28365856 1.8439126e-40
6.2375183 -3.3892379 0.28365856 1.8439126e-40
6.2150006 -3.393189 0.29483205 2.7658689e-40
6.2042017 -3.3708866 0.27333474 1.8439126e-40
6.1855698 -3.3456175 0.27740586 1.8439126e-40
6.3693113 -3.2928431 0.28878108 3.6878252e-40
6.3603067 -3.2618575 0.30291355 2.7658689e-40
6.343739 -3.3277011 0.29749414 2.7658689e-40
6.348249 -3.2963536 0.30015621 2.7658689e-40
6.3129001 -3.3629277 0.31159219 2.7658689e-40
6.3285918 -3.3303587 0.30501035 1.8439126e-40
6.293828 -3.39609 0.31985131 2.7658689e-40
6.2983646 -3.3672955 0.30972996 1.8439126e-40
6.2832375 -3.4001091 0.31431499 1.8439126e-40
6.2668705 -3.3758013 0.31047481 2.7658689e-40
6.2397418 -3.4120626 0.31431499 3.6878252e-40
6.2389755 -3.3838036 0.30879879 2.7658689e-40
6.228868 -3.4150512 0.31431499 1.8439126e-40
6.2144289 -3.3911088 0.30600545 2.7658689e-40
6.1995139 -3.366209 0.30313131 2.7658689e-40
6.1849875 -3.3434999 0.28878108 1.8439126e-40
6.3520074 -3.2610734 0.31821978 2.7658689e-40
6.3561859 -3.2260911 0.32894146 3.6878252e-40
6.3281755 -3.2961764 0.32859439 1.8439126e-40
6.3362908 -3.262711 0.3316128 2.7658689e-40
6.3178267 -3.3272972 0.33507523 1.8439126e-40
6.3010693 -3.3628232 0.32835236 2.7658689e-40
6.2860713 -3.3345194 0.34259152 2.7658689e-40
6.2678647 -3.3708301 0.33393911 1.8439126e-40
6.2606211 -3.3430188 0.33507523 2.7658689e-40
6.2423563 -3.3782134 0.33207688 2.7658689e-40
6.3148274 -3.3236065 0.35762399 1.8439126e-40
6.3037958 -3.2949045 0.36840773 2.7658689e-40
6.2814193 -3.3320353 0.36138216 1.8439126e-40
6.292625 -3.2979746 0.36840773 2.7658689e-40
6.263062 -3.3374567 0.35950306 2.7658689e-40
