# .PCD v0.7 - Point Cloud Data file format
VERSION 0.7
FIELDS x y z rgb
SIZE 4 4 4 4
TYPE F F F F
COUNT 1 1 1 1
WIDTH 890
HEIGHT 1
VIEWPOINT 0 0 0 1 0 0 0
POINTS 890
DATA ascii
1.9630212 -1.5266248 -1.2867609 1.2993086e-38
1.9577541 -1.4928683 -1.2770123 9.7723962e-39
1.970365 -1.4908711 -1.2924544 1.0048602e-38
1.9670466 -1.4705514 -1.2794851 1.004826e-38
1.9797877 -1.4715381 -1.284116 9.8631485e-39
1.9908642 -1.4438403 -1.2861421 9.7705928e-39
2.0114198 -1.4295415 -1.2864722 8.8493596e-39
2.0455654 -1.431005 -1.2965297 6.9121723e-39
2.070457 -1.4295882 -1.3012406 4.9760487e-39
2.0984433 -1.4384463 -1.2989388 4.9731718e-39
1.956214 -1.5432229 -1.2699409 1.4554982e-38
1.9569366 -1.520175 -1.2450361 1.1611955e-38
1.9617904 -1.5304948 -1.266939 1.1611952e-38
1.9635471 -1.4953163 -1.2491832 1.0324121e-38
1.9731691 -1.4693708 -1.2489161 9.2188637e-39
1.9836344 -1.4728116 -1.266939 8.664604e-39
1.9955567 -1.4468222 -1.2586842 9.125229e-39
2.0142324 -1.4283988 -1.2594879 9.402169e-39
2.0511074 -1.4321411 -1.2667594 8.2018139e-39
2.0816159 -1.4379011 -1.2793454 7.0936755e-39
2.0988088 -1.4420928 -1.2818384 5.8962029e-39
2.1245847 -1.4504281 -1.2934523 4.5128873e-39
2.1475098 -1.4528599 -1.3049054 5.0631786e-39
1.9621028 -1.5221314 -1.2215966 1.1979656e-38
1.9639394 -1.4984072 -1.2208966 1.1246449e-38
1.9796187 -1.4703836 -1.2211336 1.0230851e-38
1.9949504 -1.4394684 -1.2154702 1.0509235e-38
2.0026309 -1.4490891 -1.2342924 9.9546267e-39
2.0492179 -1.4517953 -1.2271848 7.0925853e-39
1.9998231 -1.4228785 -1.2210639 1.0417749e-38
2.0184865 -1.4334791 -1.2349745 8.4802197e-39
2.0524478 -1.4369293 -1.2352518 7.9234194e-39
2.0750422 -1.4304127 -1.2556527 7.5571592e-39
2.0667298 -1.4222655 -1.2398504 7.2794975e-39
1.9489852 -1.5114927 -1.1806531 1.1699823e-38
1.9563179 -1.5199574 -1.1955081 1.2160081e-38
1.9533678 -1.4856788 -1.1871063 1.1985444e-38
1.9608966 -1.5053988 -1.1992158 1.1984005e-38
1.959026 -1.4655991 -1.1798807 9.58584e-39
1.9743866 -1.4697757 -1.1992158 9.9535407e-39
1.9747416 -1.4368024 -1.1819648 1.1522673e-38
1.9945264 -1.4353466 -1.1906524 9.1255835e-39
2.0232782 -1.4423163 -1.2007923 7.4628126e-39
2.0606225 -1.4537466 -1.2167797 6.9978393e-39
2.0381205 -1.4405686 -1.1983612 7.1829775e-39
1.9451817 -1.5078857 -1.1662927 1.0777522e-38
1.9359217 -1.5000455 -1.1450689 8.2939983e-39
1.9503661 -1.4910967 -1.1578711 1.0785108e-38
1.9521269 -1.453375 -1.1508954 1.2164802e-38
1.956195 -1.4707438 -1.1609653 9.6784014e-39
1.9568968 -1.4407793 -1.1508954 1.1798539e-38
1.9735205 -1.4324828 -1.1584291 9.9549868e-39
2.0025578 -1.4341255 -1.1634207 7.926306e-39
2.032537 -1.4352129 -1.1671715 1.0223996e-38
1.9313728 -1.5010031 -1.1093692 1.1877001e-38
1.9490635 -1.5102962 -1.1298304 9.8627842e-39
1.9424235 -1.4911263 -1.1279156 1.1152081e-38
1.9436558 -1.4534419 -1.1208878 1.1614511e-38
1.9611671 -1.4369875 -1.1253818 9.6773139e-39
1.9817868 -1.433323 -1.1287249 8.8493469e-39
2.0084763 -1.438157 -1.1376168 7.7411959e-39
2.0147281 -1.4303122 -1.1245973 8.1103203e-39
2.0319302 -1.433611 -1.1423025 9.8559319e-39
1.9329686 -1.5016074 -1.1021291 1.6491433e-38
1.9210221 -1.4805466 -1.0765594 1.3453717e-38
1.9330908 -1.4808893 -1.0954123 1.2072972e-38
1.9272732 -1.465229 -1.0747709 1.2996735e-38
1.9403621 -1.4559159 -1.0924082 1.1705632e-38
1.9610624 -1.4346533 -1.0912608 9.1241458e-39
1.989738 -1.433373 -1.1014593 8.3862066e-39
1.9983299 -1.4238849 -1.0955733 7.8337545e-39
2.0212617 -1.4233545 -1.1038939 9.8577325e-39
2.0384443 -1.4259633 -1.1198512 1.2984796e-38
1.9341211 -1.5184503 -1.0617872 1.5845352e-38
1.9254158 -1.479713 -1.0550495 1.3271866e-38
1.9309847 -1.4955353 -1.0668153 1.4468583e-38
1.934019 -1.4551016 -1.056829 1.1337928e-38
1.943904 -1.4355962 -1.0533075 9.4925654e-39
1.967219 -1.4311745 -1.065084 9.3081713e-39
1.98768 -1.4182982 -1.062528 9.1241374e-39
2.0053506 -1.4146016 -1.0698944 8.7531926e-39
2.0283351 -1.4191253 -1.0874141 1.1602617e-38
2.0175858 -1.4038986 -1.0701219 1.2980145e-38
1.9197984 -1.5018286 -1.0254598 1.4923771e-38
1.9278878 -1.5180832 -1.0452234 1.5291102e-38
1.9224101 -1.4781274 -1.0261129 1.281305e-38
1.9342626 -1.4521785 -1.0243376 1.0417054e-38
1.9496173 -1.4335632 -1.0249745 9.4014445e-39
1.9666507 -1.4283985 -1.0378004 8.8486267e-39
1.9862195 -1.4132953 -1.0356029 8.6642368e-39
2.0104074 -1.4082043 -1.0398265 9.1223381e-39
2.0240824 -1.4063587 -1.0406469 1.2893679e-38
2.0378549 -1.4082742 -1.0397893 1.6303808e-38
1.9176865 -1.4777544 -0.99372727 1.2812693e-38
1.9337792 -1.4525355 -0.99392122 1.0968424e-38
1.950732 -1.4266192 -0.99447733 9.6773224e-39
1.9629931 -1.410296 -0.99759793 9.1245003e-39
1.993955 -1.4101958 -1.0073024 8.8479078e-39
2.0183544 -1.4077646 -1.0089531 9.1241402e-39
2.0268207 -1.4024686 -1.0094736 1.2614955e-38
2.0411239 -1.409512 -1.024959 1.5288587e-38
1.9280788 -1.5037777 -0.96569878 1.3638478e-38
1.9190626 -1.4706233 -0.95103216 1.2353162e-38
1.9235436 -1.4808422 -0.97107798 1.2443917e-38
1.9219579 -1.4614177 -0.95337647 1.1245382e-38
1.9349462 -1.452845 -0.96615851 1.0877307e-38
1.9530479 -1.428461 -0.96526521 1.0414167e-38
1.9702824 -1.4136066 -0.96969342 9.3099748e-39
1.9993044 -1.4134244 -0.9779554 8.6642382e-39
2.0250955 -1.4143412 -0.97232378 9.124129e-39
2.0498667 -1.4209691 -0.97305268 9.9499534e-39
2.0164728 -1.3971974 -0.97998703 9.9506414e-39
2.0292873 -1.4031415 -0.98298085 9.3971313e-39
1.9335679 -1.5058565 -0.94079584 1.3641373e-38
1.922938 -1.4720908 -0.93344969 1.2171279e-38
1.9318622 -1.4873168 -0.94054645 1.2905255e-38
1.9289445 -1.4571295 -0.9320972 1.0968788e-38
1.9415809 -1.44962 -0.94119024 1.0967338e-38
1.9541663 -1.4298204 -0.9384405 1.0230853e-38
1.9748284 -1.4141828 -0.93836588 9.2174162e-39
2.0054855 -1.4201669 -0.95170498 7.7415602e-39
2.0284338 -1.4222068 -0.95379639 7.9237907e-39
2.0574932 -1.4299048 -0.95925665 8.8435932e-39
2.0767372 -1.4322199 -0.95850497 1.3448243e-38
2.0802946 -1.4253227 -0.95475268 1.7133212e-38
1.9269195 -1.5017849 -0.92098379 1.3458763e-38
1.9228661 -1.480359 -0.89951479 1.2537542e-38
1.9315587 -1.4918873 -0.91744763 1.3736814e-38
1.9317003 -1.4491218 -0.90202731 1.0598924e-38
1.947322 -1.4311029 -0.89828467 1.0414534e-38
1.9607112 -1.4288774 -0.90952843 9.9549952e-39
1.9775937 -1.4127849 -0.9114759 8.8479176e-39
2.0140598 -1.4134479 -0.91806304 7.6475639e-39
2.0405316 -1.4184229 -0.931095 7.5510341e-39
2.0638232 -1.4243944 -0.93868196 9.3928013e-39
2.0296886 -1.4075361 -0.91201216 7.3684421e-39
2.0466404 -1.4054865 -0.91321629 9.0265411e-39
2.071702 -1.4107658 -0.9316349 1.528751e-38
1.9285601 -1.483948 -0.87534314 1.2165884e-38
1.9269522 -1.4485756 -0.8569532 8.3959442e-39
1.936905 -1.4511791 -0.87481976 9.679116e-39
1.9513766 -1.4325496 -0.87469417 1.0599636e-38
1.9680978 -1.4288657 -0.88210422 1.0415965e-38
1.9632539 -1.4100935 -0.86663622 9.6791314e-39
1.9858922 -1.4053321 -0.8800934 8.4787694e-39
2.0044792 -1.392288 -0.8780238 8.1096183e-39
2.0272593 -1.3990366 -0.88792437 8.2932851e-39
2.0555353 -1.3993362 -0.89370358 9.1208892e-39
2.073962 -1.4007671 -0.90779907 1.3813095e-38
2.0689142 -1.3909549 -0.88590318 1.2984056e-38
2.0780659 -1.3909163 -0.90631604 1.7779292e-38
1.9337435 -1.4848133 -0.84268743 1.2720135e-38
1.9284852 -1.449156 -0.84999877 9.5905427e-39
1.9398117 -1.4549437 -0.84431046 9.7723962e-39
1.9381444 -1.4375336 -0.82913554 8.6603062e-39
1.9583393 -1.4293007 -0.84638 9.493643e-39
1.9698427 -1.4082962 -0.84319299 1.0047543e-38
1.9920171 -1.4035697 -0.85231125 8.6638823e-39
2.0092099 -1.3940794 -0.85656047 8.201458e-39
2.0393009 -1.398632 -0.86109525 8.2940011e-39
2.0594332 -1.3931398 -0.86792982 8.5716726e-39
2.0686793 -1.381263 -0.86071253 1.4456679e-38
1.9311606 -1.50106 -0.80934191 1.0042506e-38
1.947184 -1.5094589 -0.82904404 1.1155336e-38
1.9420941 -1.4874501 -0.81304884 1.142976e-38
1.9510438 -1.4992661 -0.82904404 1.1613426e-38
1.9454565 -1.459192 -0.81552869 1.161667e-38
1.9426091 -1.4373144 -0.81174946 9.5869344e-39
1.9563379 -1.4299201 -0.81633568 8.4776974e-39
1.9732566 -1.4046901 -0.81408632 9.9528218e-39
1.9983516 -1.4022903 -0.82046705 8.480577e-39
2.0093493 -1.3910067 -0.82010978 8.2950942e-39
2.0399585 -1.3888723 -0.83391875 8.8457372e-39
2.0534911 -1.3843939 -0.83141422 8.7549835e-39
2.0718288 -1.3817375 -0.83587915 1.2984437e-38
1.9350142 -1.5025194 -0.7918576 1.1338632e-38
1.9332931 -1.4845933 -0.77767295 1.0968791e-38
1.9422303 -1.4854035 -0.78894365 1.0508525e-38
1.9440811 -1.4588821 -0.7735002 1.1336119e-38
1.9516317 -1.4599684 -0.78985953 1.2074769e-38
1.9538637 -1.4271874 -0.78230923 9.4972555e-39
1.9647794 -1.4215919 -0.79535449 7.7404798e-39
1.9622923 -1.4084777 -0.77697742 8.1110532e-39
1.9767641 -1.4041678 -0.78596872 9.3078084e-39
1.994591 -1.4030977 -0.80075496 9.2192211e-39
1.9912078 -1.3886944 -0.77588284 8.4802183e-39
2.0164347 -1.3870854 -0.7945928 8.2943767e-39
2.0346031 -1.372256 -0.78859329 8.4802057e-39
2.0595655 -1.3789929 -0.80306292 9.2134491e-39
2.0808921 -1.3791335 -0.8038283 1.1053374e-38
1.9434925 -1.50573 -0.75339228 1.050025e-38
1.9416057 -1.4827751 -0.74742126 1.2353871e-38
1.9465389 -1.4953587 -0.75688916 1.3553126e-38
1.9481738 -1.4593143 -0.75394839 1.0137572e-38
1.959742 -1.4302492 -0.75246364 1.1430487e-38
1.9713953 -1.4023749 -0.75002915 8.6635264e-39
1.9806223 -1.4006999 -0.76388288 8.7553576e-39
1.9793115 -1.3843622 -0.7456826 8.4809218e-39
1.9957948 -1.3829389 -0.75434297 8.5727671e-39
2.0201049 -1.3816677 -0.76789904 8.2039775e-39
2.0376687 -1.3703228 -0.76334965 8.9397419e-39
2.0648527 -1.3725671 -0.77271777 9.5825792e-39
2.0862617 -1.3771427 -0.78551358 5.4273733e-39
1.9398963 -1.5069581 -0.71786487 1.1697716e-38
1.9494261 -1.5156603 -0.7149269 1.2812693e-38
1.9430218 -1.4931047 -0.72192174 1.3919046e-38
1.9430773 -1.4567894 -0.72139478 1.0601804e-38
1.9590462 -1.4289467 -0.72221637 1.105989e-38
1.9757708 -1.4026333 -0.72099692 9.5872903e-39
1.9858706 -1.3835716 -0.7208454 7.7433581e-39
2.0039272 -1.3780518 -0.72757339 8.1103358e-39
2.0214865 -1.3744347 -0.73710436 8.5709566e-39
2.0162785 -1.3683618 -0.71894336 8.7567842e-39
2.0395179 -1.3676032 -0.73358113 9.0312145e-39
2.0642295 -1.3665627 -0.742365 1.2798248e-38
1.9435942 -1.510049 -0.69055653 1.3180395e-38
1.9434055 -1.4881989 -0.69155705 1.3366234e-38
1.935159 -1.4477645 -0.68611616 1.2353155e-38
1.9383235 -1.4584067 -0.70115858 1.2166977e-38
1.9454148 -1.424095 -0.68098593 8.9397559e-39
1.9540075 -1.4264709 -0.69797736 9.492194e-39
1.9751575 -1.4048051 -0.69221538 1.0785824e-38
1.9930378 -1.3821723 -0.6908204 8.1114246e-39
2.0069942 -1.3769406 -0.70453238 8.2940082e-39
2.0167017 -1.3648689 -0.69635731 8.6620802e-39
2.0455174 -1.3610731 -0.70396584 9.4849955e-39
2.0681543 -1.36562 -0.7177462 1.5840637e-38
2.0655155 -1.3525229 -0.69558561 2.2866677e-38
2.0715661 -1.3590051 -0.71414757 2.3050348e-38
1.9388084 -1.5077655 -0.66102999 1.2534295e-38
1.9328674 -1.4769548 -0.65134543 1.0969489e-38
1.9412264 -1.4933805 -0.66372734 1.1892538e-38
1.9401768 -1.4528853 -0.6585114 1.1706342e-38
1.9497292 -1.4258853 -0.66117823 1.0325566e-38
1.959113 -1.4010218 -0.65392691 8.9386615e-39
1.9747491 -1.3958752 -0.66257268 1.087549e-38
1.994899 -1.3802423 -0.66364908 8.3883758e-39
2.0096922 -1.3627599 -0.65759331 7.9241452e-39
2.0221031 -1.3617917 -0.67250806 8.1114162e-39
2.0536613 -1.3596264 -0.67460746 1.0315098e-38
2.0810843 -1.3626095 -0.67096376 2.341769e-38
1.9292818 -1.5069076 -0.62056494 8.9303896e-39
1.9365736 -1.5030667 -0.64099509 1.1797095e-38
1.9305917 -1.4816607 -0.62509787 1.1614504e-38
1.9375298 -1.4530793 -0.62609726 1.0416682e-38
1.9459703 -1.4245312 -0.62533021 9.8617108e-39
1.9575149 -1.3996512 -0.62654573 9.8645877e-39
1.9736902 -1.3811647 -0.62458068 9.1226912e-39
1.9986078 -1.3751634 -0.63498724 8.2965375e-39
2.0147939 -1.3621451 -0.63827556 7.7415602e-39
2.0333953 -1.3592992 -0.64066744 7.6482814e-39
2.06267 -1.3627577 -0.64671731 1.1509684e-38
2.0734 -1.3555087 -0.65981346 2.341769e-38
2.0842571 -1.363811 -0.65656912 2.341769e-38
2.0182824 -1.2514323 -0.61932862 1.6130637e-38
2.0459905 -1.2595732 -0.63664567 1.6498333e-38
2.0295863 -1.2443101 -0.61714488 1.6592297e-38
2.0514472 -1.2414674 -0.62621766 1.3731734e-38
1.9049566 -1.5916277 -0.58978444 1.4747356e-38
1.9035335 -1.5709658 -0.59222794 1.5114341e-38
1.8890455 -1.5249269 -0.58458972 1.5113988e-38
1.8981898 -1.5483768 -0.59008199 1.5114709e-38
1.8880274 -1.4993709 -0.58634597 1.0783681e-38
1.8841388 -1.4750386 -0.5773083 5.9924147e-39
1.8987372 -1.4712245 -0.58852035 9.0322963e-39
1.9222838 -1.4757475 -0.60361218 1.0781508e-38
1.9164627 -1.4457948 -0.583808 9.1255723e-39
1.9360946 -1.4520875 -0.60304511 1.0600715e-38
1.9283508 -1.4300952 -0.57838917 9.4000124e-39
1.9464242 -1.4247309 -0.59417081 9.0333865e-39
1.9600087 -1.3997046 -0.59542954 1.0324477e-38
1.9777427 -1.376302 -0.59815192 8.3865681e-39
1.9959303 -1.3669151 -0.61005384 7.5579047e-39
1.9913096 -1.3613197 -0.5932045 7.2802276e-39
2.0159602 -1.3649499 -0.60545701 6.6337694e-39
2.0367465 -1.3602406 -0.61225432 7.1865732e-39
2.0700862 -1.3636932 -0.61610514 1.2890797e-38
1.9884465 -1.243103 -0.58821625 1.7965187e-38
2.001164 -1.2268155 -0.58501345 1.4643258e-38
2.0286136 -1.2259386 -0.59811735 1.3903161e-38
2.0477095 -1.2278939 -0.61349171 1.2250827e-38
2.0356059 -1.2169653 -0.58639669 1.2983735e-38
2.0695524 -1.2213093 -0.60723221 1.178948e-38
1.9201511 -1.6311322 -0.56167644 1.4562963e-38
1.9081035 -1.5946981 -0.57268417 1.5112198e-38
1.9155923 -1.6141474 -0.57332021 1.4838834e-38
1.88548 -1.5476329 -0.55008888 1.4924569e-38
1.9041414 -1.5764428 -0.56952083 1.5201884e-38
1.8781879 -1.5127769 -0.54421496 1.556922e-38
1.8850619 -1.5316169 -0.5599618 1.5108964e-38
1.8774793 -1.4913716 -0.5530355 1.4926002e-38
1.8854502 -1.5095841 -0.56378788 1.4649424e-38
1.8796121 -1.4622974 -0.55265975 1.400442e-38
1.8948073 -1.4375434 -0.55395198 8.9386839e-39
1.9125606 -1.4357798 -0.56711507 8.2940152e-39
1.9069653 -1.4232564 -0.54274654 6.079148e-39
1.9312327 -1.4237351 -0.56125313 8.5706006e-39
1.94794 -1.4260061 -0.5765518 9.1245059e-39
1.9438126 -1.4013125 -0.56028658 8.0185031e-39
1.9637489 -1.3955123 -0.56690848 9.9546141e-39
1.9800463 -1.3752617 -0.56943196 7.927748e-39
1.9968964 -1.35821 -0.56971532 5.7125305e-39
2.0201802 -1.3562462 -0.57781506 5.9880328e-39
2.0428321 -1.3551086 -0.58554339 6.3578985e-39
2.0663266 -1.366364 -0.59746373 7.8171869e-39
2.039917 -1.3320167 -0.56947398 1.5665309e-38
2.04742 -1.3453211 -0.58204651 1.0010432e-38
2.0860157 -1.360286 -0.60257792 2.286452e-38
1.9996728 -1.2709024 -0.55638874 2.1668124e-38
2.0479965 -1.3186911 -0.57182223 2.203473e-38
1.9822147 -1.2358713 -0.54752433 1.9715803e-38
1.9866256 -1.2495817 -0.5617314 2.082685e-38
2.0030155 -1.2238221 -0.55937725 1.4362e-38
2.0289435 -1.218853 -0.5664041 1.4832328e-38
2.0461268 -1.2142367 -0.56909454 1.2246876e-38
2.064244 -1.2121327 -0.58115751 1.1972798e-38
1.9137452 -1.6228361 -0.55160928 1.4562245e-38
1.9046092 -1.6050282 -0.53677684 1.4835963e-38
1.889533 -1.5548476 -0.53562105 1.5110043e-38
1.9013373 -1.580602 -0.54006898 1.5110049e-38
1.8749979 -1.5172572 -0.52398485 1.5292998e-38
1.8855242 -1.5383017 -0.5312413 1.5017497e-38
1.871231 -1.4896215 -0.52215439 1.4556512e-38
1.8812181 -1.4635377 -0.52155972 1.4740543e-38
1.8911598 -1.4349587 -0.52248991 1.2254506e-38
1.9114916 -1.4208913 -0.52398133 8.2918628e-39
1.9289604 -1.4158813 -0.53194195 7.4649846e-39
1.9445218 -1.3938034 -0.53243029 7.3724246e-39
1.9683497 -1.3916197 -0.54723632 1.0322315e-38
1.9576088 -1.3668649 -0.5267908 8.2018279e-39
1.9798275 -1.3708401 -0.54744774 8.2032517e-39
1.9712785 -1.3479487 -0.52712929 7.9245236e-39
1.9969263 -1.3449428 -0.54103625 7.1840817e-39
2.0104928 -1.332548 -0.53900898 8.1056708e-39
2.037375 -1.3293475 -0.54401189 1.086398e-38
2.0468841 -1.315421 -0.54518646 1.8783773e-38
1.9815389 -1.2426872 -0.52655137 1.8977889e-38
1.9905857 -1.2496675 -0.53717035 1.8057021e-38
1.9872372 -1.2288539 -0.5163433 1.4551059e-38
2.0110288 -1.2268776 -0.53388995 1.4552486e-38
2.033417 -1.220547 -0.54610878 1.4095118e-38
2.0261149 -1.2099552 -0.53214985 1.3076999e-38
2.043088 -1.2126129 -0.54581285 1.2430546e-38
1.9032699 -1.6259729 -0.50890642 1.4010141e-38
1.8909163 -1.5904429 -0.49688396 1.5292987e-38
1.8995124 -1.6066855 -0.50967354 1.4651923e-38
1.8881643 -1.5640295 -0.50117755 1.5201157e-38
1.8783952 -1.5265688 -0.4977597 1.5475951e-38
1.8708272 -1.4854029 -0.48813781 1.2993511e-38
1.8745372 -1.4973527 -0.49469292 1.4556153e-38
1.8786134 -1.4683106 -0.48292574 1.1511168e-38
1.8876591 -1.4629838 -0.49738416 1.4280277e-38
1.8981469 -1.4379553 -0.49207991 1.4096262e-38
1.9156096 -1.4135848 -0.49360242 1.0590638e-38
1.9349507 -1.4131892 -0.51221645 1.3727455e-38
1.9363935 -1.3929321 -0.48710996 1.2900212e-38
1.9446534 -1.3931043 -0.50389856 1.2898781e-38
1.9587411 -1.3668213 -0.50143814 1.2160852e-38
1.978781 -1.3460196 -0.50461584 1.1515834e-38
2.0048604 -1.3398604 -0.50716585 1.0314053e-38
2.0213959 -1.3316702 -0.50965661 9.5793632e-39
2.0401626 -1.3247762 -0.51704109 1.2430219e-38
2.0245154 -1.2951232 -0.51514202 1.9443158e-38
1.9754112 -1.2411935 -0.49144816 1.5114674e-38
1.9900244 -1.2262605 -0.49409172 8.9343161e-39
2.0140791 -1.2230537 -0.50573516 1.2618162e-38
2.0218644 -1.2097446 -0.5166384 1.2802565e-38
1.8924327 -1.614518 -0.46559021 1.5018195e-38
1.9056318 -1.6340467 -0.48288807 1.4652281e-38
1.8905616 -1.5932257 -0.4711045 1.4926002e-38
1.9003794 -1.6123792 -0.48522285 1.5018559e-38
1.8914353 -1.5668552 -0.47266495 1.5292997e-38
1.8818874 -1.5299383 -0.46451566 1.5385192e-38
1.8712597 -1.4931242 -0.45896745 1.5109681e-38
1.8756418 -1.5089599 -0.47286886 1.5661785e-38
1.8752141 -1.4633242 -0.45813355 1.1054872e-38
1.8954209 -1.4589078 -0.46959525 1.2706471e-38
1.894379 -1.4431063 -0.45824087 1.3539103e-38
1.9051269 -1.437132 -0.4638035 1.4831291e-38
1.9154005 -1.4117265 -0.46377751 1.1238189e-38
1.9363092 -1.3888443 -0.46570113 1.2528191e-38
1.951272 -1.37176 -0.46611482 1.262184e-38
1.9641881 -1.3632184 -0.47129211 1.2436004e-38
1.9820416 -1.3455493 -0.47331393 1.0317644e-38
2.0101376 -1.3441285 -0.48002991 9.4875207e-39
1.9892937 -1.3040069 -0.46064502 1.0404811e-38
2.0193734 -1.3285425 -0.48387542 9.7608762e-39
1.9638693 -1.2622529 -0.45425943 2.0450485e-38
1.9728612 -1.272428 -0.46432009 1.6022955e-38
1.9672648 -1.2487824 -0.45557913 1.9896593e-38
1.9806261 -1.2409256 -0.46527705 1.5109624e-38
1.996967 -1.232936 -0.46724296 8.5705796e-39
2.0143595 -1.233481 -0.47260821 9.6733034e-39
1.8961387 -1.6159215 -0.44877568 1.5202588e-38
1.9061315 -1.6334071 -0.45259795 1.5202586e-38
1.8925136 -1.5980699 -0.44639239 1.4924927e-38
1.8874813 -1.5587119 -0.43831646 1.5384465e-38
1.8902683 -1.57436 -0.44733629 1.4832016e-38
1.8808798 -1.5280323 -0.43683979 1.5293351e-38
1.8744102 -1.4918562 -0.43370989 1.5385549e-38
1.8843004 -1.5122387 -0.43358555 1.5384473e-38
1.868512 -1.4518059 -0.42139113 1.0872291e-38
1.8722564 -1.4618996 -0.43456256 1.1702402e-38
1.8731776 -1.4394855 -0.42139113 8.5645176e-39
1.894362 -1.4459798 -0.43387026 1.0865429e-38
1.9121652 -1.4364777 -0.43685919 1.3634183e-38
1.9201204 -1.4150348 -0.43751389 1.3636348e-38
1.922397 -1.3904127 -0.42624462 1.1426893e-38
1.9329339 -1.3869697 -0.44129673 1.1237088e-38
1.9532647 -1.3674314 -0.43980309 1.2896614e-38
1.9735469 -1.3579899 -0.44201279 9.8588297e-39
1.9863895 -1.3451998 -0.44616956 9.9470625e-39
2.0089803 -1.3413553 -0.46154499 1.0037834e-38
1.9494466 -1.2923901 -0.42261186 1.4272687e-38
1.9785912 -1.3181185 -0.43831646 1.1222003e-38
1.9961886 -1.3176172 -0.45642751 9.4756489e-39
1.9400693 -1.2623116 -0.42219257 1.8699845e-38
1.9480648 -1.2628897 -0.43427947 1.7776453e-38
1.9462013 -1.2487855 -0.41818538 1.6766619e-38
1.9664792 -1.246079 -0.43278778 1.4737233e-38
1.9882013 -1.2391163 -0.43715933 1.2615292e-38
2.0031562 -1.2336704 -0.44594076 1.3725959e-38
1.8954078 -1.6181397 -0.41928166 1.4833092e-38
1.8936021 -1.5981647 -0.41390756 1.492457e-38
1.885619 -1.562206 -0.40931898 1.5016764e-38
1.8925163 -1.5817095 -0.42737314 1.5383034e-38
1.8826078 -1.5165852 -0.3945379 1.5292621e-38
1.8836362 -1.531757 -0.4094573 1.4923851e-38
1.8773768 -1.493053 -0.40394834 1.5109674e-38
1.8718138 -1.4558537 -0.39759168 1.2164451e-38
1.8741049 -1.4724612 -0.40739486 1.4924208e-38
1.8793384 -1.4382219 -0.39527774 8.3837039e-39
1.9033298 -1.4400632 -0.40549991 1.0405171e-38
1.9195575 -1.4360801 -0.40812412 1.2896253e-38
1.9266208 -1.4186811 -0.4062413 1.3818929e-38
1.9253395 -1.3917872 -0.41250369 1.2345247e-38
1.9386004 -1.3895457 -0.40248626 1.1885341e-38
1.954794 -1.3676196 -0.4100979 1.1607677e-38
1.9787244 -1.3584884 -0.42071876 9.2116428e-39
1.9549915 -1.3268868 -0.39236623 1.3075531e-38
1.9683093 -1.3430458 -0.40429428 9.576108e-39
1.984874 -1.3499346 -0.42370155 9.3020532e-39
1.9323218 -1.2854023 -0.39371768 1.8423626e-38
1.9411713 -1.2996472 -0.40095124 1.5567008e-38
1.9791006 -1.3255826 -0.42507914 1.4087204e-38
1.938465 -1.2631683 -0.39656585 1.7041043e-38
1.9515579 -1.2465876 -0.40023318 1.3446145e-38
1.9742076 -1.2439413 -0.40228978 1.3172063e-38
1.9935331 -1.2415524 -0.41779101 1.4742969e-38
1.9014028 -1.6216415 -0.3902317 1.4556859e-38
1.8911148 -1.5876579 -0.38040316 1.4832729e-38
1.8946397 -1.6044451 -0.38478515 1.4556861e-38
1.8908995 -1.564088 -0.38034862 1.4740537e-38
1.8858043 -1.5194999 -0.37747464 1.5016404e-38
1.8882289 -1.5389011 -0.37793419 1.4373191e-38
1.870486 -1.4807281 -0.37009922 1.5384819e-38
1.8820192 -1.5020189 -0.36972055 1.5569216e-38
1.8690162 -1.4598825 -0.36428487 1.345267e-38
1.8827087 -1.4361755 -0.36466277 9.4886179e-39
1.9054421 -1.432934 -0.37513894 9.2084227e-39
1.9250573 -1.4365646 -0.38557255 1.1971066e-38
1.8973471 -1.4204636 -0.35407048 8.7435027e-39
1.9197869 -1.4229198 -0.36596045 1.1237801e-38
1.9324803 -1.4189961 -0.38251722 1.3265398e-38
1.9333243 -1.3988451 -0.37021497 1.308352e-38
1.9453573 -1.3915854 -0.37842259 1.2069015e-38
1.9596812 -1.3704537 -0.38086203 1.086867e-38
1.9120913 -1.3025417 -0.35505968 1.9528892e-38
1.9279838 -1.3228308 -0.35959435 1.6122689e-38
1.9462278 -1.3267623 -0.38373572 1.1508244e-38
1.9601642 -1.3467627 -0.38120773 1.215831e-38
1.9137026 -1.2841555 -0.35536945 1.8700205e-38
1.9268564 -1.2915407 -0.37577513 1.8886032e-38
1.926263 -1.2641476 -0.35651696 1.5843937e-38
1.9409907 -1.2587888 -0.36743271 1.4091867e-38
1.9844404 -1.2664644 -0.36630592 1.0409805e-38
2.0260544 -1.2921783 -0.37614638 8.1866897e-39
2.0453343 -1.2993814 -0.38036373 1.527852e-38
1.9574244 -1.2518616 -0.36903062 1.1881329e-38
1.9783696 -1.2534683 -0.37878641 1.2341938e-38
1.993515 -1.2586937 -0.38120776 1.351312e-38
1.8962421 -1.5899025 -0.35668632 1.5014966e-38
1.9024137 -1.6048089 -0.35339221 1.4739819e-38
1.8952075 -1.5641248 -0.35012177 1.473982e-38
1.8910793 -1.524565 -0.34893239 1.5014968e-38
1.8954387 -1.5398332 -0.34792611 1.5015685e-38
1.8720798 -1.4896193 -0.33079886 1.5385907e-38
1.8831406 -1.5032001 -0.34714872 1.5568496e-38
1.8642074 -1.4486011 -0.32558945 1.2527118e-38
1.8682059 -1.4627428 -0.33676058 1.3636705e-38
1.8685009 -1.4386642 -0.32348442 1.2072957e-38
1.8837092 -1.4365283 -0.33696637 1.0686079e-38
1.8988752 -1.420424 -0.33498877 8.1035269e-39
1.924487 -1.4168468 -0.34501898 1.1421478e-38
1.9400123 -1.3947655 -0.34565571 1.1332169e-38
1.9498872 -1.3884252 -0.35938367 1.114668e-38
1.9075621 -1.3355153 -0.32348442 1.1236019e-38
1.9277073 -1.3509587 -0.33804175 1.196602e-38
1.9444252 -1.3676212 -0.34693021 1.0961579e-38
1.9549646 -1.3735648 -0.3615661 1.0682842e-38
1.9045765 -1.3130831 -0.32457376 1.2715089e-38
1.9168711 -1.3253866 -0.34099913 1.4924878e-38
1.9087963 -1.2830836 -0.32708013 1.3543037e-38
1.9264077 -1.2623271 -0.33034474 1.2528868e-38
1.9499255 -1.257556 -0.33791903 1.1698725e-38
1.97816 -1.2747909 -0.3351227 9.9509651e-39
2.0093422 -1.2897717 -0.35889256 8.9328896e-39
2.0319772 -1.3030854 -0.35260326 9.0182468e-39
2.0498676 -1.3014433 -0.36363751 1.8612326e-38
1.9617461 -1.2546721 -0.34765899 1.004711e-38
1.9122331 -1.6239116 -0.32931572 1.4279568e-38
1.9061142 -1.5887934 -0.31918061 1.4833436e-38
1.9091973 -1.6063027 -0.32423037 1.4372472e-38
1.8958815 -1.5602257 -0.31915867 1.4924206e-38
1.8962135 -1.5280383 -0.31607589 1.5293351e-38
1.9005791 -1.5447769 -0.3201004 1.4741255e-38
1.8705759 -1.4869542 -0.30994463 1.5292279e-38
1.8865265 -1.5125599 -0.29785302 1.5205816e-38
1.862334 -1.4540632 -0.30341694 1.3174645e-38
1.8721231 -1.4326546 -0.29852575 1.1606598e-38
1.8887724 -1.4329311 -0.31051233 1.0778635e-38
1.905893 -1.4140506 -0.30782434 8.4741016e-39
1.9249262 -1.4089857 -0.32291365 1.0775387e-38
1.9019432 -1.3657632 -0.30032924 1.1976088e-38
1.9133649 -1.3834229 -0.30693817 1.1236016e-38
1.9249291 -1.3961415 -0.32040575 1.1698432e-38
1.8936366 -1.3389032 -0.29979971 1.2343075e-38
1.8862486 -1.3123287 -0.28596532 1.2992039e-38
1.8975689 -1.3109609 -0.29802755 1.3541264e-38
1.9076886 -1.2846557 -0.29739925 1.1699867e-38
1.9274147 -1.2636455 -0.3022607 8.7539129e-39
1.9555131 -1.2660537 -0.30951861 7.9230578e-39
2.0100317 -1.3021469 -0.32303077 7.3652163e-39
2.0359266 -1.3061007 -0.32539424 1.2986616e-38
2.0608511 -1.3087105 -0.34836787 2.2682279e-38
1.9072735 -1.6014647 -0.28761494 1.4095167e-38
1.9136654 -1.6074725 -0.30474249 1.4555071e-38
1.9049762 -1.5674313 -0.28912631 1.5016398e-38
1.9022228 -1.5334828 -0.28259701 1.5476659e-38
1.9065096 -1.5463375 -0.29422328 1.5291905e-38
1.863762 -1.4784957 -0.28243661 1.501964e-38
1.8846852 -1.507236 -0.27392685 1.5660334e-38
1.8585782 -1.4540179 -0.27023864 1.3358326e-38
1.8753519 -1.4316922 -0.27068171 1.1606239e-38
1.8926631 -1.4266255 -0.28493223 1.0962676e-38
1.890219 -1.4191376 -0.26664895 1.1145261e-38
1.9083332 -1.4128847 -0.27751592 1.0223665e-38
1.9017106 -1.3711505 -0.26961714 1.2250179e-38
1.9145128 -1.3899231 -0.27953815 1.2345952e-38
1.8803583 -1.3317814 -0.26267123 1.3358311e-38
1.8896079 -1.3396668 -0.2773293 1.2620392e-38
1.8864301 -1.3066477 -0.26478314 1.2804784e-38
1.899213 -1.3073534 -0.28123268 1.253036e-38
1.8993208 -1.2879993 -0.26280719 1.2159769e-38
1.9131242 -1.2808855 -0.27041829 1.0778275e-38
2.01791 -1.3111942 -0.29270595 6.7212734e-39
1.9332978 -1.2682611 -0.27286732 9.2138107e-39
1.9598649 -1.2729887 -0.27529061 7.4620881e-39
1.9870083 -1.2923779 -0.27358669 6.0769942e-39
2.0368423 -1.3061527 -0.29871881 1.5107469e-38
1.9091955 -1.6021922 -0.26304412 1.4095523e-38
1.9028978 -1.5576704 -0.2522921 1.4830572e-38
1.9077331 -1.5744494 -0.26165733 1.4463226e-38
1.8856721 -1.5216972 -0.24828088 1.5385541e-38
1.8966672 -1.5384794 -0.25499505 1.5568137e-38
1.8650473 -1.4812938 -0.23389851 1.4833459e-38
1.8791051 -1.50372 -0.25231078 1.5476666e-38
1.8514098 -1.4441262 -0.22616285 1.3544512e-38
1.8581227 -1.4563794 -0.24127048 1.3819303e-38
1.8524051 -1.4316807 -0.22783683 1.1145984e-38
1.8767573 -1.4322731 -0.24147759 1.0685718e-38
1.9027596 -1.4281245 -0.24261756 1.1053783e-38
1.8996861 -1.4088473 -0.24454631 1.2344143e-38
1.9102399 -1.4139656 -0.24946761 1.0685002e-38
1.896474 -1.3726509 -0.24106181 1.3911124e-38
1.9115084 -1.3965726 -0.25531197 1.2247643e-38
1.8792782 -1.3338203 -0.23466018 1.3081727e-38
1.8869891 -1.3072153 -0.23473765 1.1330733e-38
1.9051923 -1.2855726 -0.23418707 1.031729e-38
1.9257585 -1.2810088 -0.24164167 9.30457e-39
1.9712795 -1.2935005 -0.25148663 8.1049169e-39
1.9904625 -1.3043814 -0.25056264 5.9851573e-39
2.0187974 -1.3135775 -0.26069289 7.3670226e-39
2.0303612 -1.3195587 -0.27432248 6.9020998e-39
1.9424264 -1.2770452 -0.24684714 8.749227e-39
1.970786 -1.28627 -0.26430961 7.7311542e-39
2.0283415 -1.3078734 -0.25630334 1.1314496e-38
2.0437491 -1.3081841 -0.26906323 1.8246443e-38
1.9062749 -1.5977246 -0.23101701 1.3634546e-38
1.9067386 -1.5627035 -0.22948937 1.4739817e-38
1.909022 -1.5809408 -0.23225854 1.4187718e-38
1.8879002 -1.5201924 -0.22208481 1.5476661e-38
1.9027619 -1.5460979 -0.22662923 1.5292262e-38
1.8661853 -1.4870222 -0.21292989 1.5201871e-38
1.8558116 -1.4482852 -0.20244808 1.1424725e-38
1.8608475 -1.4560277 -0.21006414 1.2529997e-38
1.8596381 -1.4381802 -0.20244807 9.8570347e-39
1.8839564 -1.4335585 -0.21315987 9.6719274e-39
1.9069566 -1.4297138 -0.22357599 1.0777542e-38
1.9028052 -1.4116014 -0.20561299 1.1418614e-38
1.9173051 -1.4180785 -0.22241409 1.1974299e-38
1.882061 -1.3612796 -0.20014648 1.4371395e-38
1.9064425 -1.3845898 -0.22280076 1.2068652e-38
1.8737813 -1.3335099 -0.19026862 1.4462504e-38
1.8824308 -1.3364143 -0.20767227 1.206831e-38
1.8799636 -1.3090736 -0.20245579 1.1791356e-38
1.890626 -1.3068484 -0.20272487 1.1424007e-38
1.9052552 -1.2805454 -0.20407684 9.5804464e-39
1.940047 -1.2818907 -0.21351129 7.2780612e-39
1.962871 -1.2905086 -0.21088161 6.1702787e-39
1.9975153 -1.3082911 -0.22735845 6.7216462e-39
2.0140314 -1.3103573 -0.23088764 8.1971434e-39
1.9213006 -1.2712308 -0.20863453 8.5723803e-39
1.9521139 -1.2830094 -0.22560115 5.6199677e-39
2.0272732 -1.3094809 -0.23390988 1.1782322e-38
2.0457299 -1.3052586 -0.23918726 2.1662722e-38
1.9100907 -1.5996871 -0.19984975 1.4001882e-38
1.9061388 -1.5680511 -0.1947743 1.437104e-38
1.9138378 -1.5845628 -0.20770641 1.4463583e-38
1.8887331 -1.5296026 -0.18938269 1.538303e-38
1.8977422 -1.545123 -0.2044203 1.455578e-38
1.8684371 -1.4907206 -0.18448812 1.5384825e-38
1.8506262 -1.4492627 -0.17469236 1.1516207e-38
1.8595735 -1.469968 -0.19417214 1.4553645e-38
1.8615555 -1.4283175 -0.17347784 1.0318011e-38
1.8798988 -1.4289348 -0.18944627 9.4882564e-39
1.8828942 -1.399412 -0.16842255 1.1424733e-38
1.8929293 -1.4093696 -0.18276682 1.0314781e-38
1.8707222 -1.355782 -0.16894105 1.1974304e-38
1.8778735 -1.3694398 -0.17322345 1.2802986e-38
1.8919357 -1.3865786 -0.19106284 1.4184487e-38
1.8716302 -1.3332121 -0.1713517 1.2250524e-38
1.8814018 -1.3099972 -0.16978662 1.2435989e-38
1.8989209 -1.3037086 -0.17452873 1.2713664e-38
1.9155686 -1.2872086 -0.17623374 9.3964181e-39
1.9370658 -1.2807124 -0.18414235 7.2773325e-39
1.9825848 -1.2977817 -0.2001947 7.1804733e-39
2.0010743 -1.3048227 -0.19907409 8.2868153e-39
2.0181847 -1.3111924 -0.20443279 8.7524696e-39
1.9523368 -1.2823395 -0.18213111 6.8156369e-39
1.9787968 -1.2929569 -0.1832426 7.6414459e-39
2.0051117 -1.302773 -0.18613324 8.744918e-39
2.0335701 -1.3085284 -0.20286983 1.6764109e-38
2.0490792 -1.3091018 -0.21576397 2.1756713e-38
1.9084337 -1.5968553 -0.17144594 1.2804428e-38
1.8954186 -1.5535628 -0.16172579 1.4186995e-38
1.9050722 -1.5755354 -0.16838495 1.3081009e-38
1.8821993 -1.5201663 -0.14666303 1.520186e-38
1.8922936 -1.5377933 -0.16215433 1.5384461e-38
1.8748831 -1.4990293 -0.15252902 1.5200792e-38
1.8583367 -1.4582636 -0.14820236 1.2807312e-38
1.8659121 -1.4259439 -0.14868516 1.1237817e-38
1.8822392 -1.4027855 -0.14811923 1.1052704e-38
1.8890531 -1.412814 -0.16307911 9.5948335e-39
1.8769537 -1.3608196 -0.13664499 1.3543075e-38
1.8810389 -1.373275 -0.14792664 1.2990257e-38
1.8740257 -1.3337771 -0.13975769 1.0686086e-38
1.8831153 -1.3034647 -0.14108552 9.9488646e-39
1.9057089 -1.2991008 -0.15451793 1.08694e-38
1.8997856 -1.2892698 -0.13612434 1.0039624e-38
1.9208584 -1.286773 -0.14912918 1.0225814e-38
1.9426363 -1.283972 -0.15714151 8.6631592e-39
1.9323919 -1.2708347 -0.13906534 9.397846e-39
1.9549799 -1.2774668 -0.15249881 7.6432494e-39
1.9827297 -1.2874817 -0.16278718 7.9216243e-39
2.0159502 -1.3019723 -0.1704862 1.3624417e-38
2.0325708 -1.3004501 -0.17439058 2.2218058e-38
1.9112976 -1.5990418 -0.14045058 1.3268286e-38
1.8971908 -1.5659306 -0.12826239 1.3446555e-38
1.9050249 -1.5768349 -0.14240238 1.252496e-38
1.8821871 -1.5230371 -0.12456351 1.50164e-38
1.8901269 -1.5446571 -0.13071658 1.4925636e-38
1.8672676 -1.4818481 -0.1065579 1.5016044e-38
1.8769878 -1.4981575 -0.12587035 1.5108249e-38
1.8609219 -1.4556302 -0.11744651 1.2162293e-38
1.8720101 -1.4308206 -0.11820633 1.1883185e-38
1.8825121 -1.402941 -0.11906254 9.4846606e-39
1.8762339 -1.3633378 -0.11130529 1.3726739e-38
1.8834033 -1.3808323 -0.12021375 1.3817129e-38
1.8772262 -1.3349215 -0.11009597 1.3265402e-38
1.8899295 -1.3059263 -0.10996507 1.1700234e-38
1.906764 -1.2835674 -0.10952869 9.6737154e-39
1.919976 -1.2823915 -0.12301411 9.6722665e-39
1.9202989 -1.2674454 -0.10495829 9.4893199e-39
1.9340646 -1.2682401 -0.11888895 9.120892e-39
1.9652578 -1.27156 -0.12526309 8.1938952e-39
1.9966967 -1.28431 -0.12520985 1.5377928e-38
2.0243015 -1.2977947 -0.13728555 2.0089987e-38
2.0395498 -1.3012928 -0.14906393 2.2402459e-38
1.917217 -1.5998253 -0.10722308 1.3636712e-38
1.9000993 -1.5681419 -0.10162979 1.4001889e-38
1.905193 -1.5833395 -0.11743119 1.2799761e-38
1.8848299 -1.5303111 -0.098562531 1.4649418e-38
1.8699948 -1.4828808 -0.09418498 1.5384103e-38
1.8800325 -1.5016624 -0.093899623 1.5384468e-38
1.8674879 -1.4581778 -0.088022962 1.1976468e-38
1.8694496 -1.4195664 -0.078146458 1.2901655e-38
1.8719121 -1.4307934 -0.090738155 1.2344519e-38
1.8735914 -1.3987837 -0.0784095 8.7488836e-39
1.8834028 -1.3994509 -0.092239551 9.4860801e-39
1.8798733 -1.3689719 -0.082296394 1.4187357e-38
1.8866569 -1.3861022 -0.09938626 1.2522096e-38
1.876881 -1.3348345 -0.079553209 1.3267197e-38
1.8910334 -1.3088312 -0.079732537 1.2620746e-38
1.908783 -1.283383 -0.082441278 1.1424363e-38
1.9220381 -1.2688088 -0.089033619 9.1205444e-39
1.9407096 -1.2689104 -0.087447084 9.2120086e-39
1.9692558 -1.2723347 -0.095157377 9.5674676e-39
2.0040324 -1.2872554 -0.10475395 1.9723713e-38
2.025542 -1.2927024 -0.10774494 2.2771239e-38
1.9144369 -1.596132 -0.078965418 1.3822185e-38
1.9057801 -1.568722 -0.074946806 1.3172127e-38
1.8928127 -1.5283836 -0.069783233 1.5108588e-38
1.903592 -1.5503112 -0.071406841 1.4462492e-38
1.8740854 -1.48443 -0.075625598 1.4741978e-38
1.8863006 -1.5035077 -0.061865229 1.501749e-38
1.866544 -1.4479215 -0.047069158 1.2617158e-38
1.8729403 -1.4635925 -0.061204422 1.2622195e-38
1.8663771 -1.4257985 -0.054817412 1.3175012e-38
1.868695 -1.3941423 -0.051620021 9.6704798e-39
1.875551 -1.3667866 -0.051873889 1.3632747e-38
1.8719412 -1.3445048 -0.037195083 1.41913e-38
1.881264 -1.3346518 -0.049881861 1.3359397e-38
1.8950461 -1.3089606 -0.049492385 1.1883178e-38
1.9157 -1.2903574 -0.055650208 1.2160492e-38
1.9358976 -1.2861376 -0.054208934 1.1147055e-38
1.9472858 -1.2722532 -0.060156517 9.2116527e-39
1.9770645 -1.2742537 -0.065212347 1.3813848e-38
2.0105481 -1.2882721 -0.07410267 2.2495002e-38
2.0301208 -1.2953348 -0.087178215 2.2956708e-38
1.9177611 -1.5951777 -0.049773008 1.3728543e-38
1.914207 -1.5726659 -0.048661191 1.1976105e-38
1.9208157 -1.5892556 -0.046551198 1.3080286e-38
1.8980302 -1.5304743 -0.038179286 1.418447e-38
1.9066572 -1.555115 -0.036333684 1.1143445e-38
1.8924345 -1.5025444 -0.034447491 1.4926003e-38
1.8712542 -1.4525741 -0.021389058 1.2805505e-38
1.8798838 -1.4719969 -0.033702862 1.3544154e-38
1.868668 -1.4290549 -0.025963029 1.3266479e-38
1.8598599 -1.3845972 -0.013266273 1.160479e-38
1.8651258 -1.3977246 -0.021945337 1.0224378e-38
1.8655946 -1.3613552 -0.015264661 1.3081727e-38
1.8709621 -1.3741766 -0.031368628 1.1977548e-38
1.8752173 -1.3419372 -0.015747113 1.2527472e-38
1.8899831 -1.3326106 -0.020968102 1.3359751e-38
1.9008205 -1.3091077 -0.020513957 1.0410559e-38
1.9254603 -1.2950249 -0.023855656 1.2251596e-38
1.941896 -1.2879603 -0.032028913 1.1976811e-38
1.9550997 -1.2738165 -0.032160893 1.1790241e-38
1.9868343 -1.2755295 -0.031815846 2.2219141e-38
2.0136647 -1.2921444 -0.04610813 2.3140386e-38
1.930192 -1.6023874 -0.018675776 1.4096244e-38
1.9210868 -1.5720208 -0.017428398 1.2531804e-38
1.9257865 -1.5911379 -0.02399846 1.4186642e-38
1.908823 -1.5320698 -0.015289292 1.4092272e-38
1.9206041 -1.5521985 -0.0077937762 1.1880655e-38
1.8890846 -1.4901099 -0.0075745075 1.4741965e-38
1.9020203 -1.5093127 -0.0058580767 1.510787e-38
1.8761021 -1.4537725 -0.00035158661 1.3540908e-38
1.8823067 -1.4712024 0.0012612867 1.3540914e-38
1.8779048 -1.4339801 0.0057801008 1.4096963e-38
1.8647009 -1.3888116 0.0006511645 1.2433124e-38
1.8724566 -1.3987718 0.01151919 1.2804422e-38
1.8552915 -1.3466405 0.0045684762 1.4001165e-38
1.865477 -1.3633409 0.013744976 1.3543431e-38
1.8779659 -1.335243 0.011401942 1.1699512e-38
1.8937685 -1.3129807 0.011221749 1.0778635e-38
1.9114261 -1.3052816 0.0096839881 9.948503e-39
1.9305024 -1.2955019 0.0049789399 1.1606589e-38
1.9477823 -1.2892361 -0.0023953456 1.2068655e-38
1.9590313 -1.2775829 -0.0022964175 1.2896227e-38
1.9915859 -1.280333 -0.0092467042 2.1756724e-38
1.9424289 -1.6085678 0.0082890727 1.4372114e-38
1.9310029 -1.5732012 0.0089801475 1.3545593e-38
1.9402786 -1.5890055 0.01577035 1.4556143e-38
1.9156051 -1.5328166 0.0048981821 1.3539108e-38
1.9292353 -1.5521783 0.014513958 1.3079567e-38
1.9135588 -1.5149832 0.022292471 1.4647982e-38
1.8939282 -1.4698808 0.029711217 1.4186279e-38
1.8856952 -1.4323643 0.033444993 1.3912213e-38
1.8834993 -1.4018754 0.036920249 1.3911124e-38
1.8789091 -1.3634099 0.030484317 1.391185e-38
1.8899047 -1.3731045 0.042184066 1.3910767e-38
1.8863089 -1.3472416 0.030900866 1.2989178e-38
1.902976 -1.3440623 0.039949115 1.2805501e-38
1.8998766 -1.3176636 0.03331849 1.10545e-38
1.9142778 -1.3135478 0.038747668 1.004106e-38
1.9323903 -1.2971936 0.032279994 1.1329648e-38
1.9582962 -1.2932404 0.032658242 1.0133979e-38
1.9659373 -1.2875934 0.024307681 9.2916192e-39
1.9945796 -1.2891502 0.021875184 2.0557092e-38
1.9537164 -1.6094004 0.034348663 1.4555422e-38
1.9588941 -1.6267997 0.034540761 1.4371392e-38
1.9399333 -1.5704199 0.040236168 1.4187713e-38
1.9474592 -1.5876026 0.037311818 1.437247e-38
1.9411069 -1.5534295 0.042248949 1.4186645e-38
1.9260063 -1.5112805 0.053042173 1.4463229e-38
1.9370906 -1.5317746 0.04935348 1.4554708e-38
1.9019121 -1.4714266 0.052897237 1.4463225e-38
1.8935418 -1.434626 0.060421396 1.4372111e-38
1.9055166 -1.4504468 0.072134495 1.4098041e-38
1.8965508 -1.4052311 0.064311005 1.4002602e-38
1.9042557 -1.3771061 0.065338805 1.3727096e-38
1.9147594 -1.3512064 0.064310424 1.3357232e-38
1.9254949 -1.323258 0.061205007 1.1424716e-38
1.9528023 -1.3223182 0.067233957 1.1146686e-38
1.9456505 -1.3014399 0.051698327 1.1422188e-38
1.9638398 -1.3008633 0.059610426 1.0036021e-38
1.9861184 -1.2992729 0.051462948 1.6404326e-38
1.9742 -1.2913051 0.056134183 1.7513194e-38
1.9985764 -1.2957025 0.045089394 2.240317e-38
1.9596781 -1.6141641 0.057897795 1.4188434e-38
1.9679381 -1.6254294 0.06836807 1.4463219e-38
1.9633969 -1.5896914 0.067584284 1.4463225e-38
1.9510179 -1.5546604 0.060539223 1.4554699e-38
1.963807 -1.5648214 0.072790332 1.4555419e-38
1.9424047 -1.5082768 0.074363708 1.4465023e-38
1.9525578 -1.5303708 0.074288152 1.4371746e-38
1.9158148 -1.4730465 0.072849527 1.4648338e-38
1.9297419 -1.4842507 0.082174122 1.4556134e-38
1.9163758 -1.443464 0.085839987 1.4095514e-38
1.9142663 -1.4090909 0.083943129 1.4002241e-38
1.9279362 -1.4187993 0.094165348 1.4002238e-38
1.9339817 -1.3911265 0.090581052 1.4003676e-38
1.9319253 -1.361107 0.081911959 1.3450505e-38
1.9486873 -1.3621484 0.09157452 1.2989873e-38
1.9395289 -1.3383245 0.077849567 1.290056e-38
1.9577757 -1.3365555 0.082999043 1.1975722e-38
1.9657725 -1.3161274 0.074522391 9.6726434e-39
1.9718475 -1.6209158 0.077097692 1.4463935e-38
1.977186 -1.590574 0.091921017 1.4372108e-38
1.9802712 -1.6115148 0.08767873 1.4371758e-38
1.9730276 -1.5628477 0.097470202 1.4371386e-38
1.9636972 -1.5290136 0.096833169 1.4187354e-38
1.9760022 -1.5464432 0.10809609 1.4277386e-38
1.9477477 -1.4873143 0.10330009 1.4186992e-38
1.9361382 -1.4399642 0.10378185 1.3725653e-38
1.9489387 -1.4618846 0.10904544 1.3726371e-38
1.9440165 -1.41916 0.10378185 1.335795e-38
1.9588255 -1.4310975 0.11509214 1.3540901e-38
1.9530202 -1.3953838 0.10378185 1.3082443e-38
1.9785455 -1.4057117 0.11465592 1.2804768e-38
2.0018878 -1.4029062 0.11282544 1.1331082e-38
1.9597731 -1.3775518 0.10378185 1.299095e-38
1.982968 -1.3824723 0.10513002 1.2530686e-38
2.0188193 -1.392396 0.098828346 1.1238872e-38
2.039197 -1.4046385 0.10218021 1.0501307e-38
2.0602975 -1.4037874 0.097443216 1.3818895e-38
1.9701815 -1.5396125 0.11396831 1.4828759e-38
1.9924815 -1.5243679 0.14031433 1.2532852e-38
1.9692043 -1.483737 0.14382927 1.2808008e-38
1.9809622 -1.5037669 0.12903896 1.3173911e-38
1.96746 -1.4597954 0.14016503 1.3543061e-38
1.9767509 -1.4805498 0.12975127 1.3264676e-38
1.9729726 -1.4335424 0.13874528 1.2621464e-38
1.985667 -1.4164858 0.13224304 1.0777901e-38
2.0126255 -1.4131955 0.13166076 9.1183668e-39
2.0304217 -1.411314 0.12098334 8.935063e-39
2.0309999 -1.3944767 0.13720991 9.9452422e-39
2.0433054 -1.4018424 0.1261704 1.2343752e-38
2.0658817 -1.4125812 0.11537825 1.4190923e-38
2.0399864 -1.3723464 0.13961428 1.2064291e-38
2.0558701 -1.3733851 0.13143732 1.926094e-38
2.0682094 -1.3537855 0.13216935 2.2586482e-38
1.9685454 -1.4893128 0.1594017 1.3636688e-38
1.9815763 -1.5042596 0.14529356 1.2528193e-38
1.9723452 -1.4687858 0.16259626 1.4096232e-38
1.9886199 -1.4780713 0.17312379 1.3635235e-38
1.9859591 -1.438464 0.16470204 1.2527443e-38
2.0029483 -1.4086379 0.16487947 1.3354669e-38
2.0121908 -1.4208542 0.16105935 1.2341956e-38
2.0107489 -1.3833404 0.17089684 1.5197487e-38
2.0269098 -1.3906913 0.15452443 1.3723081e-38
2.0153222 -1.3675133 0.17180052 1.473686e-38
2.0417669 -1.3664788 0.16074967 1.3354296e-38
2.0603199 -1.35971 0.15335706 1.5183813e-38
2.0587163 -1.3442209 0.1716717 1.8053405e-38
2.0735407 -1.3543755 0.15421122 2.1661274e-38
2.0548313 -1.3165685 0.17355418 2.2956353e-38
1.9833376 -1.4607902 0.19158509 9.2987644e-39
1.9944992 -1.4770794 0.18188438 1.1236324e-38
1.985083 -1.4406983 0.1938803 1.3812394e-38
1.9945538 -1.4126101 0.19212298 1.611873e-38
2.0052075 -1.3843507 0.1929294 1.6669737e-38
2.017133 -1.356771 0.1944001 1.4458851e-38
2.0410361 -1.3579372 0.1809753 1.1418565e-38
2.0345747 -1.3321198 0.2015491 1.4918392e-38
2.0503807 -1.3393341 0.1851982 1.5660627e-38
2.0464964 -1.3094192 0.20035826 2.1475804e-38
2.0562115 -1.3174493 0.18427768 2.2957065e-38
