# .PCD v0.7 - Point Cloud Data file format
VERSION 0.7
FIELDS x y z rgb
SIZE 4 4 4 4
TYPE F F F F
COUNT 1 1 1 1
WIDTH 906
HEIGHT 1
VIEWPOINT 0 0 0 1 0 0 0
POINTS 906
DATA ascii
7.1302257 -5.5297537 -1.2579122 3.6878252e-40
7.1060338 -5.5666127 -1.2630789 2.7658689e-40
7.1201057 -5.5349522 -1.2688875 2.7658689e-40
7.0847836 -5.5728893 -1.2630789 2.7658689e-40
7.0654035 -5.5789785 -1.264892 2.7658689e-40
7.0468516 -5.5565901 -1.2688875 2.7658689e-40
7.031714 -5.5335379 -1.2745987 2.7658689e-40
7.0177717 -5.5080094 -1.275039 2.7658689e-40
7.1472087 -5.4641538 -1.2471052 3.6878252e-40
7.1452394 -5.4349976 -1.2470914 4.6097815e-40
7.1346855 -5.5251222 -1.2414492 4.6097815e-40
7.1161156 -5.5008059 -1.2358447 4.6097815e-40
7.1051412 -5.563591 -1.2467619 5.5317378e-40
7.1078854 -5.5330381 -1.2414491 5.5317378e-40
7.0832963 -5.5678539 -1.235884 5.5317378e-40
7.0673585 -5.5725613 -1.235884 9.219563e-40
7.0508108 -5.5502644 -1.2432785 2.7658689e-40
7.0338049 -5.5273471 -1.2469172 2.7658689e-40
7.0277691 -5.5016823 -1.2582787 2.7658689e-40
7.0162439 -5.5028367 -1.2471052 2.7658689e-40
7.1453753 -5.4579468 -1.2135849 7.3756504e-40
7.1446228 -5.43291 -1.2358171 4.6097815e-40
7.1306548 -5.5213413 -1.2167549 5.5317378e-40
7.1312785 -5.4924259 -1.2164676 6.4536941e-40
7.1032357 -5.5285721 -1.2124431 5.5317378e-40
7.081511 -5.561811 -1.2032499 4.6097815e-40
7.0635037 -5.5406227 -1.2140111 2.7658689e-40
7.0655737 -5.5665183 -1.2032499 3.6878252e-40
7.0486159 -5.5454626 -1.2162062 3.6878252e-40
7.0310869 -5.5214624 -1.2136996 2.7658689e-40
7.0147161 -5.4976645 -1.2191715 1.8439126e-40
7.1468639 -5.507163 -1.1701099 5.5317378e-40
7.1461387 -5.4830217 -1.1915543 4.6097815e-40
7.1550665 -5.4505854 -1.1912379 5.5317378e-40
7.1278367 -5.5426531 -1.176055 3.6878252e-40
7.136744 -5.5123615 -1.1810851 3.6878252e-40
7.1065869 -5.5489292 -1.176055 5.5317378e-40
7.0816956 -5.5559168 -1.1742419 3.6878252e-40
7.0672131 -5.5334511 -1.1838291 2.7658689e-40
7.0590119 -5.5065269 -1.1804818 2.7658689e-40
7.04916 -5.4803677 -1.183789 2.7658689e-40
7.0478096 -5.540103 -1.1884021 2.7658689e-40
7.0325794 -5.5165634 -1.1915543 2.7658689e-40
7.0292535 -5.4866223 -1.1856512 1.8439126e-40
7.0100093 -5.4635916 -1.1907197 2.7658689e-40
7.013494 -5.4935265 -1.1968247 1.8439126e-40
7.1563835 -5.4999323 -1.1481594 6.4536941e-40
7.1557426 -5.4757261 -1.1694093 5.5317378e-40
7.135572 -5.5346193 -1.1475002 3.6878252e-40
7.1050992 -5.5438938 -1.1488599 5.5317378e-40
7.0794311 -5.496037 -1.1583366 3.6878252e-40
7.084444 -5.5521846 -1.1597379 4.6097815e-40
7.0813427 -5.5220966 -1.1481594 2.7658689e-40
7.0686159 -5.4992313 -1.1583366 2.7658689e-40
7.0498586 -5.476037 -1.1633043 3.6878252e-40
7.0280313 -5.4824843 -1.1633043 2.7658689e-40
7.0093927 -5.461504 -1.1794454 2.7658689e-40
7.1564403 -5.5221596 -1.116226 4.6097815e-40
7.1656027 -5.4916849 -1.1207211 3.6878252e-40
7.1407995 -5.527874 -1.1216649 4.6097815e-40
7.1182971 -5.5596442 -1.109309 5.5317378e-40
7.0993023 -5.5399122 -1.1205771 8.2976067e-40
7.0814695 -5.5421133 -1.105348 2.7658689e-40
7.074482 -5.5185995 -1.1207211 2.7658689e-40
7.0674047 -5.4951315 -1.1361916 2.7658689e-40
7.0483308 -5.4708643 -1.1353706 2.7658689e-40
7.0232358 -5.5048337 -1.1195827 2.7658689e-40
7.0293846 -5.4770231 -1.138164 2.7658689e-40
7.1816974 -5.2752242 -1.124132 3.6878252e-40
7.1866856 -5.2441797 -1.1407715 3.6878252e-40
7.182919 -5.4243631 -1.1018503 6.4536941e-40
7.1791639 -5.338974 -1.1205729 6.4536941e-40
7.1723108 -5.4286213 -1.107437 4.6097815e-40
7.1549525 -5.5171237 -1.089031 8.2976067e-40
7.1644025 -5.4876204 -1.0987706 7.3756504e-40
7.1406703 -5.548151 -1.0850443 7.3756504e-40
7.1143365 -5.5559292 -1.0850443 4.6097815e-40
7.0912018 -5.5359535 -1.089031 3.6878252e-40
7.0805769 -5.5390921 -1.089031 2.7658689e-40
7.0676208 -5.5151014 -1.0932829 2.7658689e-40
7.0464978 -5.4646578 -1.1018503 2.7658689e-40
7.0304327 -5.4705276 -1.107437 2.7658689e-40
7.1884933 -5.3292847 -1.0861337 1.6595213e-39
7.1772804 -5.3325968 -1.0861337 3.6878252e-40
7.1767869 -5.3052759 -1.1079488 3.6878252e-40
7.1727214 -5.476325 -1.0548695 4.6097815e-40
7.1725283 -5.4529352 -1.0808287 5.5317378e-40
7.1578193 -5.5351248 -1.0455017 5.5317378e-40
7.1609454 -5.5113387 -1.069088 4.6097815e-40
7.1389008 -5.54216 -1.0526913 3.6878252e-40
7.1212926 -5.5204964 -1.056397 3.6878252e-40
7.1131568 -5.5519352 -1.0634756 4.6097815e-40
7.0986519 -5.5276527 -1.058728 3.6878252e-40
7.0790896 -5.5340567 -1.061836 2.7658689e-40
7.0664206 -5.5110373 -1.0713325 3.6878252e-40
7.063468 -5.4818044 -1.0642198 3.6878252e-40
7.04497 -5.4594851 -1.0739167 2.7658689e-40
7.0319309 -5.494463 -1.0808287 1.8439126e-40
7.1875515 -5.3260965 -1.0689141 4.6097815e-40
7.1855702 -5.2933497 -1.0615975 5.5317378e-40
7.1771259 -5.3568687 -1.053497 4.6097815e-40
7.1715207 -5.4722605 -1.0329189 3.6878252e-40
7.1557126 -5.5312243 -1.0230345 5.5317378e-40
7.1620078 -5.5018997 -1.0237629 4.6097815e-40
7.1371312 -5.5361691 -1.0203383 5.5317378e-40
7.1137228 -5.5427732 -1.0187978 3.6878252e-40
7.092299 -5.5240231 -1.0313777 2.7658689e-40
7.0773048 -5.5280137 -1.029202 1.8439126e-40
7.0606461 -5.5046406 -1.0310897 1.8439126e-40
7.0505338 -5.4778228 -1.0254658 2.7658689e-40
7.0418267 -5.4555397 -1.0497075 1.0141519e-39
7.1946754 -5.2560854 -1.0481086 5.5317378e-40
7.1878643 -5.2872286 -1.0345592 1.0141519e-39
7.1832514 -5.25946 -1.0481086 1.751717e-39
7.1752596 -5.3505507 -1.0193712 4.6097815e-40
7.1705508 -5.4917116 -0.98568994 6.4536941e-40
7.1703205 -5.4681959 -1.0109683 4.6097815e-40
7.1791043 -5.4353886 -1.0033207 4.6097815e-40
7.156724 -5.5249543 -0.99337757 3.6878252e-40
7.1356568 -5.531177 -0.99337757 6.4536941e-40
7.109323 -5.5389552 -0.99337757 3.6878252e-40
7.0864425 -5.5198398 -1.002007 1.8439126e-40
7.0755196 -5.5219707 -0.99656796 1.8439126e-40
7.059989 -5.4991274 -1.0027368 1.8439126e-40
7.0499277 -5.4757724 -1.0143933 2.7658689e-40
7.0367632 -5.451787 -1.0236361 1.8439126e-40
7.1827183 -5.2836943 -1.0094522 5.5317378e-40
7.1768079 -5.4036732 -0.9901157 3.6878252e-40
7.1747975 -5.3729267 -0.9821443 3.6878252e-40
7.1696582 -5.4886904 -0.96937299 4.6097815e-40
7.1676192 -5.4590507 -0.96157956 4.6097815e-40
7.1552496 -5.5199623 -0.96641678 4.6097815e-40
7.1341825 -5.526185 -0.96641678 3.6878252e-40
7.115005 -5.5588465 -0.96336687 2.7658689e-40
7.1062593 -5.5341225 -0.96487617 2.7658689e-40
7.086781 -5.5401859 -0.96641678 2.7658689e-40
7.0740323 -5.5169353 -0.96937299 2.7658689e-40
7.0576448 -5.4944792 -0.97621322 2.7658689e-40
7.048717 -5.4716721 -0.99224812 2.7658689e-40
7.1811337 -5.2783298 -0.9804827 3.6878252e-40
7.1794133 -5.2464657 -0.97793305 4.6097815e-40
7.1732559 -5.3677082 -0.95395839 1.4751301e-39
7.1703739 -5.3092146 -0.95985669 4.6097815e-40
7.1664186 -5.4549861 -0.93962896 5.5317378e-40
7.1709714 -5.4277596 -0.95349413 7.3756504e-40
7.1522331 -5.4883623 -0.94217801 3.6878252e-40
7.1271462 -5.52175 -0.93406379 2.7658689e-40
7.1362958 -5.4930696 -0.94217801 3.6878252e-40
7.1091728 -5.5273685 -0.93560445 2.7658689e-40
7.0884829 -5.5071921 -0.94217801 1.8439126e-40
7.0844216 -5.532198 -0.92327952 1.8439126e-40
7.0672326 -5.5134687 -0.94217801 2.7658689e-40
7.0456696 -5.5739455 -0.93664032 3.6878252e-40
7.042779 -5.5463076 -0.93226641 2.7658689e-40
7.0506997 -5.5161619 -0.93129998 2.7658689e-40
7.0212202 -5.5508661 -0.92327952 3.6878252e-40
7.1785984 -5.2697473 -0.93413138 4.6097815e-40
7.1784539 -5.2432175 -0.9603892 9.219563e-40
7.1709046 -5.3358059 -0.93974447 4.6097815e-40
7.1691184 -5.3049636 -0.93689722 1.1063476e-39
7.1655183 -5.4519377 -0.9231661 4.6097815e-40
7.163444 -5.4221811 -0.9147402 4.6097815e-40
7.1516299 -5.4824085 -0.91171962 3.6878252e-40
7.1256714 -5.5167575 -0.90710306 2.7658689e-40
7.1348085 -5.4880342 -0.91498303 3.6878252e-40
7.1046042 -5.5229797 -0.90710306 1.8439126e-40
7.1020403 -5.4944277 -0.89866596 3.6878252e-40
7.0799274 -5.5299072 -0.90530562 2.7658689e-40
7.0629401 -5.5087147 -0.91226351 1.8439126e-40
7.0388851 -5.5152721 -0.90954399 1.8439126e-40
7.0176344 -5.5215487 -0.90954399 1.8439126e-40
7.0012169 -5.470098 -0.9147402 2.7658689e-40
7.1776481 -5.2665286 -0.91674966 3.6878252e-40
7.1704812 -5.3583136 -0.90322381 4.6097815e-40
7.1634173 -5.4448242 -0.88475257 4.6097815e-40
7.1452641 -5.5055428 -0.88014227 3.6878252e-40
7.1542735 -5.4757147 -0.88234901 3.6878252e-40
7.1294637 -5.51021 -0.88014227 2.7658689e-40
7.1030455 -5.5177026 -0.87860167 1.8439126e-40
7.1014457 -5.4924135 -0.887788 2.7658689e-40
7.0795765 -5.5254874 -0.88283837 2.7658689e-40
7.0639601 -5.5023909 -0.88234901 1.8439126e-40
7.0448956 -5.477623 -0.87377727 1.8439126e-40
7.0373974 -5.5102367 -0.88234901 1.8439126e-40
7.0125065 -5.5172234 -0.88053602 2.7658689e-40
7.0032158 -5.4943533 -0.89572781 2.7658689e-40
7.1695561 -5.3551822 -0.88631231 4.6097815e-40
7.1628165 -5.4655266 -0.84427601 3.6878252e-40
7.1622167 -5.4407601 -0.86280197 3.6878252e-40
7.1440845 -5.5015488 -0.85857362 3.6878252e-40
7.1484175 -5.4715319 -0.85297841 3.6878252e-40
7.1276941 -5.5042191 -0.84778929 1.8439126e-40
7.1013603 -5.5119972 -0.84778929 1.8439126e-40
7.0787082 -5.4936543 -0.86059296 1.8439126e-40
7.0797033 -5.516223 -0.83700502 1.8439126e-40
7.0624728 -5.497355 -0.85515398 1.8439126e-40
7.0345078 -5.5053415 -0.85379428 1.8439126e-40
7.0093474 -5.5130463 -0.85515398 2.7658689e-40
7.173326 -5.4842272 -0.81543636 4.6097815e-40
7.1622214 -5.4635124 -0.83339798 4.6097815e-40
7.1519637 -5.4894514 -0.81004423 5.5317378e-40
7.1462841 -5.4682198 -0.83339798 3.6878252e-40
7.1247535 -5.4981399 -0.81327951 2.7658689e-40
7.1303463 -5.4729271 -0.83339798 2.7658689e-40
7.0995908 -5.5060062 -0.81543642 1.8439126e-40
7.0692329 -5.5147018 -0.81408834 1.8439126e-40
7.0559702 -5.4948955 -0.83339798 1.8439126e-40
7.046628 -5.5205646 -0.81004423 1.8439126e-40
7.0311747 -5.5003424 -0.82407403 1.8439126e-40
7.0128751 -5.505435 -0.82252002 2.7658689e-40
7.1507845 -5.4854574 -0.78847557 5.5317378e-40
7.1244502 -5.4932361 -0.78847557 4.6097815e-40
7.0981164 -5.5010142 -0.78847557 1.8439126e-40
7.0665746 -5.5105476 -0.789554 1.8439126e-40
7.0642157 -5.4837003 -0.789886 2.7658689e-40
7.0454483 -5.516571 -0.78847557 1.8439126e-40
7.0270281 -5.4946842 -0.789886 1.8439126e-40
7.0079331 -5.4708643 -0.78597498 1.8439126e-40
7.0113878 -5.5003991 -0.79532504 2.7658689e-40
7.1480665 -5.4811039 -0.76286286 5.5317378e-40
7.1229758 -5.4882436 -0.76151478 5.5317378e-40
7.0966415 -5.4960217 -0.76151478 3.6878252e-40
7.0650406 -5.5053558 -0.76151478 1.8439126e-40
7.0439734 -5.5115786 -0.76151478 1.8439126e-40
7.0274105 -5.4894614 -0.76450402 1.8439126e-40
7.0123925 -5.4662323 -0.76951206 1.8439126e-40
7.0035539 -5.4381995 -0.7597242 2.7658689e-40
6.9911885 -5.4180098 -0.78899342 2.7658689e-40
7.1549869 -5.4981809 -0.72068954 4.6097815e-40
7.1428633 -5.4780273 -0.73994619 4.6097815e-40
7.1262956 -5.5064707 -0.71977329 4.6097815e-40
7.1270628 -5.4826941 -0.73994619 5.5317378e-40
7.0978603 -5.5152159 -0.72149134 4.6097815e-40
7.0849285 -5.4951391 -0.73994619 4.6097815e-40
7.0718732 -5.5217257 -0.71570057 1.8439126e-40
7.0599566 -5.5010676 -0.73275661 1.8439126e-40
7.0422039 -5.5055876 -0.72916186 1.8439126e-40
7.0293655 -5.4830441 -0.73549604 1.8439126e-40
7.016552 -5.4605846 -0.74756151 1.8439126e-40
7.0131578 -5.4309044 -0.73757905 2.7658689e-40
6.9972816 -5.3799648 -0.7566573 2.7658689e-40
7.1699557 -5.4598932 -0.68961936 6.4536941e-40
7.1525979 -5.4939361 -0.69610107 5.5317378e-40
7.1557145 -5.4633756 -0.68602461 1.5673257e-39
7.1264925 -5.501647 -0.69610107 4.6097815e-40
7.0951662 -5.5108995 -0.69610107 4.6097815e-40
7.0695295 -5.5248117 -0.69462353 1.8439126e-40
7.0503783 -5.4944887 -0.68602461 2.7658689e-40
7.0533981 -5.5232368 -0.69610107 2.7658689e-40
7.0404348 -5.4995971 -0.69680887 1.8439126e-40
7.0275807 -5.4770012 -0.70286202 1.8439126e-40
7.0141511 -5.4524555 -0.70366037 1.8439126e-40
7.0125523 -5.428854 -0.72650647 1.8439126e-40
6.9978247 -5.4003029 -0.71077925 1.8439126e-40
6.996048 -5.3757896 -0.73410863 1.8439126e-40
7.165658 -5.4582672 -0.67524028 4.6097815e-40
7.1519465 -5.4878874 -0.66509825 4.6097815e-40
7.1551247 -5.4613786 -0.67524028 5.5317378e-40
7.1311903 -5.5118275 -0.66564435 6.4536941e-40
7.0997238 -5.5168819 -0.66656184 5.5317378e-40
7.0697293 -5.5144672 -0.67650157 2.7658689e-40
7.0578613 -5.4888048 -0.66876966 1.8439126e-40
7.0336933 -5.4961605 -0.66984808 1.8439126e-40
7.0154681 -5.4751039 -0.67566705 2.7658689e-40
7.0022302 -5.4515572 -0.68170977 2.7658689e-40
6.9987092 -5.4217973 -0.67114365 1.8439126e-40
7.1859293 -5.4722538 -0.63730258 4.6097815e-40
7.1726665 -5.4496841 -0.64288729 1.0141519e-39
7.1520882 -5.492857 -0.63347393 5.5317378e-40
7.1299176 -5.514266 -0.63193262 5.5317378e-40
7.0999904 -5.518671 -0.63388091 3.6878252e-40
7.0739861 -5.5111523 -0.63331002 1.8439126e-40
7.0532861 -5.4849453 -0.64288729 1.8439126e-40
7.0322189 -5.491168 -0.64288729 1.8439126e-40
7.014576 -5.4720831 -0.65935004 1.8439126e-40
7.0111494 -5.4422941 -0.64878398 1.8439126e-40
6.9923482 -5.3632636 -0.66646254 1.8439126e-40
7.1925254 -5.4096665 -0.61039907 5.5317378e-40
7.1779199 -5.4416189 -0.61053437 7.3756504e-40
7.1545525 -5.4817123 -0.60528088 5.5317378e-40
7.134315 -5.5305004 -0.58714855 5.5317378e-40
7.1268392 -5.5101957 -0.60719806 5.5317378e-40
7.098248 -5.5127726 -0.60203016 4.6097815e-40
7.0676827 -5.5042629 -0.60083222 1.8439126e-40
7.0501542 -5.4808044 -0.61772394 1.8439126e-40
7.0478435 -5.5044308 -0.59454006 2.7658689e-40
7.0329351 -5.4839001 -0.60783827 1.8439126e-40
7.0165653 -5.4631729 -0.61801368 1.8439126e-40
6.9956813 -5.4115458 -0.61578083 2.7658689e-40
6.9911151 -5.3590884 -0.64391387 1.8439126e-40
6.9733882 -5.3026867 -0.63842428 1.8439126e-40
7.2011108 -5.3751378 -0.59390754 5.5317378e-40
7.1913357 -5.4056382 -0.58864307 6.4536941e-40
7.176445 -5.4366269 -0.58357358 4.6097815e-40
7.1569157 -5.4753799 -0.57729679 6.4536941e-40
7.1333089 -5.5270939 -0.56875521 5.5317378e-40
7.0976639 -5.5085564 -0.57508963 4.6097815e-40
7.0676522 -5.5207062 -0.57256961 1.8439126e-40
7.0417452 -5.5030041 -0.57850415 1.8439126e-40
7.0237079 -5.481741 -0.58357358 1.8439126e-40
7.0107088 -5.4589901 -0.58864307 1.8439126e-40
6.997128 -5.4342833 -0.58841991 2.7658689e-40
6.9950757 -5.4094958 -0.60470825 2.7658689e-40
6.9779449 -5.3550339 -0.60445362 1.8439126e-40
6.9757118 -5.3293376 -0.62123787 2.7658689e-40
7.2108011 -5.3933187 -0.55600905 4.6097815e-40
7.1999102 -5.3710732 -0.57195699 4.6097815e-40
7.1923556 -5.3993139 -0.55872858 5.5317378e-40
7.1705174 -5.4585114 -0.5464322 4.6097815e-40
7.1777515 -5.4313564 -0.55930889 4.6097815e-40
7.1510372 -5.4881115 -0.54765481 4.6097815e-40
7.126595 -5.5232582 -0.53985137 5.5317378e-40
7.1255693 -5.4995441 -0.55242854 4.6097815e-40
7.1063499 -5.5302963 -0.54510665 3.6878252e-40
7.0882721 -5.4996223 -0.54754668 3.6878252e-40
7.0614905 -5.4960566 -0.55098766 1.8439126e-40
7.0430055 -5.4695272 -0.55122066 9.219563e-41
7.0408683 -5.5000343 -0.56246817 2.7658689e-40
7.026329 -5.4751048 -0.55445594 1.8439126e-40
7.0092216 -5.4539547 -0.56144804 1.8439126e-40
6.9956274 -5.4292026 -0.56098169 1.8439126e-40
6.9991913 -5.4591069 -0.57232606 2.7658689e-40
6.9858079 -5.4354172 -0.57744461 1.8439126e-40
6.9755325 -5.3783941 -0.56924874 1.8439126e-40
6.9656992 -5.3541117 -0.58190495 1.8439126e-40
7.2119699 -5.3874984 -0.52881408 8.2976067e-40
7.2186489 -5.3555951 -0.52256823 6.4536941e-40
7.1933761 -5.3929906 -0.52881408 4.6097815e-40
7.1731153 -5.4519334 -0.51756752 5.5317378e-40
7.1790576 -5.4260855 -0.53504419 4.6097815e-40
7.150187 -5.4749088 -0.51563239 5.5317378e-40
7.1280117 -5.5186081 -0.51883042 5.5317378e-40
7.1248794 -5.4908557 -0.50825959 3.6878252e-40
7.1096148 -5.5224552 -0.51094759 4.6097815e-40
7.0900755 -5.4991999 -0.51747936 4.6097815e-40
7.0642147 -5.4970989 -0.51620227 1.8439126e-40
7.0418258 -5.4655333 -0.529652 1.8439126e-40
7.0431657 -5.488595 -0.50901502 2.7658689e-40
7.0309973 -5.4676466 -0.52425987 1.8439126e-40
7.0127492 -5.4463425 -0.52881408 1.8439126e-40
6.9941268 -5.4241219 -0.53354347 1.8439126e-40
6.9914422 -5.3971939 -0.5382728 2.7658689e-40
6.9682713 -5.3755713 -0.54457402 1.8439126e-40
7.2865291 -5.3289165 -0.48964235 1.8439126e-40
7.2709112 -5.3880987 -0.48112258 5.5317378e-40
7.2612104 -5.4257827 -0.48395643 4.6097815e-40
7.2338314 -5.4368186 -0.48211777 6.4536941e-40
7.2240615 -5.3795471 -0.50705808 5.5317378e-40
7.1958709 -5.4386473 -0.48496109 4.6097815e-40
7.2033272 -5.4113178 -0.49729908 4.6097815e-40
7.1797533 -5.4953899 -0.47941616 1.4751301e-39
7.1787481 -5.469965 -0.48352495 4.6097815e-40
7.1597843 -5.5238829 -0.46504766 5.5317378e-40
7.1591253 -5.5011301 -0.47766441 8.2976067e-40
7.1482658 -5.4811029 -0.49412552 4.6097815e-40
7.1297059 -5.5101728 -0.47941616 6.4536941e-40
7.1166239 -5.4883146 -0.48352495 1.0141519e-39
7.0976243 -5.5196486 -0.47941616 4.6097815e-40
7.0770922 -5.525713 -0.47941616 1.8439126e-40
7.058989 -5.4967642 -0.48489454 2.7658689e-40
7.0419965 -5.4846354 -0.48763373 1.8439126e-40
7.0292282 -5.4616556 -0.49190691 1.8439126e-40
7.0109644 -5.4403 -0.49618009 1.8439126e-40
6.9926262 -5.4190412 -0.50610524 1.8439126e-40
6.9944315 -5.4429932 -0.48530209 1.8439126e-40
6.9810057 -5.4191589 -0.48964235 1.8439126e-40
6.9718018 -5.3970509 -0.50874597 1.8439126e-40
6.9653029 -5.3705435 -0.51524371 1.8439126e-40
7.2700896 -5.3593817 -0.47442409 3.6878252e-40
7.2692485 -5.3296018 -0.46769178 4.6097815e-40
7.2601576 -5.4652929 -0.44788477 4.6097815e-40
7.2629962 -5.4293809 -0.44949931 3.6878252e-40
7.2498913 -5.4683256 -0.44788477 6.4536941e-40
7.2378397 -5.4461093 -0.45172325 9.219563e-40
7.2078948 -5.4492297 -0.45259634 9.219563e-40
7.1795778 -5.5159383 -0.45462367 4.6097815e-40
7.1777411 -5.4885783 -0.44262952 6.4536941e-40
7.1873631 -5.4610181 -0.45172331 1.1063476e-39
7.1643052 -5.5204492 -0.45462367 4.6097815e-40
7.1558657 -5.4954929 -0.44488177 4.6097815e-40
7.126698 -5.5047131 -0.44788477 6.4536941e-40
7.1010327 -5.5122938 -0.44788477 3.6878252e-40
7.0838218 -5.491601 -0.45172331 2.7658689e-40
7.075942 -5.521821 -0.45839521 2.7658689e-40
7.0602236 -5.4789724 -0.45327717 3.6878252e-40
7.0382872 -5.4535522 -0.46494612 1.8439126e-40
7.0241442 -5.4573679 -0.46314874 1.8439126e-40
7.0078053 -5.4361229 -0.47079808 1.8439126e-40
6.9935393 -5.4399719 -0.46898508 1.8439126e-40
6.9801049 -5.416111 -0.47317943 1.8439126e-40
6.9583182 -5.3669829 -0.48731008 1.8439126e-40
7.2788286 -5.4771786 -0.40771568 4.6097815e-40
7.2658482 -5.4575663 -0.41785482 4.6097815e-40
7.2376842 -5.4408197 -0.42522186 5.5317378e-40
7.2066216 -5.4499946 -0.42522186 7.3756504e-40
7.1763039 -5.4837132 -0.41635334 6.4536941e-40
7.1859136 -5.456111 -0.42522192 3.6878252e-40
7.1557717 -5.4897776 -0.41635334 8.2976067e-40
7.1249733 -5.4988747 -0.41635334 7.3756504e-40
7.0961132 -5.5069757 -0.41425124 4.6097815e-40
7.0833645 -5.477438 -0.42465952 2.7658689e-40
7.0544434 -5.4691219 -0.42883527 2.7658689e-40
7.0368123 -5.4485598 -0.43798533 1.8439126e-40
7.0171356 -5.4546432 -0.43933338 1.8439126e-40
7.0020819 -5.4297833 -0.43091211 2.7658689e-40
6.9920516 -5.4349356 -0.4417901 1.8439126e-40
6.9757743 -5.4113135 -0.4429974 1.8439126e-40
6.96527 -5.3882055 -0.45522857 1.8439126e-40
7.2572832 -5.4555621 -0.39533237 5.5317378e-40
7.2563634 -5.4278326 -0.38812 4.6097815e-40
7.2362347 -5.4359121 -0.39872047 4.6097815e-40
7.2051725 -5.4450874 -0.39872047 5.5317378e-40
7.1748672 -5.4788475 -0.39007714 3.6878252e-40
7.184464 -5.4512033 -0.39872053 4.6097815e-40
7.1543345 -5.4849119 -0.39007714 3.6878252e-40
7.1235366 -5.494009 -0.39007714 4.6097815e-40
7.0927382 -5.5031056 -0.39007714 3.6878252e-40
7.068645 -5.4595461 -0.40210867 2.7658689e-40
7.0631495 -5.4715166 -0.40075335 3.6878252e-40
7.0403099 -5.4410133 -0.40563241 1.8439126e-40
7.0176835 -5.4484205 -0.40922716 1.8439126e-40
7.0040369 -5.4233656 -0.40190408 1.8439126e-40
6.9869237 -5.3997345 -0.40184006 1.8439126e-40
6.9905643 -5.4299002 -0.4145951 1.8439126e-40
6.9717436 -5.4075327 -0.41830301 1.8439126e-40
6.946054 -5.3281374 -0.42406407 1.8439126e-40
7.2552037 -5.4239068 -0.36691886 3.6878252e-40
7.2253351 -5.4607668 -0.37431142 3.6878252e-40
7.2357173 -5.4293962 -0.36559376 4.6097815e-40
7.203433 -5.4391985 -0.36691883 5.5317378e-40
7.1741614 -5.4976015 -0.35559571 6.4536941e-40
7.1785631 -5.472466 -0.36380097 4.6097815e-40
7.1830149 -5.4462967 -0.37221915 3.6878252e-40
7.1528978 -5.4800467 -0.36380097 5.5317378e-40
7.1220994 -5.4891434 -0.36380097 4.6097815e-40
7.091301 -5.4982405 -0.36380097 5.5317378e-40
7.067183 -5.4545975 -0.3753821 3.6878252e-40
7.0566039 -5.4609737 -0.36515495 3.6878252e-40
7.0376048 -5.4357333 -0.37543631 1.8439126e-40
7.0161839 -5.4407578 -0.36896572 1.8439126e-40
7.0047174 -5.4191504 -0.38196111 1.8439126e-40
6.9863234 -5.3977022 -0.39086479 1.8439126e-40
6.988482 -5.4228506 -0.37652209 2.7658689e-40
6.9750028 -5.3988366 -0.37988952 1.8439126e-40
6.9674978 -5.3758445 -0.39709759 1.8439126e-40
6.9588861 -5.3488193 -0.3979224 2.7658689e-40
6.9454374 -5.3260498 -0.41278973 1.8439126e-40
7.2530942 -5.3921518 -0.33796489 5.5317378e-40
7.2327561 -5.4241352 -0.33511716 3.6878252e-40
7.2029881 -5.4329281 -0.33511716 5.5317378e-40
7.1790385 -5.4659777 -0.33226955 4.6097815e-40
7.1511731 -5.4742079 -0.33226952 4.6097815e-40
7.1203747 -5.483305 -0.33226955 4.6097815e-40
7.0974197 -5.4906144 -0.33489716 2.7658689e-40
7.0788455 -5.4652696 -0.33560675 2.7658689e-40
7.0538054 -5.457243 -0.3359279 2.7658689e-40
7.0338106 -5.4569216 -0.33796489 1.8439126e-40
7.0107317 -5.437809 -0.34631866 1.8439126e-40
6.9831614 -5.4204803 -0.3569417 1.8439126e-40
6.9666553 -5.396883 -0.35793895 1.8439126e-40
6.9564419 -5.3405433 -0.35322854 1.8439126e-40
7.262661 -5.459919 -0.2982637 6.4536941e-40
7.2517247 -5.4121294 -0.30331558 3.6878252e-40
7.2310171 -5.4182463 -0.30331552 4.6097815e-40
7.2002044 -5.4512615 -0.29022762 3.6878252e-40
7.200027 -5.4276667 -0.30464059 5.5317378e-40
7.169981 -5.4623051 -0.30073813 5.5317378e-40
7.1792459 -5.4335375 -0.30331558 5.5317378e-40
7.1494484 -5.4683695 -0.3007381 6.4536941e-40
7.11865 -5.4774666 -0.3007381 3.6878252e-40
7.0893183 -5.4861298 -0.30073813 3.6878252e-40
7.0808821 -5.4625912 -0.30331558 3.6878252e-40
7.0667448 -5.4906816 -0.29022762 3.6878252e-40
7.0529833 -5.4613419 -0.3056297 2.7658689e-40
7.0323486 -5.451973 -0.31123829 1.8439126e-40
7.014524 -5.4312611 -0.31935787 1.8439126e-40
6.9961324 -5.4096408 -0.32213211 2.7658689e-40
6.9788942 -5.4138565 -0.31778091 2.7658689e-40
6.9686279 -5.390408 -0.32867154 2.7658689e-40
6.9558306 -5.3384743 -0.34205508 2.7658689e-40
6.9562941 -5.4473748 -0.31396568 2.7658689e-40
6.9427309 -5.5030422 -0.30154875 1.8439126e-40
6.9152164 -5.5115242 -0.30331558 1.8439126e-40
6.8856401 -5.411974 -0.3140378 1.8439126e-40
6.862453 -5.3638058 -0.33088163 1.8439126e-40
6.8646522 -5.3362923 -0.34514365 2.7658689e-40
6.8460827 -5.3686414 -0.33088163 1.8439126e-40
6.8309989 -5.3439627 -0.33386928 2.7658689e-40
7.2554526 -5.4056935 -0.27681419 5.5317378e-40
7.2295675 -5.4133391 -0.27681413 7.3756504e-40
7.1984797 -5.4454231 -0.25869626 4.6097815e-40
7.1985049 -5.422514 -0.27681413 4.6097815e-40
7.1690302 -5.4802299 -0.26177973 3.6878252e-40
7.1783309 -5.4527855 -0.2657032 6.4536941e-40
7.1777968 -5.4286308 -0.27681419 5.5317378e-40
7.1507607 -5.485836 -0.26282209 3.6878252e-40
7.1482987 -5.4644771 -0.27971718 4.6097815e-40
7.1294208 -5.5159388 -0.25443932 3.6878252e-40
7.1280189 -5.4912939 -0.25656772 5.5317378e-40
7.1193237 -5.4721889 -0.27551299 3.6878252e-40
7.1092262 -5.521903 -0.25443932 4.6097815e-40
7.0976639 -5.5009594 -0.26004237 3.6878252e-40
7.0864148 -5.4816976 -0.27446193 3.6878252e-40
7.0669289 -5.5093384 -0.25656772 4.6097815e-40
7.0607495 -5.4892783 -0.27446193 2.7658689e-40
7.0434833 -5.4693699 -0.28211445 1.8439126e-40
7.0465655 -5.5153532 -0.25656772 2.7658689e-40
7.0345092 -5.4949131 -0.26395148 1.8439126e-40
7.0238166 -5.4643292 -0.2809712 1.8439126e-40
7.0057349 -5.4286461 -0.29347551 1.8439126e-40
7.0034232 -5.503037 -0.25869626 1.8439126e-40
6.9963102 -5.4811692 -0.27151391 1.8439126e-40
6.9814487 -5.4356027 -0.29239708 1.8439126e-40
6.9708018 -5.5135188 -0.26290044 1.8439126e-40
6.96701 -5.478929 -0.2833356 1.8439126e-40
6.9659433 -5.441268 -0.29778925 1.8439126e-40
6.9378519 -5.4962392 -0.27944103 1.8439126e-40
6.9078379 -5.4902077 -0.28079802 1.8439126e-40
6.889132 -5.4623275 -0.28970101 1.8439126e-40
6.8743196 -5.4131083 -0.30306253 1.8439126e-40
6.8637667 -5.3895788 -0.31313056 1.8439126e-40
6.8559237 -5.4433894 -0.28405917 1.8439126e-40
6.8342524 -5.3687615 -0.31412145 1.8439126e-40
6.8343763 -5.4486589 -0.27862015 2.7658689e-40
6.825479 -5.4253249 -0.29208726 2.7658689e-40
7.2586699 -5.4464083 -0.22529571 7.3756504e-40
7.2540812 -5.4258261 -0.24293049 6.4536941e-40
7.2545829 -5.4027491 -0.26091337 4.6097815e-40
7.2283583 -5.4332123 -0.24187943 5.5317378e-40
7.2285528 -5.4099045 -0.25826323 5.5317378e-40
7.207952 -5.4620881 -0.22877038 4.6097815e-40
7.2045574 -5.4408064 -0.24468225 4.6097815e-40
7.2079897 -5.4165115 -0.26091337 5.5317378e-40
7.1892171 -5.5171442 -0.22155771 6.4536941e-40
7.1838245 -5.495707 -0.23376426 6.4536941e-40
7.1834478 -5.4728231 -0.2461437 4.6097815e-40
7.1647439 -5.5314207 -0.2262354 5.5317378e-40
7.1591468 -5.5050774 -0.24410178 8.2976067e-40
7.1400571 -5.5447254 -0.22577381 4.6097815e-40
7.133904 -5.5125332 -0.24410178 3.6878252e-40
7.1109457 -5.5417371 -0.22887982 3.6878252e-40
7.0985637 -5.5229712 -0.24410178 2.7658689e-40
7.0893698 -5.5476675 -0.22668321 2.7658689e-40
7.0775213 -5.5260653 -0.2285955 4.6097815e-40
7.0629611 -5.5066128 -0.23720884 2.7658689e-40
7.0387325 -5.5138187 -0.23745704 1.8439126e-40
7.0279388 -5.4915638 -0.23767526 1.8439126e-40
7.0034261 -5.5238981 -0.23571967 1.8439126e-40
7.0125399 -5.4961119 -0.23767526 1.8439126e-40
6.9805613 -5.5292521 -0.22877038 1.8439126e-40
6.9697671 -5.5100155 -0.24398156 1.8439126e-40
6.9382029 -5.4940643 -0.25031272 1.8439126e-40
6.9096966 -5.4990602 -0.25214383 1.8439126e-40
6.8863373 -5.4560966 -0.25465196 1.8439126e-40
6.8756866 -5.4320769 -0.25686413 1.8439126e-40
6.8575387 -5.4390802 -0.26502264 1.8439126e-40
6.8451185 -5.4128952 -0.25916138 1.8439126e-40
6.8284688 -5.4482136 -0.26774213 2.7658689e-40
6.8195186 -5.4248757 -0.28111196 1.8439126e-40
7.2584224 -5.4695101 -0.21308921 6.4536941e-40
7.248086 -5.4244232 -0.22716479 4.6097815e-40
7.2582607 -5.5387888 -0.18771948 4.6097815e-40
7.2463908 -5.5105906 -0.20009694 8.2976067e-40
7.2483253 -5.4724932 -0.21308921 1.9361082e-39
7.2326865 -5.4289713 -0.22716479 4.6097815e-40
7.2208571 -5.5154681 -0.19899257 4.6097815e-40
7.2281308 -5.4784575 -0.21308921 4.6097815e-40
7.1902828 -5.5197277 -0.19955947 4.6097815e-40
7.1641464 -5.5445189 -0.19943021 5.5317378e-40
7.1385765 -5.5386858 -0.20034245 4.6097815e-40
7.115931 -5.5074358 -0.19241418 3.6878252e-40
7.108274 -5.5379562 -0.20618114 4.6097815e-40
7.086205 -5.5182972 -0.20275171 8.2976067e-40
7.0902143 -5.5684037 -0.20959839 9.219563e-40
7.0731187 -5.52355 -0.20964338 4.6097815e-40
7.0574803 -5.5023355 -0.20792241 3.6878252e-40
7.0391941 -5.5091357 -0.21487173 2.7658689e-40
7.029212 -5.4864264 -0.2140267 1.8439126e-40
7.0123134 -5.450541 -0.20879389 1.8439126e-40
7.0011239 -5.4952521 -0.21665433 2.7658689e-40
6.9868784 -5.460197 -0.21943949 2.7658689e-40
6.9603467 -5.5083542 -0.22190957 2.7658689e-40
6.967526 -5.4790006 -0.21851115 1.8439126e-40
6.9599886 -5.6027746 -0.18926205 2.7658689e-40
6.9549413 -5.5570688 -0.20275171 3.6878252e-40
6.9443731 -5.5109568 -0.21139911 1.8439126e-40
6.9326801 -5.4856424 -0.22235404 1.8439126e-40
6.907681 -5.4814024 -0.22176337 1.8439126e-40
6.888669 -5.451066 -0.23308335 2.7658689e-40
6.874794 -5.4290552 -0.24054714 2.7658689e-40
6.854938 -5.4066801 -0.24269848 1.8439126e-40
7.2540717 -5.5121088 -0.17037833 8.2976067e-40
7.2270346 -5.5198026 -0.16892573 4.6097815e-40
7.191752 -5.5161381 -0.16972883 4.6097815e-40
7.1622877 -5.5348997 -0.16914137 3.6878252e-40
7.1445265 -5.4927464 -0.16140164 4.6097815e-40
7.1438031 -5.5296583 -0.17664997 6.4536941e-40
7.131629 -5.4986367 -0.1717391 4.6097815e-40
7.1168599 -5.4785008 -0.17665046 1.0141519e-39
7.093483 -5.486805 -0.18359976 6.4536941e-40
7.0707169 -5.4940538 -0.18620573 4.6097815e-40
7.0547218 -5.4726496 -0.18302083 3.6878252e-40
7.0330486 -5.4791722 -0.18362142 1.8439126e-40
7.0104766 -5.4498501 -0.18948229 1.8439126e-40
6.9925303 -5.4149609 -0.20612255 2.7658689e-40
6.9942985 -5.4384604 -0.18829605 2.7658689e-40
6.9764352 -5.4186287 -0.20073043 1.8439126e-40
6.957118 -5.3948851 -0.19159614 1.8439126e-40
6.9609299 -5.4242945 -0.20612255 1.8439126e-40
6.941328 -5.5338454 -0.19402376 2.7658689e-40
6.9085565 -5.4408493 -0.21151473 2.7658689e-40
7.254951 -5.5275836 -0.1272077 5.5317378e-40
7.2493138 -5.5074902 -0.14045484 6.4536941e-40
7.2253661 -5.514154 -0.13842124 4.6097815e-40
7.1902061 -5.5144558 -0.13888435 8.2976067e-40
7.1600561 -5.517313 -0.1391733 4.6097815e-40
7.143961 -5.4908323 -0.15106411 4.6097815e-40
7.1355133 -5.4666958 -0.14537846 4.6097815e-40
7.1172266 -5.473496 -0.15232778 4.6097815e-40
7.0917726 -5.4810143 -0.15232772 4.6097815e-40
7.0701127 -5.4642949 -0.16410196 4.6097815e-40
7.0633454 -5.4878368 -0.14450978 4.6097815e-40
7.0544262 -5.4678702 -0.15884672 3.6878252e-40
7.0284734 -5.4744778 -0.1535915 1.8439126e-40
7.0057535 -5.4559717 -0.16020814 2.7658689e-40
6.9931288 -5.4345016 -0.16691479 1.8439126e-40
6.9772987 -5.4118605 -0.16837746 1.8439126e-40
6.9671478 -5.3897324 -0.18071815 2.7658689e-40
7.2474623 -5.4966335 -0.10807604 4.6097815e-40
7.223557 -5.5031624 -0.10813053 4.6097815e-40
7.1916966 -5.5108933 -0.10922224 5.5317378e-40
7.1626511 -5.5232525 -0.10676594 4.6097815e-40
7.1425476 -5.4860468 -0.12522033 1.2907388e-39
7.1307888 -5.4631939 -0.12105573 4.6097815e-40
7.1427183 -5.5071449 -0.10367066 4.6097815e-40
7.1155162 -5.4677052 -0.12105579 8.2976067e-40
7.0900621 -5.4752235 -0.12105579 4.6097815e-40
7.0595174 -5.4842453 -0.12105579 3.6878252e-40
7.0353799 -5.4899764 -0.11410638 3.6878252e-40
7.0235181 -5.4702988 -0.12556358 2.7658689e-40
7.0043039 -5.4510641 -0.13370675 2.7658689e-40
6.9892864 -5.4039774 -0.14680883 1.8439126e-40
6.9910822 -5.4275732 -0.12949757 2.7658689e-40
6.9706755 -5.3821201 -0.14808416 1.8439126e-40
6.9617968 -5.3541269 -0.13843331 2.7658689e-40
7.2649937 -5.466557 -0.081460081 6.4536941e-40
7.2488556 -5.4911723 -0.076061554 4.6097815e-40
7.2220292 -5.5028572 -0.077412106 4.6097815e-40
7.1982894 -5.535183 -0.081823833 4.6097815e-40
7.191678 -5.5097756 -0.067243949 4.6097815e-40
7.1715264 -5.5424786 -0.078798242 3.6878252e-40
7.1645365 -5.5202484 -0.079445809 4.6097815e-40
7.1531329 -5.545475 -0.066695876 3.6878252e-40
7.1396399 -5.5206108 -0.075048521 2.7658689e-40
7.1215658 -5.4847002 -0.087746724 4.6097815e-40
7.1092854 -5.4653487 -0.10020774 2.2126951e-39
7.0932598 -5.4926267 -0.085593104 7.3756504e-40
7.08675 -5.4702559 -0.091521084 3.6878252e-40
7.0666637 -5.4526176 -0.10103909 4.6097815e-40
7.057807 -5.4784555 -0.08978375 4.6097815e-40
7.0299497 -5.4872079 -0.092389755 5.5317378e-40
7.0217938 -5.4644604 -0.094032094 4.6097815e-40
7.0025644 -5.4451752 -0.10190503 3.6878252e-40
6.9896207 -5.4226241 -0.10277095 3.6878252e-40
6.9742031 -5.3745084 -0.11545016 4.6097815e-40
6.9605961 -5.3500624 -0.1164827 6.4536941e-40
6.95822 -5.3245282 -0.12858778 2.7658689e-40
6.9445252 -5.3001986 -0.13534616 3.6878252e-40
7.2601638 -5.5544424 -0.030892611 6.4536941e-40
7.2606769 -5.532939 -0.046159625 5.5317378e-40
7.253139 -5.5123835 -0.049046621 4.6097815e-40
7.2402248 -5.4913425 -0.046907548 6.4536941e-40
7.2203608 -5.4972086 -0.046907637 4.6097815e-40
7.1905656 -5.5060096 -0.046907637 4.6097815e-40
7.1618805 -5.5388308 -0.0465253 2.7658689e-40
7.1658754 -5.513814 -0.049449675 5.5317378e-40
7.1468287 -5.5422611 -0.041482624 3.6878252e-40
7.1307993 -5.5192022 -0.049017753 4.6097815e-40
7.1139121 -5.4820175 -0.063195147 5.5317378e-40
7.1095967 -5.5055776 -0.047289945 3.6878252e-40
7.0883865 -5.4885168 -0.058026351 4.6097815e-40
7.0572982 -5.4720478 -0.057208762 3.6878252e-40
7.0446939 -5.4538169 -0.074762933 4.6097815e-40
7.0351629 -5.4767494 -0.048087768 3.6878252e-40
7.0238028 -5.4586649 -0.068193898 5.5317378e-40
7.0011153 -5.4402685 -0.075403675 5.5317378e-40
6.9811001 -5.4194021 -0.074262612 7.3756504e-40
6.9746242 -5.3931103 -0.071318612 5.5317378e-40
6.9674034 -5.3710418 -0.088255152 6.4536941e-40
6.9570088 -5.3204279 -0.10644262 2.7658689e-40
7.2445097 -5.5103636 -0.026354693 6.4536941e-40
7.2435222 -5.4842272 -0.016403133 3.6878252e-40
7.2186928 -5.4915605 -0.016403133 5.5317378e-40
7.1888971 -5.5003614 -0.016403133 5.5317378e-40
7.1602259 -5.5332284 -0.016269404 4.6097815e-40
7.169034 -5.5062284 -0.016403073 2.7658689e-40
7.1480503 -5.5373321 -0.018790727 6.4536941e-40
7.1266804 -5.5108385 -0.017605115 6.4536941e-40
7.0996575 -5.5088539 -0.024719177 3.6878252e-40
7.0771585 -5.4876704 -0.037351362 4.6097815e-40
7.0781569 -5.5097046 -0.021662317 2.7658689e-40
7.0664959 -5.488739 -0.027013835 3.6878252e-40
7.0495806 -5.4693427 -0.032451794 2.7658689e-40
7.034308 -5.4738541 -0.032451794 2.7658689e-40
7.0181584 -5.4546719 -0.040078368 2.7658689e-40
7.0000696 -5.4143257 -0.043913715 3.6878252e-40
6.9836831 -5.3850069 -0.044357814 3.6878252e-40
6.9872818 -5.4147062 -0.060008466 3.6878252e-40
6.9687672 -5.3926692 -0.060534317 3.6878252e-40
6.9653211 -5.3639917 -0.050182175 3.6878252e-40
7.2461276 -5.403944 0.0040321732 4.6097815e-40
7.2352901 -5.4581327 0.0039653103 3.6878252e-40
7.2119508 -5.4833388 0.014106714 4.6097815e-40
7.1872287 -5.4947128 0.01410134 4.6097815e-40
7.1585712 -5.527626 0.013986459 4.6097815e-40
7.1574335 -5.5035133 0.01410134 3.6878252e-40
7.1276383 -5.5123138 0.01410134 8.2976067e-40
7.0974498 -5.5124836 0.0090218615 4.6097815e-40
7.0746145 -5.4790568 0.0091674458 3.6878252e-40
7.0773158 -5.5068569 -0.0062857755 8.2976067e-40
7.0519018 -5.4631481 -0.0050888183 2.7658689e-40
7.0328827 -5.4690285 -0.0063917921 1.8439126e-40
7.0245318 -5.4460182 -0.0064448602 1.8439126e-40
7.0018339 -5.4150629 -0.017195841 1.8439126e-40
6.9825034 -5.3810129 -0.022789223 1.8439126e-40
6.9669361 -5.3596826 -0.031145673 2.7658689e-40
6.9557943 -5.3338041 -0.028680418 2.7658689e-40
7.2454185 -5.4254847 0.024673734 4.6097815e-40
7.2302704 -5.453424 0.034718394 4.6097815e-40
7.2050819 -5.4639125 0.039797157 6.4536941e-40
7.1808729 -5.4914727 0.039521791 4.6097815e-40
7.1569166 -5.5220237 0.044242442 4.6097815e-40
7.1659751 -5.495873 0.039521791 6.4536941e-40
7.1421404 -5.5263882 0.044242322 4.6097815e-40
7.1212821 -5.5090742 0.039521791 2.7658689e-40
7.094419 -5.5069551 0.037463158 5.5317378e-40
7.0734835 -5.4752283 0.029842496 3.6878252e-40
7.0566263 -5.4557199 0.024880221 3.6878252e-40
7.0392332 -5.435328 0.02508653 1.8439126e-40
7.0265441 -5.4396048 0.02245893 1.8439126e-40
7.0083489 -5.4022818 0.014754242 1.8439126e-40
6.9918575 -5.373908 -0.0012205719 1.8439126e-40
6.9818258 -5.3481674 0.004207788 1.8439126e-40
6.9653139 -5.3265734 -0.0067298985 1.8439126e-40
6.9617682 -5.29673 0.0042830519 1.8439126e-40
7.2238622 -5.4501572 0.060346078 5.5317378e-40
7.2253876 -5.5437374 0.073300578 3.6878252e-40
7.2138152 -5.4970961 0.084583595 3.6878252e-40
7.2090411 -5.4698629 0.065091111 4.6097815e-40
7.1844482 -5.4852986 0.0649423 6.4536941e-40
7.1552615 -5.5164213 0.074498303 8.2976067e-40
7.1594801 -5.4921618 0.067484282 8.2976067e-40
7.1459622 -5.5211983 0.064413019 4.6097815e-40
7.1233606 -5.5000176 0.06628976 3.6878252e-40
7.0972009 -5.4913111 0.061980188 3.6878252e-40
7.0754356 -5.469449 0.05568631 2.7658689e-40
7.0696182 -5.4434876 0.066576198 3.6878252e-40
7.056993 -5.4507146 0.049202826 2.7658689e-40
7.0411224 -5.4291272 0.053114511 1.8439126e-40
7.0249305 -5.406558 0.057103228 1.8439126e-40
7.0278172 -5.4344683 0.046107516 1.8439126e-40
7.0142484 -5.3996 0.041400053 1.8439126e-40
6.9975457 -5.3640862 0.039220598 1.8439126e-40
6.9874215 -5.3410397 0.0314028 2.7658689e-40
6.9745331 -5.318326 0.020708337 2.7658689e-40
7.1970592 -5.4569921 0.096050963 5.5317378e-40
7.1756177 -5.4658356 0.093696646 5.5317378e-40
7.1536069 -5.5108185 0.10475417 4.6097815e-40
7.1529846 -5.488451 0.09544678 6.4536941e-40
7.1437559 -5.5137281 0.10475417 5.5317378e-40
7.1252861 -5.4828806 0.094426885 2.7658689e-40
7.1036544 -5.4534826 0.093590587 3.6878252e-40
7.0908508 -5.459693 0.081530124 9.219563e-40
7.0810628 -5.4353857 0.090030193 2.7658689e-40
7.0608826 -5.4179301 0.079741083 2.7658689e-40
7.0435863 -5.4248729 0.070631966 2.7658689e-40
7.0319381 -5.3997927 0.080424435 2.7658689e-40
7.0115919 -5.3816986 0.06827914 1.8439126e-40
6.9960709 -5.3590937 0.066181459 1.8439126e-40
7.1907406 -5.4485898 0.11672679 3.6878252e-40
7.1762319 -5.4651828 0.116255 3.6878252e-40
7.1515942 -5.4837437 0.12086717 4.6097815e-40
7.1176763 -5.4188004 0.11869614 3.6878252e-40
7.130384 -5.4653854 0.1218523 4.6097815e-40
7.109632 -5.4489422 0.10737394 1.1985432e-39
7.1008968 -5.4244556 0.11522141 2.7658689e-40
7.0841174 -5.4301114 0.11174685 3.6878252e-40
7.0654325 -5.4106612 0.10917035 3.6878252e-40
7.0468369 -5.3760481 0.11057389 2.7658689e-40
7.0312605 -5.376112 0.10013967 1.8439126e-40
7.012588 -5.3471594 0.10123042 2.7658689e-40
7.0104222 -5.3777394 0.089660399 1.8439126e-40
7.117106 -5.4168701 0.12912017 4.6097815e-40
7.1150389 -5.3896613 0.1407018 8.2976067e-40
7.0975218 -5.3951378 0.13920026 3.6878252e-40
7.082417 -5.3725052 0.14190766 3.6878252e-40
7.0688415 -5.403307 0.1407018 3.6878252e-40
7.0539083 -5.376102 0.13289995 3.6878252e-40
7.0269637 -5.3683119 0.13859616 1.8439126e-40
7.0148044 -5.3430305 0.11848528 1.8439126e-40
7.0051503 -5.4207087 0.1477088 1.8439126e-40
7.0041032 -5.3843889 0.13184254 1.8439126e-40
6.9827905 -5.4284592 0.14201567 2.7658689e-40
7.0876489 -5.3914032 0.17223325 5.5317378e-40
7.0815473 -5.3695602 0.15780845 2.7658689e-40
7.0606284 -5.3991203 0.17354694 2.7658689e-40
7.0643868 -5.3749847 0.15604168 3.6878252e-40
7.0363183 -5.4065647 0.17223319 1.8439126e-40
7.0300665 -5.3858337 0.15250818 1.8439126e-40
7.0094252 -5.4395819 0.17429082 1.8439126e-40
7.0124598 -5.4139652 0.1704814 1.8439126e-40
6.9923606 -5.444272 0.17602816 1.8439126e-40
6.9781437 -5.423748 0.17223313 1.8439126e-40
6.9607406 -5.3907623 0.1638018 1.8439126e-40
6.9587474 -5.427361 0.18274365 2.7658689e-40
6.9570079 -5.4052787 0.16310872 1.8439126e-40
7.0844049 -5.3867188 0.20026112 2.7658689e-40
7.0554132 -5.3956351 0.19850938 1.8439126e-40
7.0688739 -5.3647676 0.20021069 2.7658689e-40
7.0340648 -5.4261832 0.20469417 1.8439126e-40
7.0400143 -5.4001837 0.19850938 1.8439126e-40
7.0112171 -5.4331565 0.20357724 1.8439126e-40
7.0092158 -5.4092803 0.19850938 1.8439126e-40
6.9909353 -5.4394464 0.20208822 1.8439126e-40
6.9763069 -5.4187889 0.1995604 1.8439126e-40
6.9578853 -5.4244418 0.19850938 1.8439126e-40
6.9421811 -5.4027224 0.1975605 1.8439126e-40
7.0910416 -5.4035826 0.23336011 3.6878252e-40
7.0796418 -5.3831887 0.22478563 2.7658689e-40
7.0591092 -5.3892531 0.22478557 1.8439126e-40
7.0340242 -5.420424 0.23336011 1.8439126e-40
7.038002 -5.3933716 0.23529603 1.8439126e-40
7.0095882 -5.4276419 0.23336017 1.8439126e-40
6.986537 -5.4339256 0.23596606 1.8439126e-40
6.9718471 -5.4150276 0.22478557 1.8439126e-40
6.9564481 -5.4195762 0.22478557 1.8439126e-40
6.9385309 -5.392971 0.22497728 1.8439126e-40
7.1005859 -5.4183159 0.27277422 9.219563e-40
7.089046 -5.3968272 0.26984414 2.7658689e-40
7.0804834 -5.3765917 0.25631702 2.7658689e-40
7.0633068 -5.4033804 0.27505615 1.8439126e-40
7.057385 -5.3834143 0.2563169 1.8439126e-40
7.0354323 -5.4134121 0.26612127 1.8439126e-40
7.0078778 -5.4218512 0.26463214 1.8439126e-40
6.9875145 -5.427866 0.26463214 1.8439126e-40
6.9689813 -5.4091034 0.25841913 1.8439126e-40
6.9476881 -5.4151106 0.25982049 1.8439126e-40
6.9277406 -5.3785124 0.25108433 1.8439126e-40
6.9156795 -5.3486443 0.23603435 2.7658689e-40
6.9233503 -5.4208889 0.26682743 1.8439126e-40
7.1000204 -5.4164014 0.28311175 2.7658689e-40
7.0929966 -5.3914633 0.29069206 1.8439126e-40
7.0786152 -5.3702669 0.29047599 1.8439126e-40
7.0624518 -5.400485 0.29069212 1.8439126e-40
7.0369978 -5.4080033 0.29069206 1.8439126e-40
7.0064526 -5.4170256 0.29069206 1.8439126e-40
6.9898462 -5.4687166 0.31149662 1.8439126e-40
6.9878206 -5.4453793 0.30378675 1.8439126e-40
6.9778872 -5.4252529 0.29173449 1.8439126e-40
6.9670706 -5.4051538 0.28084141 1.8439126e-40
6.9501686 -5.432601 0.29590413 1.8439126e-40
6.9414306 -5.4119205 0.28484544 1.8439126e-40
6.9222007 -5.416996 0.28784835 1.8439126e-40
6.9059191 -5.3698659 0.28209177 1.8439126e-40
6.9033766 -5.3457646 0.26838729 1.8439126e-40
7.0870962 -5.4098129 0.33479938 2.7658689e-40
7.0861955 -5.3871765 0.32196414 2.7658689e-40
7.0750427 -5.3676195 0.30886933 1.8439126e-40
7.0834947 -5.3380408 0.31151646 2.7658689e-40
7.0772815 -5.4137526 0.32963061 2.7658689e-40
7.0610266 -5.3956594 0.31675214 1.8439126e-40
7.0642018 -5.3687053 0.31937981 1.8439126e-40
7.0355721 -5.4031782 0.31675214 1.8439126e-40
7.0090308 -5.4599543 0.32687321 1.8439126e-40
7.0074496 -5.437501 0.31412435 1.8439126e-40
7.0128059 -5.4104271 0.31414607 1.8439126e-40
6.9890614 -5.4660587 0.32584816 1.8439126e-40
6.9866896 -5.4415512 0.32446185 2.7658689e-40
6.9750524 -5.4231524 0.30632803 2.7658689e-40
6.9807291 -5.4902 0.3394829 1.8439126e-40
6.9639711 -5.4482617 0.32446191 1.8439126e-40
6.9481239 -5.4294271 0.31466728 1.8439126e-40
6.9337559 -5.4332514 0.31675208 1.8439126e-40
6.921051 -5.4131041 0.30886933 1.8439126e-40
6.9078741 -5.3706827 0.30813399 1.8439126e-40
7.0727434 -5.3598347 0.35091132 2.7658689e-40
7.0596013 -5.3908339 0.34281212 3.6878252e-40
7.0576315 -5.365356 0.34565604 4.6097815e-40
7.0362406 -5.3979445 0.3417697 1.8439126e-40
7.0214128 -5.3749962 0.35091132 2.7658689e-40
7.005753 -5.4317579 0.34513691 2.7658689e-40
7.0108109 -5.4036713 0.35063007 1.8439126e-40
6.995656 -5.4347405 0.34513691 1.8439126e-40
6.9775777 -5.4129629 0.35323608 2.7658689e-40
6.9653645 -5.4436879 0.34513691 1.8439126e-40
6.9493947 -5.4237356 0.34107479 1.8439126e-40
6.9295926 -5.404233 0.34040079 1.8439126e-40
7.0721684 -5.3578882 0.3614217 3.6878252e-40
7.0513487 -5.3629799 0.36667702 4.6097815e-40
7.0225401 -5.3965344 0.36887214 1.8439126e-40
7.0281062 -5.3693161 0.36930457 2.7658689e-40
7.0072675 -5.4010458 0.36887214 1.8439126e-40
6.9897523 -5.3811736 0.36667696 1.8439126e-40
6.971632 -5.4115715 0.36887214 2.7658689e-40
6.979486 -5.3842058 0.36667696 1.8439126e-40
7.0380197 -5.3365335 0.38572034 3.6878252e-40
