# .PCD v0.7 - Point Cloud Data file format
VERSION 0.7
FIELDS x y z rgb
SIZE 4 4 4 4
TYPE F F F F
COUNT 1 1 1 1
WIDTH 873
HEIGHT 1
VIEWPOINT 0 0 0 1 0 0 0
POINTS 873
DATA ascii
2.5179968 -0.6651327 -1.4021503 1.161594e-38
2.5492492 -0.67589658 -1.4041666 1.0412392e-38
2.4788113 -0.63422507 -1.3747334 9.3110552e-39
2.5008752 -0.64971137 -1.3812995 1.0139033e-38
2.4648542 -0.61090946 -1.3726109 8.9397713e-39
2.4606266 -0.57972938 -1.3702649 8.6635362e-39
2.4616504 -0.55487347 -1.3708534 9.4900696e-39
2.4822211 -0.63729322 -1.3463532 1.023264e-38
2.4668767 -0.61218888 -1.3386834 8.7553703e-39
2.445745 -0.59115475 -1.3324767 8.1103638e-39
2.4664648 -0.57798195 -1.3400655 8.2940292e-39
2.4715099 -0.55143648 -1.341421 8.2947522e-39
2.5088277 -0.53760415 -1.3518099 9.1166096e-39
2.4718072 -0.62937713 -1.3207171 9.5840323e-39
2.4545259 -0.62430811 -1.3004893 9.6744497e-39
2.4744327 -0.60931581 -1.311043 8.3858689e-39
2.4744027 -0.57922769 -1.311043 8.9393902e-39
2.4870527 -0.55192691 -1.3177588 8.7543039e-39
2.514204 -0.53759879 -1.3321501 7.1019656e-39
2.4907067 -0.53314894 -1.3308653 6.7260098e-39
2.485085 -0.67951059 -1.2723464 1.4276991e-38
2.4611013 -0.63922447 -1.2764987 1.3911779e-38
2.48505 -0.64440793 -1.2723464 1.0413806e-38
2.4597719 -0.62181568 -1.2812968 8.8461422e-39
2.4813092 -0.60730296 -1.2858902 9.4911332e-39
2.48439 -0.57853234 -1.2844704 8.2943921e-39
2.4950299 -0.55191898 -1.2885878 7.8334238e-39
2.5276606 -0.55287164 -1.2830007 8.5677392e-39
2.5476775 -0.54184425 -1.293165 6.4562304e-39
2.4650629 -0.66409212 -1.2621043 1.446171e-38
2.4903612 -0.66446131 -1.2529982 1.1794533e-38
2.4650528 -0.65414351 -1.2621043 1.5015237e-38
2.4903376 -0.64082068 -1.2529982 8.5706189e-39
2.4668863 -0.61292589 -1.2552499 8.8472044e-39
2.4903162 -0.61932921 -1.2529982 8.294755e-39
2.4669588 -0.5919627 -1.2549071 8.1092904e-39
2.4924054 -0.57969767 -1.2540597 7.924525e-39
2.5357404 -0.56814975 -1.2535111 7.648294e-39
2.5093985 -0.5634495 -1.2626259 8.109268e-39
2.5312462 -0.55456644 -1.2698941 8.660288e-39
2.5540066 -0.54868561 -1.2700467 8.5670105e-39
2.5530863 -0.53156734 -1.2733494 8.8565244e-39
2.4773126 -0.66739607 -1.2173218 8.937951e-39
2.4956675 -0.67949998 -1.2336498 8.1003235e-39
2.4762886 -0.64276236 -1.2209775 8.7550059e-39
2.4758372 -0.61309457 -1.2225198 7.9259655e-39
2.4762318 -0.58591312 -1.2209775 7.9256068e-39
2.5109982 -0.57209015 -1.2302704 7.9252298e-39
2.5384285 -0.56814706 -1.2436811 8.108905e-39
2.520062 -0.56343883 -1.2236321 8.1064009e-39
2.5397623 -0.55795491 -1.2387662 8.199307e-39
2.5598805 -0.55210358 -1.24858 7.7379645e-39
2.4655097 -0.67867154 -1.1809133 8.4794994e-39
2.4830654 -0.67118031 -1.1963015 8.4777044e-39
2.483413 -0.64417642 -1.1949306 8.2943907e-39
2.464148 -0.61944348 -1.1856743 8.0185143e-39
2.4833782 -0.60935628 -1.1949306 8.1100023e-39
2.4830265 -0.58572865 -1.19613 8.2925942e-39
2.5066729 -0.57317775 -1.1930186 7.9241719e-39
2.5438049 -0.5681417 -1.2240213 7.8319622e-39
2.5267217 -0.55837899 -1.199261 8.2907754e-39
2.5437896 -0.55285549 -1.2240213 8.7474347e-39
2.4553163 -0.69295323 -1.1386276 8.0195905e-39
2.4746332 -0.6885339 -1.1475866 8.3883758e-39
2.4469788 -0.67822176 -1.1538986 8.4769743e-39
2.4728763 -0.66714728 -1.1539346 8.2029027e-39
2.4886813 -0.66406846 -1.175738 8.1103484e-39
2.4724159 -0.6408236 -1.1555216 8.1103582e-39
2.4886613 -0.64417124 -1.175738 8.0181682e-39
2.4552476 -0.62439179 -1.1386276 8.1114358e-39
2.4724772 -0.61548656 -1.1552042 8.1110714e-39
2.4905922 -0.60686189 -1.1685407 8.1103498e-39
2.4907072 -0.59044659 -1.1680609 8.017808e-39
2.5168469 -0.57981271 -1.1672107 8.0170653e-39
2.5572557 -0.57831907 -1.1748719 8.0145626e-39
2.5775127 -0.57262915 -1.1841795 1.031366e-38
2.531611 -0.56005853 -1.1813887 8.8421303e-39
2.481173 -0.71814209 -1.1237818 7.558255e-39
2.4795272 -0.69963449 -1.1297331 8.2018377e-39
2.4624019 -0.67335707 -1.1126468 8.478789e-39
2.4789505 -0.66549599 -1.1317168 8.3865863e-39
2.4630084 -0.63417846 -1.1102849 7.9281291e-39
2.4794216 -0.64058155 -1.1299031 8.2944005e-39
2.4604149 -0.62438661 -1.1197325 8.2951152e-39
2.4792473 -0.61547977 -1.1304471 8.3858605e-39
2.4997773 -0.60685277 -1.1349539 8.2933173e-39
2.522043 -0.59923881 -1.1369085 8.1099756e-39
2.4977968 -0.59441894 -1.142151 8.3851332e-39
2.5317211 -0.58641988 -1.1412765 8.1081876e-39
2.5599439 -0.57831633 -1.165042 7.737617e-39
2.4708476 -0.72232115 -1.0819421 7.8316175e-39
2.4850788 -0.71813822 -1.1094989 7.8359153e-39
2.4661 -0.70752746 -1.0840855 8.2943809e-39
2.4863658 -0.7033295 -1.1047379 8.3876653e-39
2.4682152 -0.67335123 -1.0913898 8.2958326e-39
2.4863214 -0.65890753 -1.1047379 8.5709776e-39
2.4687021 -0.64396733 -1.0895002 8.4791421e-39
2.4875977 -0.63324022 -1.099977 8.2954669e-39
2.4862819 -0.61942136 -1.1047379 8.0188618e-39
2.5073738 -0.61146414 -1.1071932 8.2021825e-39
2.5273342 -0.59923351 -1.1175603 8.2010937e-39
2.5069816 -0.59440976 -1.1085641 7.9255872e-39
2.5323598 -0.58266282 -1.1104949 1.0222912e-38
2.4389114 -0.73078609 -1.0471152 7.1858809e-39
2.4654586 -0.7261039 -1.0637524 7.9248879e-39
2.4981084 -0.72799665 -1.0618893 9.308523e-39
2.4656901 -0.69980156 -1.0585979 8.5713391e-39
2.4710038 -0.67083973 -1.0622275 8.2039859e-39
2.4759367 -0.64396 -1.0630471 8.2943781e-39
2.4928019 -0.62928641 -1.0809331 8.3880283e-39
2.4772086 -0.6243698 -1.0583231 8.6620774e-39
2.4953957 -0.61941224 -1.0714111 8.2950928e-39
2.5148697 -0.60932481 -1.0797753 8.2932949e-39
2.5148544 -0.5944019 -1.0797752 8.2925508e-39
2.5365787 -0.58418018 -1.0837008 1.3538675e-38
2.4843156 -0.75560904 -1.0328146 7.9241522e-39
2.5020342 -0.74773592 -1.0476063 8.8479008e-39
2.4228852 -0.73479855 -1.0299141 7.2759172e-39
2.4775853 -0.73351443 -1.0320724 7.5550376e-39
2.5028861 -0.73128241 -1.0444324 8.5702629e-39
2.4837451 -0.70149499 -1.0347042 8.2940306e-39
2.4806976 -0.67680258 -1.0349261 8.2032769e-39
2.503257 -0.66876215 -1.0428454 8.2032657e-39
2.4823954 -0.64395362 -1.039428 8.2039761e-39
2.505178 -0.63667768 -1.0357039 8.2950942e-39
2.4810841 -0.62436593 -1.0441518 8.3858507e-39
2.5006037 -0.61940706 -1.0523673 8.2014594e-39
2.5227475 -0.61429125 -1.0509866 8.3854877e-39
2.5458634 -0.60924429 -1.0498413 1.0215361e-38
2.5201032 -0.59439665 -1.0605828 1.0581982e-38
2.4768991 -0.75475085 -1.0030675 8.2929418e-39
2.4824469 -0.73420501 -1.0016602 8.0174353e-39
2.4896314 -0.70412916 -1.0056074 8.2014664e-39
2.4914725 -0.67822528 -1.0063615 8.6620774e-39
2.5105443 -0.66480631 -1.016184 8.8475589e-39
2.5332942 -0.66402388 -1.0126015 8.7542744e-39
2.5097423 -0.64407676 -1.0190406 9.0315858e-39
2.5316958 -0.6401487 -1.0183592 8.7542688e-39
2.5306253 -0.61925769 -1.0221977 8.9386531e-39
2.4813118 -0.76409632 -0.96801084 8.5716895e-39
2.4805515 -0.73632252 -0.97068995 7.2805919e-39
2.4926736 -0.70608455 -0.97450125 7.4642545e-39
2.5163164 -0.70823538 -0.9952358 7.557169e-39
2.4987075 -0.67919749 -0.97990811 7.9252354e-39
2.5188806 -0.66874653 -0.98571384 7.925597e-39
2.5398548 -0.66401732 -0.9886108 7.3731323e-39
2.538523 -0.64412141 -0.99340898 8.3858394e-39
2.5378442 -0.6217376 -0.99580801 8.9371971e-39
2.5617468 -0.61925781 -0.99179643 8.0199408e-39
2.4711759 -0.75969708 -0.92923915 8.7535738e-39
2.486733 -0.76353538 -0.94818556 8.7571639e-39
2.4882443 -0.73631483 -0.94255948 7.9263004e-39
2.4897747 -0.70272368 -0.94315845 7.373498e-39
2.5076225 -0.68065774 -0.94731396 7.0025715e-39
2.5263662 -0.66750509 -0.95833838 7.5553781e-39
2.5292771 -0.64899302 -0.94762611 8.570588e-39
2.5460665 -0.64287025 -0.96581978 8.7528185e-39
2.5696936 -0.62927926 -0.96277404 1.4023087e-38
2.5437515 -0.62421888 -0.9742164 1.0414478e-38
2.4574296 -0.76348686 -0.90369964 9.2181365e-39
2.4771094 -0.75486726 -0.90752518 8.0185171e-39
2.4774513 -0.73350406 -0.90619576 7.7419218e-39
2.4946451 -0.7265873 -0.91911751 7.834109e-39
2.495903 -0.70228326 -0.91442919 7.5564515e-39
2.5063422 -0.67103803 -0.91826475 7.741563e-39
2.5344946 -0.65885937 -0.92858225 7.3727651e-39
2.5147004 -0.65371579 -0.92133307 7.3695295e-39
2.5344846 -0.64898783 -0.92858219 7.3702596e-39
2.5536098 -0.64161915 -0.93823045 9.3974522e-39
2.5842433 -0.63589764 -0.93613082 1.2622493e-38
2.487313 -0.77897632 -0.87030113 8.5655784e-39
2.4652169 -0.76347911 -0.87522441 8.3858619e-39
2.4851696 -0.7564671 -0.87805617 8.569893e-39
2.4847198 -0.73074037 -0.87960714 7.7422777e-39
2.4859729 -0.71144366 -0.87495416 7.8337601e-39
2.5033364 -0.69935954 -0.88723642 7.6486415e-39
2.5182736 -0.67216772 -0.89148754 7.64865e-39
2.5224514 -0.65370804 -0.89299029 7.7408358e-39
2.5422964 -0.64898002 -0.90001643 7.924148e-39
2.5626624 -0.64011776 -0.90512335 8.8421274e-39
2.5842443 -0.62926471 -0.90956628 1.4103786e-38
2.5882025 -0.61923134 -0.89505506 1.3180018e-38
2.4924076 -0.78379506 -0.85168916 8.2011189e-39
2.4923835 -0.75967586 -0.85168916 8.5716895e-39
2.4923544 -0.73073274 -0.85168916 7.9259487e-39
2.4929643 -0.70420086 -0.84936267 7.7397512e-39
2.5109644 -0.69862276 -0.85934043 7.7408428e-39
2.5112545 -0.668244 -0.8581683 7.64828e-39
2.5302022 -0.65370029 -0.86464751 7.5557102e-39
2.5501084 -0.64897221 -0.87145066 7.6475625e-39
2.5700092 -0.63911551 -0.87825388 1.0777511e-38
2.592181 -0.62925673 -0.88054389 1.5680073e-38
2.5673699 -0.62419528 -0.88785005 1.4475794e-38
2.5908482 -0.61922872 -0.88538098 1.2996338e-38
2.4797578 -0.78261316 -0.82212198 8.290809e-39
2.5006762 -0.78137481 -0.82144463 9.1259296e-39
2.5203655 -0.80433041 -0.82534957 7.3641611e-39
2.4826787 -0.75707871 -0.81134754 8.9401076e-39
2.498112 -0.76208204 -0.83075064 8.9397475e-39
2.4822354 -0.73473918 -0.81288677 8.3869241e-39
2.4980781 -0.72831506 -0.83075064 8.0177912e-39
2.483479 -0.71558934 -0.80826914 8.2025034e-39
2.4999604 -0.70178199 -0.82377112 7.5568103e-39
2.5189669 -0.68767858 -0.83003795 7.464616e-39
2.4986637 -0.67766392 -0.82842416 7.5546523e-39
2.5216448 -0.66764235 -0.82964921 7.6479255e-39
2.5379531 -0.65369254 -0.83630472 7.4635216e-39
2.5582855 -0.64191282 -0.84152472 7.6464765e-39
2.576565 -0.63413465 -0.85426313 1.0960795e-38
2.5604947 -0.61934716 -0.833363 1.3091742e-38
2.5772061 -0.61921108 -0.8518641 1.3641346e-38
2.5987849 -0.61922073 -0.85635853 1.253572e-38
2.4911227 -0.78260183 -0.78056353 8.9397461e-39
2.5072577 -0.78860408 -0.79740417 8.8471791e-39
2.5242119 -0.80432653 -0.81128436 7.8240435e-39
2.4889359 -0.76071984 -0.78847939 8.8482721e-39
2.4864266 -0.73409891 -0.78913391 8.2025412e-39
2.4885278 -0.71319067 -0.78979874 8.0163409e-39
2.5075939 -0.70056838 -0.79585314 8.0174269e-39
2.5253775 -0.6876722 -0.80659598 8.1081876e-39
2.5101206 -0.6824764 -0.78654712 8.2925648e-39
2.5266402 -0.66822863 -0.80190754 7.6490031e-39
2.5457039 -0.65368479 -0.80796194 7.3709799e-39
2.5650764 -0.64402139 -0.81669962 8.012392e-39
2.5862808 -0.64009416 -0.818757 7.9198208e-39
2.6120229 -0.62923688 -0.80798787 1.1146294e-38
2.5639632 -0.61605316 -0.82066703 1.2446699e-38
2.5883644 -0.62417424 -0.81107998 1.1608282e-38
2.4893799 -0.78855157 -0.76168495 9.6791174e-39
2.4849215 -0.76182199 -0.75767142 8.5716867e-39
2.4961259 -0.73472524 -0.76209313 8.1096225e-39
2.4969423 -0.70919293 -0.75901473 7.6486429e-39
2.5143781 -0.69855171 -0.77103716 7.6486345e-39
2.5155201 -0.67402917 -0.76677185 7.0039826e-39
2.5326169 -0.66174197 -0.78002834 7.2816611e-39
2.5177264 -0.65352565 -0.75862914 6.4486774e-39
2.5428765 -0.64389205 -0.77494138 7.0950964e-39
2.5735307 -0.63578671 -0.78575331 7.6464765e-39
2.5923107 -0.63411891 -0.79668558 8.3818682e-39
2.6146684 -0.62923425 -0.79831374 1.0868631e-38
2.5962322 -0.61919206 -0.78229117 1.1333935e-38
2.4845591 -0.78609097 -0.72875786 1.0044666e-38
2.4687822 -0.75674158 -0.71431249 8.6646026e-39
2.4837017 -0.76392293 -0.73181266 8.5720566e-39
2.4687634 -0.73787922 -0.71431249 7.9248739e-39
2.4889829 -0.72929704 -0.73132849 7.7408316e-39
2.4930007 -0.70297998 -0.73128355 7.7415364e-39
2.5203099 -0.69211388 -0.74932313 7.6468381e-39
2.5049174 -0.68684489 -0.72976989 7.7411651e-39
2.5228355 -0.67281586 -0.74001712 7.6486415e-39
2.5445805 -0.65848958 -0.73626995 6.8207026e-39
2.5211163 -0.6503064 -0.74622113 7.1883753e-39
2.5495155 -0.63961631 -0.74658573 6.8177865e-39
2.5800343 -0.62919915 -0.76194853 7.6457689e-39
2.56376 -0.62428325 -0.7418288 7.3677359e-39
2.5839255 -0.61438793 -0.74766564 1.0968354e-38
2.6006074 -0.62084585 -0.76629734 1.0966558e-38
2.5071557 -0.78824359 -0.70300096 1.0320178e-38
2.4722679 -0.75956744 -0.70157647 9.0337438e-39
2.4937294 -0.76708001 -0.69515496 9.6776713e-39
2.4731193 -0.74023265 -0.69839245 8.4780463e-39
2.4927366 -0.72907728 -0.69864619 7.833037e-39
2.4712274 -0.71429873 -0.70521533 7.7418966e-39
2.4919922 -0.70057523 -0.70126462 7.1876522e-39
2.5015972 -0.67941892 -0.70397317 7.0940328e-39
2.5304654 -0.66798443 -0.71209913 7.0943762e-39
2.5471447 -0.65848702 -0.72689319 6.7252811e-39
2.5317235 -0.65351164 -0.7074461 7.0047085e-39
2.5496893 -0.63904232 -0.71751636 6.1735073e-39
2.568181 -0.61588359 -0.72563303 9.0290158e-39
2.5917373 -0.61438012 -0.71909982 9.3005805e-39
2.3787098 -0.54576737 -0.66002131 1.2350245e-38
2.3873706 -0.53413296 -0.66242725 1.2255513e-38
2.5626857 -0.81400925 -0.67063236 1.1161103e-38
2.5189037 -0.78257406 -0.67897624 1.0045734e-38
2.5390787 -0.79821992 -0.68107909 9.4007102e-39
2.5601118 -0.80429065 -0.68000919 9.1201801e-39
2.4861922 -0.75200862 -0.65063238 8.755331e-39
2.5039954 -0.76124078 -0.67137867 9.3088761e-39
2.4833722 -0.73079127 -0.66086668 8.4787623e-39
2.4970284 -0.7243225 -0.68293577 8.8485958e-39
2.4836664 -0.71428633 -0.65972954 7.5575263e-39
2.5007641 -0.70056647 -0.66918921 7.5564305e-39
2.5133026 -0.67228943 -0.66989207 6.8181634e-39
2.5364051 -0.66958648 -0.6903851 7.3723938e-39
2.5228031 -0.64087033 -0.66419989 5.2529887e-39
2.5376518 -0.64385802 -0.68573213 6.1735045e-39
2.5556662 -0.63255554 -0.69563717 5.8054422e-39
2.5237873 -0.61501867 -0.66050583 4.6987261e-39
2.5405967 -0.61973578 -0.67487508 5.6203237e-39
2.5657239 -0.61705375 -0.6967122 6.8174165e-39
2.5031655 -0.59605396 -0.66002476 5.3415634e-39
2.3910534 -0.54883754 -0.64143288 1.1792751e-38
2.4119956 -0.56548458 -0.64073342 7.4562923e-39
2.3940792 -0.52594209 -0.63786715 1.1878834e-38
2.4111414 -0.51663399 -0.64367849 1.2706062e-38
2.4131351 -0.49678612 -0.63631582 1.3081308e-38
2.5316031 -0.85436881 -0.63280022 1.0874749e-38
2.5493097 -0.84966415 -0.64385509 1.373638e-38
2.530731 -0.82405096 -0.63587862 1.0404044e-38
2.5484486 -0.83680141 -0.6469571 1.6593707e-38
2.4928575 -0.78343922 -0.62637329 4.6069102e-39
2.513006 -0.79868203 -0.63994509 8.8482707e-39
2.4918864 -0.76008683 -0.62983888 5.0693177e-39
2.5071006 -0.77181709 -0.64627814 7.7437e-39
2.4908388 -0.73432046 -0.6335752 5.6232216e-39
2.5120654 -0.72430748 -0.6279493 4.4243056e-39
2.4894681 -0.71113676 -0.63850284 6.2671364e-39
2.5098474 -0.69936979 -0.63596815 4.6076263e-39
2.4894273 -0.6702683 -0.63850284 4.6965877e-39
2.5103407 -0.67047071 -0.63405889 4.4225022e-39
2.5175545 -0.6408304 -0.63916451 4.0533707e-39
2.5288317 -0.60831159 -0.64203542 4.144109e-39
2.5490816 -0.62133521 -0.64385509 4.3285059e-39
2.4517004 -0.5736357 -0.6320495 5.7917501e-39
2.5069249 -0.5960502 -0.64627814 4.5128873e-39
2.3926501 -0.54879564 -0.609056 9.9427101e-39
2.4216604 -0.56547493 -0.60539258 3.4055028e-39
2.3694053 -0.52956146 -0.59542024 1.3720217e-38
2.3939285 -0.52078331 -0.60915297 1.2705701e-38
2.402333 -0.50456387 -0.6076054 1.30745e-38
2.4216642 -0.49269786 -0.61486059 1.095471e-38
2.439039 -0.47729596 -0.60975838 1.132243e-38
2.5273423 -0.84472418 -0.6104359 5.3452082e-39
2.5227273 -0.82315594 -0.61098623 4.8845621e-39
2.4993782 -0.78837287 -0.60254741 4.3324729e-39
2.5146475 -0.80031234 -0.6187849 5.3448116e-39
2.4986403 -0.7614274 -0.60514659 4.2395584e-39
2.4989243 -0.73431242 -0.60400945 4.3306891e-39
2.5145717 -0.72430497 -0.6187849 4.2381305e-39
2.4988937 -0.70366102 -0.60400945 4.0544595e-39
2.4985602 -0.6812622 -0.60514659 3.961531e-39
2.5170207 -0.66729701 -0.60962045 3.870427e-39
2.4978936 -0.63646477 -0.60742086 3.8707787e-39
2.5202339 -0.64276534 -0.61041707 3.8704172e-39
2.5325227 -0.61404103 -0.61339498 3.6853001e-39
2.5194557 -0.59603769 -0.60045606 3.3197363e-39
2.3914695 -0.54602981 -0.57924539 9.8461886e-39
2.4264927 -0.5654701 -0.58772212 2.945954e-39
2.375216 -0.52656728 -0.57416153 1.4362721e-38
2.3920333 -0.51443291 -0.57706845 1.3529713e-38
2.4089274 -0.50228381 -0.58348376 1.3441836e-38
2.4264147 -0.48761317 -0.58772212 1.2244382e-38
2.4414725 -0.47729352 -0.60085946 1.2241103e-38
2.5417886 -0.8475489 -0.58605319 5.2540593e-39
2.5637469 -0.86572927 -0.59112108 6.8174151e-39
2.5376954 -0.82353586 -0.58513695 4.7920148e-39
2.5061321 -0.78971338 -0.57785511 4.5161425e-39
2.5057929 -0.76142019 -0.57899225 4.1484334e-39
2.5271451 -0.76704651 -0.57296282 4.2398919e-39
2.5060754 -0.73312634 -0.57785511 4.1462768e-39
2.5060472 -0.70483273 -0.57785511 3.7789306e-39
2.5065708 -0.67549074 -0.57583356 3.9622443e-39
2.522867 -0.66570771 -0.58823687 4.4210602e-39
2.5084784 -0.64824313 -0.56875795 4.0551616e-39
2.5342691 -0.64122838 -0.58436143 3.8697025e-39
2.5415437 -0.61286694 -0.58714277 3.6849287e-39
2.4512992 -0.56954062 -0.56526375 2.8530269e-39
2.5257165 -0.59128088 -0.57754505 3.0395537e-39
2.4086721 -0.54524422 -0.55727917 1.1508218e-38
2.4412012 -0.55763888 -0.55665421 6.4374797e-39
2.406497 -0.52177364 -0.54901761 1.6019336e-38
2.4177213 -0.50075954 -0.55132163 1.5559432e-38
2.4330616 -0.48989645 -0.5634253 1.4268708e-38
2.5493603 -0.84993488 -0.55837405 5.9884098e-39
2.532212 -0.82133251 -0.55463398 5.1611616e-39
2.5135956 -0.78970599 -0.55056363 4.5164985e-39
2.5132575 -0.76259166 -0.55170077 4.1480691e-39
2.5100679 -0.73390692 -0.54885328 3.7792992e-39
2.5135107 -0.70482528 -0.55056363 4.0537196e-39
2.5134776 -0.67181611 -0.55056363 4.145202e-39
2.513948 -0.64446521 -0.54874426 3.8707857e-39
2.5428421 -0.6340819 -0.55840153 3.8707731e-39
2.551249 -0.61140078 -0.56007296 3.7756908e-39
2.5736661 -0.60523117 -0.55389708 3.7760594e-39
2.547116 -0.58441955 -0.55992281 3.1288949e-39
2.5736566 -0.5955835 -0.55389708 3.6827791e-39
2.4492691 -0.5484491 -0.52711856 5.3318482e-39
2.4257412 -0.52500099 -0.52208328 1.4453794e-38
2.425714 -0.4977203 -0.52208328 1.4914426e-38
2.6069055 -0.8777582 -0.53443974 7.0997684e-39
2.5581071 -0.83998084 -0.5358305 5.2529929e-39
2.5790067 -0.85606623 -0.53528506 5.8961889e-39
2.5462739 -0.82141101 -0.52848631 5.0689548e-39
2.5223029 -0.78969729 -0.51872361 4.5168558e-39
2.5221622 -0.76226115 -0.51913714 4.0566007e-39
2.5194724 -0.73371643 -0.51778901 3.962973e-39
2.522218 -0.70481664 -0.51872361 3.9622485e-39
2.5421064 -0.69102424 -0.51797634 4.0537196e-39
2.5229301 -0.67086357 -0.51599449 3.8711276e-39
2.539269 -0.67321283 -0.52828634 4.0540798e-39
2.5226903 -0.64418709 -0.51677424 4.1469943e-39
2.5475936 -0.63337463 -0.53019524 4.0544441e-39
2.55914 -0.61019617 -0.53121293 4.0537154e-39
2.5183542 -0.57278365 -0.53236932 3.9568661e-39
2.5505614 -0.57924324 -0.5245592 3.6827959e-39
2.5787463 -0.59557837 -0.53528506 3.6842393e-39
2.4565291 -0.54844189 -0.50057042 3.1335556e-39
2.4325974 -0.5275923 -0.49702182 1.0490839e-38
2.451812 -0.51506668 -0.49495235 1.4178314e-38
2.4311044 -0.49089476 -0.50234741 1.371732e-38
2.4511919 -0.49903792 -0.49716118 1.3441832e-38
2.6063414 -0.87715274 -0.51122683 7.284168e-39
2.5857899 -0.85284358 -0.51046908 5.0696666e-39
2.6088912 -0.8625685 -0.50185001 5.1618721e-39
2.5574992 -0.82086825 -0.50007355 4.7930952e-39
2.5891669 -0.83676064 -0.49806103 5.3441011e-39
2.5310102 -0.78968859 -0.48688355 4.6083283e-39
2.5306718 -0.76257426 -0.48802069 4.1469901e-39
2.5293303 -0.73443151 -0.4856205 3.9622527e-39
2.5309253 -0.70480782 -0.48688352 3.8704172e-39
2.5458655 -0.69102049 -0.50422972 3.5956085e-39
2.5302701 -0.67179936 -0.48915783 3.8696885e-39
2.5502348 -0.67438954 -0.48819199 3.5030724e-39
2.5283806 -0.64822322 -0.49598071 4.6058088e-39
2.5542588 -0.63965297 -0.49402869 4.0537112e-39
2.5626335 -0.61139357 -0.49948746 3.8700458e-39
2.5666881 -0.58146566 -0.50350726 3.5916667e-39
2.586381 -0.59557074 -0.50736707 3.8675347e-39
2.4623127 -0.54352599 -0.47371686 4.322015e-39
2.4958 -0.55500805 -0.47072184 2.9495385e-39
2.4389389 -0.52953464 -0.47384 8.9227946e-39
2.4578557 -0.51849556 -0.47286433 1.3625132e-38
2.4424963 -0.48860994 -0.46068275 1.3349288e-38
2.4573517 -0.4976579 -0.47463137 1.3992833e-38
2.6127472 -0.87228578 -0.4877848 6.1735353e-39
2.5951214 -0.85283428 -0.47634703 5.4366639e-39
2.6140172 -0.86013311 -0.48309642 5.2515678e-39
2.5667319 -0.82245475 -0.46631733 4.5172299e-39
2.5942566 -0.83675557 -0.47944903 4.8852922e-39
2.5384734 -0.78968108 -0.45959207 4.42467e-39
2.5196762 -0.7604394 -0.4561944 4.1487935e-39
2.5243385 -0.73369831 -0.45705512 3.8711389e-39
2.5383885 -0.70480043 -0.45959207 3.7785747e-39
2.5390725 -0.67785347 -0.45699289 3.6856616e-39
2.556118 -0.66820806 -0.46665561 3.8700571e-39
2.5395665 -0.63878083 -0.45504349 3.7764125e-39
2.5587089 -0.64114338 -0.46971905 3.8704046e-39
2.5650873 -0.6121822 -0.46524376 3.7785719e-39
2.5710063 -0.58683306 -0.47088653 3.592394e-39
2.4707868 -0.53892118 -0.44271401 5.5112116e-39
2.498251 -0.55500561 -0.46175918 3.1335808e-39
2.5207095 -0.55916673 -0.45167938 3.0392272e-39
2.4663136 -0.51963204 -0.44194105 1.3534724e-38
2.4812496 -0.49755749 -0.44695047 1.3166662e-38
2.5030975 -0.49925026 -0.44383392 1.2983347e-38
2.6223657 -0.87470645 -0.45262182 7.0043722e-39
2.6012673 -0.84880835 -0.45385754 4.9756885e-39
2.6229947 -0.86255437 -0.45027763 5.2537202e-39
2.581311 -0.82454413 -0.43828839 4.7920176e-39
2.5456271 -0.79085284 -0.43343773 4.6083368e-39
2.5274391 -0.76243752 -0.42781469 4.2406374e-39
2.5270562 -0.73234749 -0.42910466 4.1466453e-39
2.5353856 -0.70189053 -0.43054754 3.9611611e-39
2.5442812 -0.67488742 -0.42993134 3.6867294e-39
2.5629659 -0.66566759 -0.44160622 3.7785677e-39
2.5665946 -0.64207935 -0.43583304 3.8700557e-39
2.5807955 -0.61277527 -0.43824917 4.0533665e-39
2.5482078 -0.57275379 -0.42320347 3.4987536e-39
2.5777638 -0.58315372 -0.4377394 3.9600765e-39
2.6029229 -0.59555423 -0.44687802 4.0515504e-39
2.4926424 -0.54182225 -0.41398188 6.4345944e-39
2.5268829 -0.55916053 -0.4291046 3.0399363e-39
2.4747701 -0.51962358 -0.41101781 1.3718409e-38
2.486645 -0.49448872 -0.41299391 1.3166661e-38
2.5055437 -0.49460196 -0.43487126 1.2431977e-38
2.6121097 -0.8753286 -0.41430703 9.3218676e-39
2.6294174 -0.87469935 -0.42683563 7.1883977e-39
2.6146352 -0.8560307 -0.40500101 5.4359618e-39
2.6294003 -0.85768747 -0.42683563 4.793814e-39
2.5855582 -0.82348782 -0.41011634 5.0685918e-39
2.5433135 -0.79036146 -0.40073738 4.9753228e-39
2.535732 -0.765104 -0.39750007 4.3321114e-39
2.5356989 -0.73233891 -0.39749995 3.7800152e-39
2.5353305 -0.70042527 -0.39873135 3.8700613e-39
2.5485644 -0.67052019 -0.40424931 3.9611611e-39
2.5532587 -0.64819837 -0.40500912 4.051919e-39
2.5809557 -0.63614088 -0.40941203 3.8696871e-39
2.5919721 -0.61016339 -0.41115519 3.8700486e-39
2.555671 -0.57274634 -0.39591196 4.141958e-39
2.583497 -0.58540261 -0.41172737 3.7757048e-39
2.4871242 -0.54121131 -0.38298073 7.8243616e-39
2.5178592 -0.554986 -0.39005801 4.7797912e-39
2.5330565 -0.55915439 -0.40652984 3.1278131e-39
2.4820185 -0.51961637 -0.38451216 1.3627663e-38
2.5002024 -0.49683934 -0.38617271 1.3534007e-38
2.5153432 -0.48994631 -0.39902067 1.2799312e-38
2.6197252 -0.85602564 -0.38638902 5.4341542e-39
2.6396623 -0.86253768 -0.38932845 5.3455599e-39
2.5841777 -0.81846577 -0.38355377 5.1622154e-39
2.6209784 -0.83672887 -0.38173604 5.4373659e-39
2.5526333 -0.79145426 -0.3718065 4.7008841e-39
2.5475922 -0.76270205 -0.36721784 4.4235854e-39
2.5445864 -0.72952169 -0.36499235 4.0544399e-39
2.5457067 -0.69914365 -0.36798728 4.0530078e-39
2.5582116 -0.67207652 -0.37590396 3.7771356e-39
2.5610249 -0.63993835 -0.37658051 3.8675417e-39
2.5929325 -0.63086325 -0.38244614 3.7756964e-39
2.6169584 -0.63413101 -0.395695 3.8711192e-39
2.5998645 -0.61015546 -0.38229519 3.5934547e-39
2.6169391 -0.61483562 -0.395695 4.1451684e-39
2.5476735 -0.56956452 -0.37112516 2.7651556e-39
2.5995297 -0.59100717 -0.38344955 3.4090761e-39
2.4952788 -0.5438233 -0.35885653 8.004455e-39
2.4912643 -0.52001816 -0.35828632 1.4178662e-38
2.5276167 -0.50851756 -0.35420743 1.427085e-38
2.5059903 -0.50490606 -0.36503777 1.445452e-38
2.523931 -0.49922943 -0.3676514 1.353474e-38
2.544723 -0.4959527 -0.36363783 1.2706771e-38
2.5898948 -0.86199296 -0.34385252 1.2930749e-38
2.6273599 -0.85601801 -0.35847104 5.524203e-39
2.5979674 -0.82002997 -0.35208932 5.2515566e-39
2.6260681 -0.83672374 -0.36312401 5.2526258e-39
2.5565264 -0.79084897 -0.34213543 4.8849264e-39
2.5517831 -0.76508796 -0.33880568 4.5157782e-39
2.5339673 -0.73151314 -0.33180082 4.3299688e-39
2.5505173 -0.73388433 -0.34332058 4.1462838e-39
2.5339439 -0.70828372 -0.33180082 3.7792879e-39
2.5513623 -0.69688344 -0.34009567 3.7771384e-39
2.5671659 -0.67014068 -0.34463143 3.7757034e-39
2.5695612 -0.64189458 -0.3453722 3.6842183e-39
2.5986497 -0.63116801 -0.35648605 3.4994697e-39
2.6064053 -0.61151665 -0.35838261 3.3154273e-39
2.6296589 -0.609999 -0.34916499 3.1324738e-39
2.5642545 -0.57132012 -0.34051025 2.670802e-39
2.6071064 -0.5909996 -0.35574397 3.2236072e-39
2.5092752 -0.54207861 -0.32586715 1.0400114e-38
2.5325651 -0.55497134 -0.33628213 5.4193929e-39
2.5515769 -0.55913585 -0.33880559 5.1446011e-39
2.5134535 -0.52481204 -0.33099547 1.3993549e-38
2.5331337 -0.51083499 -0.33404148 1.4361975e-38
2.5316894 -0.49612442 -0.33926967 1.3258505e-38
2.5523376 -0.49672523 -0.33579564 1.3074825e-38
2.61497 -0.87822121 -0.32803833 1.1803542e-38
2.6367137 -0.87851989 -0.32434902 1.3194397e-38
2.6563399 -0.87224221 -0.32837927 6.9975086e-39
2.6149318 -0.83992404 -0.32803836 5.1614979e-39
2.6333013 -0.8592279 -0.33675703 5.4330962e-39
2.6576121 -0.86251974 -0.32369086 5.2551719e-39
2.5758092 -0.80850619 -0.32313475 5.4359324e-39
2.5961199 -0.82160789 -0.32094145 5.3451871e-39
2.5592148 -0.78848428 -0.31171596 5.0682317e-39
2.5425689 -0.75473386 -0.30043158 4.6065529e-39
2.5584869 -0.7664187 -0.31429595 4.6076137e-39
2.5394845 -0.73383045 -0.31163487 4.2391941e-39
2.5599816 -0.73231465 -0.30870599 4.3292373e-39
2.538846 -0.70827889 -0.31387553 4.1466313e-39
2.5594759 -0.69687533 -0.31042597 3.9611709e-39
2.5677576 -0.67029703 -0.31278345 3.3172392e-39
2.5762224 -0.64014238 -0.31380531 3.2232387e-39
2.6021841 -0.63163012 -0.3359808 2.5829084e-39
2.5805867 -0.61044627 -0.30494043 2.3030761e-39
2.6106946 -0.61396289 -0.32754248 2.8555366e-39
2.5676219 -0.57584125 -0.30900571 2.8516045e-39
2.5952606 -0.58883619 -0.32323256 2.5807504e-39
2.5185509 -0.54543483 -0.30219537 1.0405866e-38
2.5212545 -0.52731651 -0.2979292 1.3626211e-38
2.5386555 -0.51779824 -0.31387556 1.4361607e-38
2.5595579 -0.51466078 -0.3094584 1.4177221e-38
2.5398533 -0.48992178 -0.30939418 1.31663e-38
2.558929 -0.50295961 -0.3117159 1.3533291e-38
2.6617305 -0.87806946 -0.30868796 1.0507443e-38
2.619983 -0.83991897 -0.30956793 5.53243e-39
2.6417778 -0.85278761 -0.30573699 6.6366546e-39
2.6652999 -0.85765153 -0.29556045 9.2173994e-39
2.6099193 -0.81844002 -0.28942382 8.3858394e-39
2.6426101 -0.83670723 -0.30263498 5.5328518e-39
2.5748141 -0.78896278 -0.28554434 6.6384441e-39
2.5450249 -0.7593773 -0.29146886 4.1512963e-39
2.5696828 -0.76454955 -0.28363907 4.3328135e-39
2.5317736 -0.73552263 -0.27159896 4.239564e-39
2.5489807 -0.73265958 -0.27690449 4.2384766e-39
2.5640926 -0.72762984 -0.29365605 4.0551658e-39
2.5341887 -0.71706879 -0.26270002 3.9636736e-39
2.5498707 -0.70362198 -0.27354351 3.8700613e-39
2.5640645 -0.69954544 -0.29365605 3.8704144e-39
2.5492373 -0.68271619 -0.27578425 3.5030626e-39
2.566153 -0.6714589 -0.28591621 3.4079901e-39
2.5192935 -0.63982683 -0.26570702 2.4863953e-39
2.5485852 -0.64322686 -0.27802491 2.5789581e-39
2.5649977 -0.64524794 -0.29004413 2.5789595e-39
2.4978034 -0.62495846 -0.25893822 2.1186848e-39
2.5186019 -0.61387998 -0.26472947 1.934302e-39
2.5489609 -0.61070544 -0.27653116 1.750652e-39
2.5743506 -0.61286724 -0.2917397 1.7506408e-39
2.5001521 -0.57494134 -0.25016671 2.9488294e-39
2.5243714 -0.58120883 -0.26398435 2.8519507e-39
2.548933 -0.58283019 -0.27653116 2.3927634e-39
2.5725772 -0.58519775 -0.29091898 2.6711495e-39
2.5001385 -0.56130099 -0.25016671 7.1786362e-39
2.5249522 -0.55359727 -0.26175964 9.1132913e-39
2.5475762 -0.55379486 -0.28138584 1.040406e-38
2.5688438 -0.54039562 -0.27559623 1.3719453e-38
2.5472481 -0.53172725 -0.28250623 1.3994995e-38
2.5667064 -0.51900005 -0.28333622 1.3717661e-38
2.5465958 -0.49223796 -0.28474686 1.3355393e-38
2.5675719 -0.50295097 -0.28011122 1.3351764e-38
2.6704433 -0.87222809 -0.27680686 9.7680803e-39
2.6527994 -0.84634483 -0.26541096 8.8482595e-39
2.6691463 -0.85764772 -0.28149524 9.1244751e-39
2.6232228 -0.82353294 -0.26516506 9.0312145e-39
2.5776629 -0.78919792 -0.2532613 8.6663976e-39
2.5751309 -0.76591575 -0.25343201 4.6076123e-39
2.5390706 -0.73182499 -0.24490218 4.239557e-39
2.5572612 -0.74078155 -0.24665566 4.5143489e-39
2.5395863 -0.70681262 -0.24292466 3.9629547e-39
2.5555837 -0.69742185 -0.25263077 4.052649e-39
2.5568483 -0.67839456 -0.24793598 3.593089e-39
2.5745337 -0.67379093 -0.255279 3.0413572e-39
2.5301867 -0.63867372 -0.24292907 3.4079873e-39
2.558403 -0.65715474 -0.24217434 2.2123196e-39
2.5055156 -0.6077739 -0.23067454 4.4235756e-39
2.518959 -0.61346573 -0.24977508 3.778932e-39
2.5042701 -0.58078313 -0.23512992 4.3313715e-39
2.5231574 -0.58369267 -0.2343135 3.1350017e-39
2.5037322 -0.55675054 -0.2370095 5.1543009e-39
2.52737 -0.54823226 -0.23925082 5.8018367e-39
2.5713134 -0.54039317 -0.26656637 1.3251633e-38
2.5570519 -0.53171742 -0.24665563 6.5386576e-39
2.5788479 -0.51939428 -0.25494531 8.4697268e-39
2.6947329 -0.87226886 -0.25297502 9.3999914e-39
2.6376617 -0.83990127 -0.24492145 8.6617019e-39
2.6578891 -0.84633976 -0.24679899 8.3869198e-39
2.600687 -0.80848134 -0.23216313 9.4025095e-39
2.6401777 -0.83032441 -0.23568626 9.0297837e-39
2.5839088 -0.7884596 -0.22141694 8.574202e-39
2.5658491 -0.75006473 -0.21528639 4.0566063e-39
2.5835352 -0.76773089 -0.22270691 4.5157754e-39
2.5494149 -0.73319858 -0.20708174 4.6051026e-39
2.5651007 -0.73705703 -0.21797518 4.1473474e-39
2.5472779 -0.70215267 -0.21478266 3.7774915e-39
2.5658119 -0.71289778 -0.21528639 3.6874721e-39
2.5487442 -0.67092586 -0.20930648 2.2119524e-39
2.5642426 -0.67573231 -0.22088796 2.9477308e-39
2.5134044 -0.6340363 -0.2019235 3.7771117e-39
2.5326624 -0.64690667 -0.2134342 2.4871184e-39
2.5121825 -0.61130375 -0.20630926 4.5154153e-39
2.5121529 -0.58207434 -0.20630926 4.2399032e-39
2.5303967 -0.57452583 -0.20780785 4.148418e-39
2.5121276 -0.55674219 -0.20630926 4.2406262e-39
2.5314698 -0.55110604 -0.21062107 4.422498e-39
2.5639946 -0.53016186 -0.22126143 4.6980114e-39
2.5844679 -0.52477747 -0.21840689 4.8798944e-39
2.7048125 -0.86900473 -0.22693501 9.033734e-39
2.6655238 -0.84633213 -0.21888098 8.5705922e-39
2.6883833 -0.86248899 -0.2111693 9.3092503e-39
2.6093943 -0.80847263 -0.20032309 9.1241318e-39
2.6464918 -0.83031809 -0.21259825 8.478398e-39
2.5977523 -0.79042125 -0.19480956 9.0340969e-39
2.5585613 -0.7539472 -0.17371078 4.3321324e-39
2.5719903 -0.7639963 -0.19287974 5.158998e-39
2.5479662 -0.73316514 -0.1820498 4.423591e-39
2.54845 -0.70108026 -0.18205959 3.6863833e-39
2.5694883 -0.71289414 -0.20184241 3.5963428e-39
2.553082 -0.67286849 -0.18370326 3.4112383e-39
2.5694511 -0.67572713 -0.20184241 3.3168665e-39
2.5241985 -0.63402551 -0.16245176 4.0551826e-39
2.538197 -0.6432153 -0.17953517 3.8682508e-39
2.5200658 -0.61324435 -0.1774886 4.3313883e-39
2.5381596 -0.6056608 -0.17953511 4.4214302e-39
2.5397265 -0.58225363 -0.18054312 4.3306653e-39
2.5447826 -0.55790019 -0.18438688 4.5139817e-39
2.5705464 -0.5456416 -0.1973611 5.0649807e-39
2.5927179 -0.54349226 -0.18830723 5.4312423e-39
2.5693071 -0.5317052 -0.20184241 4.6065249e-39
2.592294 -0.53101069 -0.18981223 4.6976569e-39
2.7164388 -0.8689931 -0.18442082 8.5799137e-39
2.6718862 -0.84632576 -0.19561598 7.4631797e-39
2.7002959 -0.86138958 -0.19287631 8.2021713e-39
2.6156139 -0.80846637 -0.17758021 9.4014529e-39
2.6451349 -0.82237637 -0.17961943 8.5688056e-39
2.6731489 -0.83667666 -0.19096296 8.2950717e-39
2.6116362 -0.79237121 -0.16805662 8.8500658e-39
2.5438595 -0.74854541 -0.15921418 5.0671793e-39
2.580976 -0.76243865 -0.16001673 5.5299413e-39
2.5987108 -0.77440256 -0.16723745 6.4461677e-39
2.551636 -0.73105508 -0.15630363 4.4239371e-39
2.5842037 -0.72217113 -0.14806652 4.3321044e-39
2.5630748 -0.70435464 -0.15702523 3.9629631e-39
2.5817311 -0.70049286 -0.1570292 3.9622345e-39
2.5480497 -0.67149901 -0.15498263 3.8700585e-39
2.5451825 -0.64362466 -0.15399331 3.7764223e-39
2.5456207 -0.61114913 -0.15227218 4.1473698e-39
2.5499082 -0.58145803 -0.1550952 4.1466313e-39
2.5586472 -0.56149018 -0.15563381 4.4214288e-39
2.5803599 -0.55492353 -0.16151048 4.606176e-39
2.5984817 -0.54504675 -0.16723755 4.6980016e-39
2.5815575 -0.52704704 -0.1570292 7.9190627e-39
2.5972328 -0.53100574 -0.17175241 5.5191331e-39
2.721606 -0.86898792 -0.16552569 9.3106894e-39
2.7113941 -0.85435408 -0.16490544 7.9248599e-39
2.6424773 -0.81443584 -0.15139981 9.8613409e-39
2.682056 -0.83666778 -0.15839194 8.8457134e-39
2.625551 -0.79430962 -0.14119156 9.6773153e-39
2.5885231 -0.75236499 -0.13238189 4.9756885e-39
2.6061153 -0.77065057 -0.14014769 6.2682463e-39
2.5707054 -0.72994828 -0.12921606 4.6087025e-39
2.5878894 -0.73145914 -0.13462257 4.4243182e-39
2.5695629 -0.70177031 -0.12646657 4.1469943e-39
2.5866454 -0.71287698 -0.13910386 4.0554923e-39
2.5374188 -0.66129309 -0.11420851 3.9611653e-39
2.5534511 -0.67525876 -0.12387329 4.0540896e-39
2.5361924 -0.63401353 -0.11859424 4.3296003e-39
2.5533385 -0.64350545 -0.12416772 3.7771496e-39
2.538573 -0.61582404 -0.10982273 4.0548393e-39
2.5530567 -0.610309 -0.12507801 4.0547944e-39
2.5544889 -0.5817126 -0.12542291 4.329945e-39
2.5521331 -0.56534445 -0.12829086 4.3292163e-39
2.5889475 -0.56420672 -0.13014124 4.5143349e-39
2.6110582 -0.54955572 -0.13927153 5.5249051e-39
2.7063234 -0.85275 -0.14553167 7.9223614e-39
2.6499958 -0.81442833 -0.12390655 9.2145169e-39
2.6884181 -0.8366614 -0.13512693 9.8577073e-39
2.6325102 -0.78770083 -0.1157195 9.7687655e-39
2.6537406 -0.80017322 -0.11015996 8.8417687e-39
2.616765 -0.76441574 -0.11318714 6.4547647e-39
2.5755689 -0.72625315 -0.11141823 5.5263344e-39
2.5964725 -0.7360965 -0.10325328 5.3430375e-39
2.618438 -0.74629843 -0.094998218 5.3447962e-39
2.5761704 -0.70521098 -0.09673439 4.7923721e-39
2.5616043 -0.6741057 -0.094054431 4.2377592e-39
2.5457964 -0.64309758 -0.083508216 3.3168524e-39
2.5616555 -0.64277542 -0.093753219 3.5948925e-39
2.5433612 -0.60672563 -0.092279717 4.4207057e-39
2.5618434 -0.61113292 -0.092950039 3.9629842e-39
2.5700393 -0.58344203 -0.096998475 4.1466285e-39
2.5987611 -0.57348859 -0.094290614 4.6076137e-39
2.6182601 -0.56843066 -0.094998218 4.790563e-39
2.5950751 -0.56420058 -0.10773462 4.9721012e-39
2.6140137 -0.5550614 -0.11047813 5.7989654e-39
2.6755161 -0.81114042 -0.10639332 6.2613841e-39
2.6998463 -0.81253076 -0.093249954 5.8962029e-39
2.6379757 -0.78015041 -0.095705763 5.8025261e-39
2.6690118 -0.79373962 -0.092203513 5.8965364e-39
2.6408026 -0.76397979 -0.085309029 5.4366583e-39
2.6038117 -0.72215152 -0.076365329 4.9771095e-39
2.6227524 -0.73927301 -0.079195879 5.2529775e-39
2.5824714 -0.69731414 -0.069012575 4.8849391e-39
2.6062534 -0.71285737 -0.067402713 4.8856537e-39
2.5688529 -0.67409843 -0.067548744 4.606906e-39
2.5487971 -0.64536792 -0.072543845 3.7775013e-39
2.5700266 -0.63974857 -0.063131116 3.9629673e-39
2.5481586 -0.60672086 -0.074736707 3.6874595e-39
2.5693939 -0.61112535 -0.065339901 3.9636862e-39
2.5752573 -0.59423131 -0.066582911 4.1480789e-39
2.6042874 -0.58509779 -0.074124686 4.5150481e-39
2.6232066 -0.57591486 -0.076938398 3.8715018e-39
2.7068424 -0.81011182 -0.067658417 5.4373828e-39
2.7247608 -0.82745665 -0.078018814 6.0856571e-39
2.6790659 -0.78415519 -0.055404238 5.0653422e-39
2.7061942 -0.79805279 -0.069984898 5.3448144e-39
2.6454153 -0.75656497 -0.068414316 4.9767465e-39
2.6685629 -0.76419055 -0.055828083 5.4344905e-39
2.6344318 -0.72891909 -0.05445645 5.4348716e-39
2.592567 -0.68933338 -0.049125683 5.4377373e-39
2.6086998 -0.70820904 -0.058440041 5.1604427e-39
2.6323907 -0.70571816 -0.043828774 5.6188972e-39
2.5850892 -0.66846198 -0.042275645 5.0682303e-39
2.6147993 -0.68032765 -0.036033422 5.619979e-39
2.557781 -0.63399196 -0.039650742 4.9756899e-39
2.5768104 -0.6419276 -0.038332302 4.9746039e-39
2.5609581 -0.6127705 -0.027955404 4.2395696e-39
2.5759926 -0.60850167 -0.041200884 4.423221e-39
2.5949082 -0.59707409 -0.040226772 4.4196267e-39
2.6122601 -0.59205866 -0.044996094 4.2362948e-39
2.6289828 -0.59026325 -0.055868614 4.3299212e-39
2.6579063 -0.80842412 -0.022928512 1.2619316e-38
2.6906693 -0.81112522 -0.050982065 5.4305739e-39
2.6554241 -0.78897846 -0.024730947 9.5786065e-39
2.6785748 -0.79745293 -0.044611912 4.4214442e-39
2.6603518 -0.76598126 -0.013831363 1.3169504e-38
2.6844003 -0.76524621 -0.032382108 6.3589775e-39
2.7163448 -0.76909959 -0.032760862 4.2306238e-39
2.6528506 -0.72826391 -0.041122809 4.9767577e-39
2.6847539 -0.73303133 -0.026835172 3.77823e-39
2.6461158 -0.69973767 -0.029633025 5.0657192e-39
2.6774595 -0.70989078 -0.023098033 4.5154321e-39
2.6184621 -0.66638637 -0.022589471 5.4337884e-39
2.6448913 -0.67499304 -0.016012058 5.5274022e-39
2.6184528 -0.65709466 -0.022589471 5.5274092e-39
2.6355741 -0.59649765 -0.031788874 6.907478e-39
2.6308658 -0.81504202 0.022223771 9.8588031e-39
2.5723279 -0.78856832 0.012978231 8.1935154e-39
2.6051435 -0.78853118 0.023795011 9.1151326e-39
2.6567221 -0.79203862 -0.00018930128 9.2090813e-39
2.6027699 -0.76955807 0.022007909 7.2744458e-39
2.6295891 -0.76393861 0.017742435 6.8127348e-39
2.663167 -0.76053941 0.0054876786 1.0585182e-38
2.6812661 -0.75739151 -0.009351437 1.3442527e-38
2.6665475 -0.74239707 0.0089115379 1.2981925e-38
2.6965802 -0.73425686 -0.0074239871 1.0592035e-38
2.7239313 -0.72085339 -0.0048429067 5.529982e-39
2.6903157 -0.70787972 -0.013987372 3.8700613e-39
2.7239215 -0.71120566 -0.0048429067 1.9343944e-39
2.6186483 -0.81231648 0.045796245 1.1601857e-38
2.6357725 -0.81968296 0.040149 1.1881325e-38
2.6167874 -0.79123491 0.047598589 1.1875934e-38
2.6333075 -0.80574781 0.031186383 1.2338717e-38
2.6158996 -0.76384443 0.049569894 1.0772101e-38
2.635709 -0.75618941 0.040149055 9.8519368e-39
2.6594384 -0.75597775 0.026082594 8.9289085e-39
2.6663456 -0.74393857 0.036978804 9.9412541e-39
2.703866 -0.73740876 0.022817438 1.215215e-38
2.7280128 -0.73049706 0.010046719 1.3349602e-38
2.7510717 -0.72633088 0.018562263 1.5761462e-38
2.7871375 -0.71783614 -0.0049552787 1.8393219e-39
2.7264664 -0.71120316 0.0044631162 1.3366215e-38
2.628011 -0.84613472 0.07990884 1.1793869e-38
2.6704209 -0.84509665 0.070717596 1.179167e-38
2.6248446 -0.82055622 0.079797566 1.2151445e-38
2.6431301 -0.82432145 0.067036957 1.058881e-38
2.593111 -0.78248513 0.088997945 1.0127826e-38
2.613997 -0.79591548 0.077588588 1.1138019e-38
2.6126368 -0.76323164 0.079438001 1.2242919e-38
2.6430557 -0.74998754 0.067036957 1.1415657e-38
2.6291261 -0.74465096 0.084358327 1.2150379e-38
2.6721132 -0.73815399 0.062019225 1.0494443e-38
2.7015743 -0.72695076 0.054190259 1.0587359e-38
2.7341204 -0.73049092 0.032381069 1.372812e-38
2.7549181 -0.726327 0.03262743 1.6222838e-38
2.6826806 -0.70465612 0.068043031 1.622457e-38
2.6340947 -0.84612864 0.10215615 1.3164172e-38
2.6505108 -0.85218936 0.093924969 1.3267519e-38
2.6035388 -0.81581789 0.12700774 1.2428765e-38
2.6252451 -0.82702005 0.10398326 1.3441834e-38
2.6480415 -0.83360833 0.084962353 1.3264281e-38
2.597789 -0.79341769 0.11288746 1.3255637e-38
2.61639 -0.79427111 0.10584235 1.2985872e-38
2.6016784 -0.75443804 0.12042916 1.1228059e-38
2.6173255 -0.76312739 0.10937642 1.2979397e-38
2.6278949 -0.74066687 0.10716464 1.2887926e-38
2.6523547 -0.73511153 0.10109505 1.0311858e-38
2.6782889 -0.73095745 0.091903046 1.0769943e-38
2.706919 -0.72173738 0.084583841 1.1874138e-38
2.6864076 -0.69993681 0.081688784 1.5292203e-38
2.7100351 -0.70510769 0.096039325 1.427085e-38
2.6273086 -0.84005839 0.14560081 8.4715639e-39
2.6028223 -0.8213709 0.1471141 8.4683367e-39
2.637502 -0.83489585 0.13740189 1.0314376e-38
2.6071279 -0.80672067 0.14016503 7.5467363e-39
2.6248467 -0.79426271 0.13676566 1.2058905e-38
2.6058738 -0.75216043 0.13577931 8.4679513e-39
2.6253521 -0.7627123 0.13872896 8.4683325e-39
2.6389632 -0.73988074 0.13399506 1.0309672e-38
2.6597838 -0.72983867 0.12828186 8.8403086e-39
2.6839287 -0.72083288 0.10856063 8.3710768e-39
2.7125554 -0.71935648 0.10520379 1.1136943e-38
2.6389282 -0.70486289 0.13399506 3.589873e-39
2.6577246 -0.71280587 0.12081292 4.6943975e-39
2.6895018 -0.70267963 0.12000335 7.2694039e-39
2.7137895 -0.70035344 0.10978597 1.3067952e-38
2.6988323 -0.68577754 0.12717459 1.1967012e-38
2.6297295 -0.84463578 0.15443608 8.4701121e-39
2.6095858 -0.81885588 0.16616921 1.510133e-38
2.6296973 -0.81257713 0.15443608 8.7477794e-39
2.6150272 -0.79034436 0.16911097 1.5283932e-38
2.6317525 -0.79687285 0.16200902 1.4456692e-38
2.61307 -0.75215322 0.16209376 1.5009133e-38
2.6320636 -0.76261312 0.16327129 1.3075914e-38
2.6434262 -0.73880625 0.16396488 1.1599701e-38
2.6669369 -0.73370314 0.1544228 8.2856985e-39
2.6867394 -0.72750717 0.15482907 5.6167293e-39
2.6650777 -0.71279854 0.14770083 3.7742629e-39
2.6978805 -0.70149231 0.15064748 3.4054706e-39
2.6381583 -0.81714845 0.18535934 1.3716578e-38
2.6219018 -0.78851879 0.19425589 1.2054564e-38
2.6393485 -0.79882801 0.18977697 1.3256342e-38
2.6393116 -0.76218951 0.18977685 1.316485e-38
2.622642 -0.72940975 0.19717972 8.9274567e-39
2.6421194 -0.73301673 0.18650375 1.0864274e-38
2.6740801 -0.72827572 0.18056385 8.6591445e-39
2.6906493 -0.7275033 0.16912651 6.0805479e-39
2.6226285 -0.71576941 0.19717972 5.9868935e-39
