# .PCD v0.7 - Point Cloud Data file format
VERSION 0.7
FIELDS x y z rgb
SIZE 4 4 4 4
TYPE F F F F
COUNT 1 1 1 1
WIDTH 1027
HEIGHT 1
VIEWPOINT 0 0 0 1 0 0 0
POINTS 1027
DATA ascii
1.3932406 -1.4980289 -1.1244475 4.6097815e-40
1.3857651 -1.4866279 -1.1263822 4.6097815e-40
1.1038952 -1.3754206 -1.1868006 3.6878252e-40
1.0897145 -1.3766613 -1.2079306 4.6097815e-40
1.3839426 -1.5232049 -1.1245117 3.6878252e-40
1.3834387 -1.5100683 -1.1432073 4.6097815e-40
1.0653172 -1.3934166 -1.2128382 5.5317378e-40
1.0318253 -1.3981185 -1.2199042 6.4536941e-40
1.3776131 -1.5383611 -1.1247982 6.4536941e-40
1.3548754 -1.5471005 -1.1303846 3.6878252e-40
1.3410461 -1.5586126 -1.1291635 4.6097815e-40
1.3279624 -1.5673591 -1.1337428 4.6097815e-40
1.285151 -1.581085 -1.1375536 4.6097815e-40
1.2537407 -1.5908203 -1.1517611 5.5317378e-40
1.1375697 -1.2816359 -1.1756231 5.5317378e-40
1.1139824 -1.2614595 -1.1788545 5.5317378e-40
1.1392995 -1.3003265 -1.1694727 4.6097815e-40
1.1227483 -1.2802633 -1.1716956 4.6097815e-40
1.3450505 -1.4277242 -1.1094571 8.2976067e-40
1.1251438 -1.3267413 -1.1675618 4.6097815e-40
1.3763446 -1.4582034 -1.104093 5.5317378e-40
1.3607569 -1.4410177 -1.1052388 5.5317378e-40
1.3457708 -1.4352243 -1.1236306 6.4536941e-40
1.1165552 -1.3513254 -1.16861 4.6097815e-40
1.3832904 -1.505757 -1.0974565 7.3756504e-40
1.3756129 -1.487468 -1.1001406 4.6097815e-40
1.1005695 -1.3741245 -1.1718973 5.5317378e-40
1.0811083 -1.3790956 -1.1734905 4.6097815e-40
1.3769778 -1.5214016 -1.0966151 4.6097815e-40
1.3685647 -1.5147703 -1.0924734 4.6097815e-40
1.0656426 -1.3873036 -1.1676289 4.6097815e-40
1.3712766 -1.5358919 -1.0964048 4.6097815e-40
1.3495603 -1.5439869 -1.1014745 4.6097815e-40
1.3353277 -1.5563842 -1.1035396 5.5317378e-40
1.3160205 -1.5672942 -1.107461 4.6097815e-40
1.2795781 -1.5831792 -1.1142788 4.6097815e-40
1.1177708 -1.2410966 -1.1487678 6.4536941e-40
1.1309754 -1.2774214 -1.143581 5.5317378e-40
1.1171809 -1.2595145 -1.1464891 6.4536941e-40
1.1318355 -1.2970686 -1.1412933 6.4536941e-40
1.1246947 -1.3257004 -1.1408188 4.6097815e-40
1.3682785 -1.4604024 -1.0765564 6.4536941e-40
1.3488578 -1.4431803 -1.0826411 5.5317378e-40
1.3350605 -1.4346602 -1.0811104 7.3756504e-40
1.1263632 -1.3500528 -1.1284163 7.3756504e-40
1.1149943 -1.351446 -1.1421125 5.5317378e-40
1.3795354 -1.5042937 -1.0806308 4.6097815e-40
1.3669169 -1.4836038 -1.0726229 5.5317378e-40
1.0975313 -1.3647169 -1.1458166 6.4536941e-40
1.0748959 -1.3750325 -1.147815 4.6097815e-40
1.3736459 -1.5194068 -1.0806308 4.6097815e-40
1.3601949 -1.5156676 -1.0700557 5.5317378e-40
1.0454171 -1.384593 -1.1406505 6.4536941e-40
1.3420715 -1.5415648 -1.0741891 5.5317378e-40
1.3296093 -1.5541556 -1.0779157 6.4536941e-40
1.3125311 -1.560845 -1.074568 5.5317378e-40
1.2951773 -1.5697253 -1.0920758 4.6097815e-40
1.2740664 -1.5831122 -1.0853971 5.5317378e-40
1.2497264 -1.5960538 -1.0796806 1.1985432e-39
1.1300893 -1.2720568 -1.1126815 4.6097815e-40
1.113894 -1.254313 -1.116514 5.5317378e-40
1.1379813 -1.3066417 -1.1078016 4.6097815e-40
1.1308212 -1.2885689 -1.1083614 6.4536941e-40
1.1281569 -1.3320013 -1.1080281 4.6097815e-40
1.1191099 -1.319436 -1.1095961 4.6097815e-40
1.3607233 -1.4584684 -1.0538933 7.3756504e-40
1.3415636 -1.4472482 -1.0514963 5.5317378e-40
1.3237702 -1.4434958 -1.0505828 6.4536941e-40
1.1215415 -1.3497988 -1.109274 4.6097815e-40
1.1044457 -1.3595091 -1.1133006 5.5317378e-40
1.3577935 -1.4802761 -1.0446424 4.6097815e-40
1.0961475 -1.3719286 -1.1101509 7.3756504e-40
1.0649626 -1.3802898 -1.1264442 4.6097815e-40
1.3504015 -1.5115888 -1.0445915 5.5317378e-40
1.3318317 -1.5368297 -1.0466576 4.6097815e-40
1.320317 -1.5505345 -1.0362768 4.6097815e-40
1.3061514 -1.5601256 -1.0515219 4.6097815e-40
1.2846384 -1.5710061 -1.0530189 4.6097815e-40
1.2651027 -1.5809051 -1.0564276 4.6097815e-40
1.252142 -1.592369 -1.0577325 4.6097815e-40
1.2300348 -1.590512 -1.0519185 7.3756504e-40
1.1261785 -1.2705505 -1.0823046 4.6097815e-40
1.1036468 -1.250811 -1.0899459 5.5317378e-40
1.1313552 -1.3032471 -1.0768794 4.6097815e-40
1.1250795 -1.2870126 -1.0836654 3.6878252e-40
1.1232824 -1.3282585 -1.0801718 4.6097815e-40
1.3335178 -1.4485934 -1.0247616 6.4536941e-40
1.1123047 -1.3556013 -1.0821382 5.5317378e-40
1.094892 -1.3563311 -1.0713173 5.5317378e-40
1.3454986 -1.4776762 -1.0197167 5.5317378e-40
1.335384 -1.4685769 -1.0092822 4.6097815e-40
1.1055095 -1.3744268 -1.0842417 5.5317378e-40
1.086376 -1.3682151 -1.0733768 4.6097815e-40
1.3421937 -1.5083091 -1.014588 4.6097815e-40
1.3311217 -1.5353333 -1.0138658 4.6097815e-40
1.3174578 -1.5494202 -1.0234649 4.6097815e-40
1.3042488 -1.5532507 -1.016525 4.6097815e-40
1.279924 -1.5637811 -1.0237263 4.6097815e-40
1.2573047 -1.5728705 -1.0310837 4.6097815e-40
1.2280136 -1.5832254 -1.0358711 5.5317378e-40
1.1181123 -1.2679093 -1.0533613 4.6097815e-40
1.0948508 -1.2480915 -1.0609069 6.4536941e-40
1.1305994 -1.2975577 -1.0492151 6.4536941e-40
1.1197139 -1.2787893 -1.0503258 5.5317378e-40
1.1247034 -1.3257847 -1.046531 5.5317378e-40
1.3269405 -1.447699 -0.99845046 4.6097815e-40
1.3096114 -1.4427911 -0.99443424 7.3756504e-40
1.1080687 -1.3445485 -1.0489023 4.6097815e-40
1.090589 -1.3538756 -1.0508549 6.4536941e-40
1.3347089 -1.4819115 -0.98823202 4.6097815e-40
1.325381 -1.4652598 -0.99217272 5.5317378e-40
1.3044245 -1.4534036 -0.99034578 6.4536941e-40
1.0806518 -1.3640231 -1.0533401 4.6097815e-40
1.3310616 -1.5037158 -0.98629075 4.6097815e-40
1.3187263 -1.5306933 -0.986485 4.6097815e-40
1.3103098 -1.5466347 -0.99143499 6.4536941e-40
1.2927489 -1.5539298 -0.98712957 4.6097815e-40
1.275566 -1.5620828 -1.004198 4.6097815e-40
1.2467847 -1.5711464 -0.99470025 4.6097815e-40
1.2081493 -1.582317 -0.99728876 5.5317378e-40
1.0891485 -1.2299427 -1.0205127 7.3756504e-40
1.1108096 -1.2659411 -1.0256497 4.6097815e-40
1.0869975 -1.2460622 -1.0319312 6.4536941e-40
1.1403477 -1.3062748 -1.0134141 5.5317378e-40
1.1274188 -1.292551 -1.0176103 5.5317378e-40
1.1131003 -1.276212 -1.0206906 5.5317378e-40
1.1332901 -1.3195858 -1.0061375 4.6097815e-40
1.1186093 -1.3238382 -1.0180333 4.6097815e-40
1.3048668 -1.4409422 -0.9731741 1.2907388e-39
1.1014965 -1.3419873 -1.0194526 3.6878252e-40
1.0849357 -1.3519061 -1.0258768 4.6097815e-40
1.3277947 -1.4827518 -0.9626081 8.2976067e-40
1.3101193 -1.4703476 -0.96418977 4.6097815e-40
1.2985449 -1.452261 -0.9657405 5.5317378e-40
1.0717957 -1.3626846 -1.0220122 5.5317378e-40
1.3203473 -1.4980819 -0.9568764 5.5317378e-40
1.3108742 -1.4842583 -0.9520182 4.6097815e-40
1.3099843 -1.5251217 -0.95600766 5.5317378e-40
1.301151 -1.5450854 -0.95345676 4.6097815e-40
1.2868954 -1.5546756 -0.9634434 4.6097815e-40
1.2622403 -1.5640737 -0.95537692 4.6097815e-40
1.2399634 -1.5693347 -0.9725737 4.6097815e-40
1.2061789 -1.5798831 -0.98235613 4.6097815e-40
1.0988293 -1.2616048 -0.99454856 4.6097815e-40
1.0896337 -1.2478626 -1.0017277 5.5317378e-40
1.1204886 -1.2918656 -0.98987556 3.6878252e-40
1.1064868 -1.2736348 -0.99105531 4.6097815e-40
1.1316661 -1.3189529 -0.99886066 3.6878252e-40
1.1116111 -1.3206944 -0.98788327 5.5317378e-40
1.0926056 -1.3462728 -0.99136215 4.6097815e-40
1.3014631 -1.4652753 -0.94387275 5.5317378e-40
1.2851706 -1.4557986 -0.94639593 5.5317378e-40
1.2511843 -1.4522368 -0.95319074 7.3756504e-40
1.0703104 -1.3667384 -0.99146688 5.5317378e-40
1.3120347 -1.5031216 -0.93217975 3.6878252e-40
1.2983104 -1.4892589 -0.93321228 5.5317378e-40
1.2773986 -1.473899 -0.9318924 5.5317378e-40
1.2463284 -1.4577278 -0.94262511 5.5317378e-40
1.2177272 -1.449406 -0.9532665 8.2976067e-40
1.3034276 -1.5227438 -0.9284429 5.5317378e-40
1.2967573 -1.510365 -0.92236793 3.6878252e-40
1.2968844 -1.5437595 -0.9348489 5.5317378e-40
1.2823662 -1.5484989 -0.92809707 4.6097815e-40
1.2649078 -1.5630395 -0.93198711 4.6097815e-40
1.2360855 -1.570943 -0.94561476 3.6878252e-40
1.2377421 -1.5808282 -0.92411214 4.6097815e-40
1.0968432 -1.2534295 -0.97442913 5.5317378e-40
1.0738757 -1.2466916 -0.97160727 7.3756504e-40
1.0477462 -1.2305312 -0.97196633 7.3756504e-40
1.1293862 -1.3020031 -0.96429604 5.5317378e-40
1.1148157 -1.2888472 -0.95758891 5.5317378e-40
1.1006999 -1.2713797 -0.96512449 4.6097815e-40
1.0767322 -1.262331 -0.96549994 1.1985432e-39
1.1054921 -1.318136 -0.95836049 4.6097815e-40
1.0884941 -1.3465282 -0.96201628 5.5317378e-40
1.2377299 -1.4450428 -0.91856682 7.3756504e-40
1.2196895 -1.4390891 -0.92236227 6.4536941e-40
1.0755661 -1.3654664 -0.95417261 6.4536941e-40
1.0616016 -1.3733381 -0.96759409 6.4536941e-40
1.2853681 -1.4967299 -0.90986347 4.6097815e-40
1.2657638 -1.4765091 -0.90972978 5.5317378e-40
1.2395473 -1.4554918 -0.91675806 6.4536941e-40
1.2851604 -1.5158007 -0.90501058 5.5317378e-40
1.2599906 -1.5064762 -0.89794582 4.6097815e-40
1.2745119 -1.5416675 -0.90904254 4.6097815e-40
1.2471048 -1.5377103 -0.89993984 7.3756504e-40
1.2537717 -1.5662287 -0.91138881 4.6097815e-40
1.23746 -1.5637474 -0.90372604 5.5317378e-40
1.2282534 -1.5829049 -0.90465879 4.6097815e-40
1.1067412 -1.2692795 -0.92963123 4.6097815e-40
1.0843551 -1.2608984 -0.93717098 9.219563e-40
1.0628955 -1.2412183 -0.94477975 6.4536941e-40
1.1181437 -1.3056526 -0.9260931 4.6097815e-40
1.109482 -1.2874763 -0.92924082 5.5317378e-40
1.097393 -1.2700911 -0.95030689 4.6097815e-40
1.1124289 -1.3275176 -0.9370082 4.6097815e-40
1.0995591 -1.3154999 -0.92760444 5.5317378e-40
1.1012957 -1.3512863 -0.92973149 4.6097815e-40
1.0912166 -1.3417611 -0.92760211 6.4536941e-40
1.2327678 -1.4443251 -0.8802861 7.3756504e-40
1.2138312 -1.4305663 -0.89523941 7.3756504e-40
1.1918135 -1.4143609 -0.88805526 6.4536941e-40
1.0764298 -1.3716434 -0.93255156 6.4536941e-40
1.0558996 -1.376567 -0.95030689 8.2976067e-40
1.2584296 -1.4737978 -0.88153368 5.5317378e-40
1.2341602 -1.4537947 -0.8893261 6.4536941e-40
1.0531335 -1.3836653 -0.95030689 8.2976067e-40
1.2526896 -1.5029396 -0.87911594 5.5317378e-40
1.2444316 -1.5321724 -0.8782419 4.6097815e-40
1.2250477 -1.5608625 -0.88061601 5.5317378e-40
1.2134641 -1.5845085 -0.87817997 4.6097815e-40
1.1015434 -1.2631913 -0.90018153 5.5317378e-40
1.0876691 -1.251537 -0.90495932 6.4536941e-40
1.0636342 -1.2401736 -0.92082119 8.2976067e-40
1.0970631 -1.2847545 -0.90256178 5.5317378e-40
1.1052923 -1.3213192 -0.89126217 4.6097815e-40
1.0917611 -1.310638 -0.90543413 4.6097815e-40
1.0991263 -1.3504471 -0.89624196 4.6097815e-40
1.0891929 -1.3350694 -0.9095847 3.6878252e-40
1.2237376 -1.4386014 -0.86867952 7.3756504e-40
1.2046285 -1.4266604 -0.86505556 7.3756504e-40
1.1902803 -1.4137634 -0.88118535 7.3756504e-40
1.088722 -1.3724575 -0.89886165 5.5317378e-40
1.2462884 -1.4722511 -0.85238594 4.6097815e-40
1.2246609 -1.4506701 -0.86084437 5.5317378e-40
1.1930618 -1.4376475 -0.85522884 6.4536941e-40
1.0637958 -1.3857566 -0.88762587 6.4536941e-40
1.2415564 -1.500489 -0.85331166 4.6097815e-40
1.2360076 -1.5306036 -0.84981191 4.6097815e-40
1.2212622 -1.5592871 -0.85149676 3.6878252e-40
1.2039752 -1.5819807 -0.85174525 4.6097815e-40
1.1906666 -1.5949327 -0.84822679 3.6878252e-40
1.1787978 -1.5957032 -0.8461557 5.5317378e-40
1.0971673 -1.2574235 -0.87441307 5.5317378e-40
1.0885935 -1.2386982 -0.87707007 5.5317378e-40
1.1080253 -1.2925317 -0.86683941 6.4536941e-40
1.0992115 -1.2802361 -0.87011629 7.3756504e-40
1.112596 -1.3194745 -0.8648563 5.5317378e-40
1.1017175 -1.3469666 -0.86643636 4.6097815e-40
1.1879752 -1.4219316 -0.83492231 6.4536941e-40
1.1814159 -1.4153633 -0.84912568 7.3756504e-40
1.0864832 -1.3715302 -0.86713189 4.6097815e-40
1.2414684 -1.4762281 -0.8262713 4.6097815e-40
1.2150093 -1.4575992 -0.83013272 5.5317378e-40
1.1943111 -1.4368099 -0.83864152 5.5317378e-40
1.0682085 -1.3905916 -0.86060226 6.4536941e-40
1.0546229 -1.3873982 -0.87503839 6.4536941e-40
1.240417 -1.4977428 -0.8197614 5.5317378e-40
1.2306617 -1.5279276 -0.81980586 5.5317378e-40
1.2155515 -1.5571731 -0.82226241 4.6097815e-40
1.1929085 -1.5739121 -0.82508141 3.6878252e-40
1.1779221 -1.583218 -0.83240843 4.6097815e-40
1.1630347 -1.5932868 -0.82839644 4.6097815e-40
1.0997772 -1.2308148 -0.84422725 6.4536941e-40
1.0921912 -1.2551105 -0.84686506 5.5317378e-40
1.081532 -1.2407436 -0.84411401 5.5317378e-40
1.1116931 -1.2918816 -0.83547258 5.5317378e-40
1.0944984 -1.271534 -0.84678298 7.3756504e-40
1.1193165 -1.3325096 -0.8168146 4.6097815e-40
1.1123576 -1.3204833 -0.83515191 5.5317378e-40
1.1153131 -1.3427829 -0.8168146 4.6097815e-40
1.1030157 -1.3517158 -0.83403575 6.4536941e-40
1.1878333 -1.4218595 -0.80988312 6.4536941e-40
1.0816407 -1.3741925 -0.83647782 5.5317378e-40
1.2233768 -1.4742289 -0.79248887 4.6097815e-40
1.2115546 -1.4550092 -0.8012749 4.6097815e-40
1.1836976 -1.431006 -0.81624472 5.5317378e-40
1.0749056 -1.3935884 -0.83323997 6.4536941e-40
1.2406777 -1.511575 -0.78331941 4.6097815e-40
1.2304978 -1.4928278 -0.79114413 4.6097815e-40
1.2323561 -1.5257449 -0.78101611 5.5317378e-40
1.2247715 -1.5292491 -0.79546094 5.5317378e-40
1.2305324 -1.5445334 -0.8024044 4.6097815e-40
1.2139208 -1.553497 -0.79000962 5.5317378e-40
1.1911236 -1.5753701 -0.79172683 4.6097815e-40
1.1732051 -1.5837406 -0.80626374 9.219563e-40
1.1759086 -1.5891815 -0.7820971 4.6097815e-40
1.1546087 -1.5966756 -0.8025952 5.5317378e-40
1.096019 -1.2271837 -0.82410336 6.4536941e-40
1.0779126 -1.220184 -0.81603861 8.2976067e-40
1.0436897 -1.2122276 -0.81681347 8.2976067e-40
1.1081536 -1.2655737 -0.80929649 7.3756504e-40
1.0863292 -1.2540026 -0.81676102 5.5317378e-40
1.0730653 -1.2379031 -0.82092267 9.219563e-40
1.0536277 -1.2202278 -0.81179047 7.3756504e-40
1.1236112 -1.3026278 -0.78822142 4.6097815e-40
1.115499 -1.2887139 -0.80606937 4.6097815e-40
1.1297125 -1.3289891 -0.79353166 4.6097815e-40
1.1086369 -1.3163613 -0.81261081 4.6097815e-40
1.2112786 -1.4040812 -0.76787913 7.3756504e-40
1.1353695 -1.3645511 -0.7818687 8.2976067e-40
1.1205691 -1.3565459 -0.7980215 4.6097815e-40
1.2047846 -1.4269304 -0.76771557 6.4536941e-40
1.1910983 -1.4154865 -0.77769804 6.4536941e-40
1.1341637 -1.3982202 -0.78099453 7.3756504e-40
1.1048741 -1.3849226 -0.79769343 5.5317378e-40
1.0856185 -1.3834832 -0.81451708 5.5317378e-40
1.2247503 -1.464458 -0.76298606 4.6097815e-40
1.2100794 -1.4454626 -0.77520972 4.6097815e-40
1.1021469 -1.4000719 -0.80521983 6.4536941e-40
1.2352554 -1.5108987 -0.76120156 4.6097815e-40
1.2220764 -1.4932792 -0.76622474 4.6097815e-40
1.2298918 -1.5270891 -0.75813323 4.6097815e-40
1.2176126 -1.5224487 -0.75730163 4.6097815e-40
1.2233852 -1.5445464 -0.75315392 3.6878252e-40
1.2076795 -1.5540179 -0.76651937 5.5317378e-40
1.1883442 -1.5741266 -0.76471913 4.6097815e-40
1.1714813 -1.5874562 -0.76225823 4.6097815e-40
1.1558796 -1.5954782 -0.76739132 4.6097815e-40
1.0914798 -1.2064558 -0.7750206 7.3756504e-40
1.0703361 -1.2165146 -0.78958869 7.3756504e-40
1.1092305 -1.2658738 -0.77959543 5.5317378e-40
1.0847511 -1.2464979 -0.78378874 5.5317378e-40
1.0660963 -1.232389 -0.79429889 5.5317378e-40
1.1301898 -1.2963662 -0.7688303 5.5317378e-40
1.1167009 -1.2831672 -0.78335559 7.3756504e-40
1.1420583 -1.334929 -0.7582587 5.5317378e-40
1.1359304 -1.3259436 -0.77274656 5.5317378e-40
1.1791825 -1.3915538 -0.73779809 6.4536941e-40
1.1564033 -1.3667763 -0.7490043 4.6097815e-40
1.138091 -1.3619145 -0.76746988 5.5317378e-40
1.1280098 -1.3505054 -0.77917051 5.5317378e-40
1.2025967 -1.4319561 -0.74416298 4.6097815e-40
1.1836097 -1.4105551 -0.750018 6.4536941e-40
1.1546264 -1.3931106 -0.75840098 6.4536941e-40
1.1328236 -1.3837767 -0.76962674 5.5317378e-40
1.1148183 -1.3843561 -0.77917051 6.4536941e-40
1.2219757 -1.4623362 -0.73737699 6.4536941e-40
1.2057178 -1.4435489 -0.73861438 4.6097815e-40
1.2267051 -1.5071224 -0.73080021 4.6097815e-40
1.2227572 -1.4902288 -0.73407084 5.5317378e-40
1.2205501 -1.5214862 -0.72863036 6.4536941e-40
1.2115204 -1.5272939 -0.74094772 4.6097815e-40
1.2141519 -1.5508057 -0.7286734 5.5317378e-40
1.2044458 -1.5389755 -0.73113537 6.4536941e-40
1.2002215 -1.5686407 -0.72103602 4.6097815e-40
1.1846603 -1.57751 -0.7360034 5.5317378e-40
1.1664823 -1.5914476 -0.73812908 4.6097815e-40
1.1437598 -1.6000087 -0.74213833 5.5317378e-40
1.0630319 -1.2139012 -0.76825184 7.3756504e-40
1.1300637 -1.2767786 -0.73635429 5.5317378e-40
1.1072118 -1.2572911 -0.74963957 5.5317378e-40
1.0855014 -1.2407348 -0.7522136 4.6097815e-40
1.061955 -1.2286443 -0.76249337 5.5317378e-40
1.1411897 -1.3125343 -0.72565311 5.5317378e-40
1.1334956 -1.2960465 -0.74049067 4.6097815e-40
1.178985 -1.3598543 -0.71258628 4.6097815e-40
1.1601158 -1.3490914 -0.72651637 3.6878252e-40
1.1425642 -1.3296919 -0.73497295 4.6097815e-40
1.1333166 -1.3135819 -0.74383944 3.6878252e-40
1.1782968 -1.3786411 -0.71814871 4.6097815e-40
1.1682938 -1.3680234 -0.73418403 4.6097815e-40
1.1965095 -1.426223 -0.72057384 4.6097815e-40
1.1770288 -1.4074073 -0.71760654 5.5317378e-40
1.2123362 -1.4612734 -0.70843422 5.5317378e-40
1.1969955 -1.4418472 -0.7094636 4.6097815e-40
1.2244517 -1.5004532 -0.69904298 6.4536941e-40
1.217477 -1.484805 -0.70631278 4.6097815e-40
1.2152618 -1.5214661 -0.69997835 5.5317378e-40
1.2061596 -1.5492493 -0.69958413 4.6097815e-40
1.1983538 -1.5438207 -0.71478134 3.6878252e-40
1.1949416 -1.56802 -0.69955474 4.6097815e-40
1.1816996 -1.5798446 -0.70460552 4.6097815e-40
1.162431 -1.5935838 -0.70567548 4.6097815e-40
1.0581725 -1.2158626 -0.74128157 6.4536941e-40
1.0430408 -1.2078273 -0.75180626 6.4536941e-40
1.1265196 -1.2690285 -0.70996004 4.6097815e-40
1.1030283 -1.2488005 -0.72099751 6.4536941e-40
1.075757 -1.2308446 -0.72507155 5.5317378e-40
1.0596828 -1.2226899 -0.73174715 5.5317378e-40
1.0190268 -1.2088531 -0.74366033 6.4536941e-40
1.1597289 -1.3190117 -0.68953043 4.6097815e-40
1.1411606 -1.3062713 -0.70659977 4.6097815e-40
1.1345164 -1.2897881 -0.71243405 4.6097815e-40
1.1844295 -1.3558661 -0.68943983 5.5317378e-40
1.1630342 -1.3384002 -0.69958186 4.6097815e-40
1.1376704 -1.3217447 -0.71411884 4.6097815e-40
1.1974351 -1.3906021 -0.67749244 4.6097815e-40
1.1862468 -1.3774011 -0.69194943 4.6097815e-40
1.2113128 -1.424175 -0.66967672 4.6097815e-40
1.1923497 -1.4162161 -0.68580669 5.5317378e-40
1.1787452 -1.4027401 -0.69724429 5.5317378e-40
1.2102911 -1.4601901 -0.67498523 5.5317378e-40
1.1894975 -1.4398583 -0.69054925 4.6097815e-40
1.2178594 -1.4970188 -0.67096901 4.6097815e-40
1.2123226 -1.480126 -0.67646486 4.6097815e-40
1.2173784 -1.5230348 -0.67141396 4.6097815e-40
1.2079898 -1.5521966 -0.67146802 5.5317378e-40
1.1855382 -1.5715393 -0.66830933 4.6097815e-40
1.1744502 -1.5802281 -0.6769855 4.6097815e-40
1.1559864 -1.5964432 -0.67625064 4.6097815e-40
1.1347418 -1.6078846 -0.69323665 4.6097815e-40
1.0959563 -1.2311532 -0.685624 5.5317378e-40
1.0711424 -1.2188901 -0.69758242 5.5317378e-40
1.0484364 -1.2109816 -0.70888698 5.5317378e-40
1.139923 -1.2810209 -0.67295104 5.5317378e-40
1.1247698 -1.2621014 -0.6824556 4.6097815e-40
1.1022418 -1.242388 -0.69619721 4.6097815e-40
1.0776169 -1.2295843 -0.70463628 8.2976067e-40
1.1768243 -1.3263291 -0.65335625 5.5317378e-40
1.1649681 -1.3103335 -0.66724086 4.6097815e-40
1.1444671 -1.2926819 -0.68132079 5.5317378e-40
1.1320429 -1.2818925 -0.69084299 4.6097815e-40
1.1943204 -1.3678077 -0.64691859 3.6878252e-40
1.1833636 -1.3507006 -0.66231656 4.6097815e-40
1.1651087 -1.3329897 -0.67261732 5.5317378e-40
1.2365104 -1.4175531 -0.63315821 4.6097815e-40
1.2185297 -1.4041302 -0.64589787 5.5317378e-40
1.2016258 -1.3874837 -0.65465796 4.6097815e-40
1.1858635 -1.3708826 -0.66590613 5.5317378e-40
1.2532218 -1.4501563 -0.62309152 5.5317378e-40
1.2396377 -1.4369849 -0.63185084 4.6097815e-40
1.2174319 -1.4257345 -0.65291536 5.5317378e-40
1.2027938 -1.4069425 -0.65334475 4.6097815e-40
1.2460464 -1.468569 -0.62309152 4.6097815e-40
1.2262244 -1.4671787 -0.64154428 6.4536941e-40
1.2121649 -1.4549437 -0.65523869 4.6097815e-40
1.2352835 -1.4961883 -0.62309146 5.5317378e-40
1.220152 -1.4943959 -0.6430828 5.5317378e-40
1.2071968 -1.482293 -0.65590703 4.6097815e-40
1.2231641 -1.5279919 -0.62415916 3.6878252e-40
1.2185476 -1.5225595 -0.64338428 3.6878252e-40
1.2158282 -1.5475205 -0.6252268 5.5317378e-40
1.2059838 -1.5518095 -0.6428054 4.6097815e-40
1.1871033 -1.5702822 -0.64029223 3.6878252e-40
1.1659281 -1.58172 -0.64609468 3.6878252e-40
1.1521577 -1.5939982 -0.64626521 3.6878252e-40
1.1228718 -1.6032591 -0.64004749 9.219563e-40
1.1725428 -1.2628212 -0.63058126 4.6097815e-40
1.1501799 -1.2482361 -0.63953841 4.6097815e-40
1.1260629 -1.2379706 -0.65108234 5.5317378e-40
1.0958197 -1.2257262 -0.6665616 5.5317378e-40
1.195675 -1.2926285 -0.62193495 5.5317378e-40
1.170208 -1.2815839 -0.6420719 5.5317378e-40
1.1471566 -1.2663912 -0.65529996 4.6097815e-40
1.1300956 -1.2539107 -0.65802109 4.6097815e-40
1.2062393 -1.3308372 -0.62006539 4.6097815e-40
1.1904688 -1.3165351 -0.63470483 5.5317378e-40
1.174064 -1.3013006 -0.64760816 4.6097815e-40
1.2467712 -1.3870976 -0.60543823 5.5317378e-40
1.2242389 -1.3740627 -0.61179227 5.5317378e-40
1.2068174 -1.3564433 -0.62678683 4.6097815e-40
1.1903428 -1.3434116 -0.64168537 6.4536941e-40
1.2663234 -1.4198073 -0.60229069 4.6097815e-40
1.2509196 -1.4007204 -0.61217511 5.5317378e-40
1.2230664 -1.3895605 -0.62858021 4.6097815e-40
1.2005332 -1.3735095 -0.63679868 4.6097815e-40
1.2756706 -1.4475701 -0.59058386 4.6097815e-40
1.263894 -1.4448731 -0.60588515 5.5317378e-40
1.2626368 -1.4796286 -0.58848065 4.6097815e-40
1.2550397 -1.4734845 -0.60188806 4.6097815e-40
1.2389307 -1.50152 -0.60457808 4.6097815e-40
1.2316278 -1.5272974 -0.60290331 3.6878252e-40
1.2127057 -1.551348 -0.60508233 3.6878252e-40
1.1850928 -1.5722533 -0.61184585 3.6878252e-40
1.1622784 -1.5802977 -0.62974072 3.6878252e-40
1.1745106 -1.5943069 -0.60268229 3.6878252e-40
1.1497573 -1.5919819 -0.62327808 3.6878252e-40
1.1279999 -1.2108696 -0.61896336 5.5317378e-40
1.1730703 -1.2553916 -0.61192441 8.2976067e-40
1.1475736 -1.2362378 -0.6190809 7.3756504e-40
1.1328588 -1.2242404 -0.62072301 5.5317378e-40
1.2093779 -1.3034871 -0.59477371 5.5317378e-40
1.19601 -1.2821804 -0.60353613 5.5317378e-40
1.2212597 -1.3441234 -0.58701468 6.4536941e-40
1.2112498 -1.3263509 -0.5984093 5.5317378e-40
1.2418529 -1.3837415 -0.58316875 7.3756504e-40
1.222883 -1.3622736 -0.59222478 5.5317378e-40
1.2140074 -1.345275 -0.60347986 7.3756504e-40
1.2780851 -1.4264605 -0.56797445 5.5317378e-40
1.2665178 -1.4130743 -0.5762791 4.6097815e-40
1.2541908 -1.3963356 -0.5839082 4.6097815e-40
1.270923 -1.4472675 -0.57165498 4.6097815e-40
1.2636313 -1.4493823 -0.58513457 3.6878252e-40
1.2602947 -1.4752343 -0.57270658 4.6097815e-40
1.2588958 -1.4615344 -0.58513457 4.6097815e-40
1.2482294 -1.5034741 -0.56858104 3.6878252e-40
1.2438222 -1.4988194 -0.58302069 3.6878252e-40
1.2412177 -1.5200249 -0.56639701 4.6097815e-40
1.2303073 -1.5278053 -0.57790047 3.6878252e-40
1.2086984 -1.5514069 -0.57694358 4.6097815e-40
1.1918781 -1.5723572 -0.56970841 3.6878252e-40
1.1838078 -1.578391 -0.58610147 4.6097815e-40
1.1712693 -1.5991104 -0.58215135 4.6097815e-40
1.120159 -1.2081993 -0.60015416 6.4536941e-40
1.1859378 -1.2663357 -0.57424766 6.4536941e-40
1.1668744 -1.2496486 -0.5826574 5.5317378e-40
1.1390427 -1.2309493 -0.58574712 6.4536941e-40
1.1275162 -1.2199173 -0.59338558 7.3756504e-40
1.2243341 -1.3136964 -0.55284768 6.4536941e-40
1.2090129 -1.3001335 -0.56774771 4.6097815e-40
1.1944711 -1.2802302 -0.57527226 5.5317378e-40
1.2215613 -1.3356168 -0.56098258 4.6097815e-40
1.215938 -1.3191233 -0.57134473 5.5317378e-40
1.2563969 -1.3913015 -0.54621983 4.6097815e-40
1.2390207 -1.3791207 -0.55493802 5.5317378e-40
1.221029 -1.3596234 -0.56163323 4.6097815e-40
1.2718704 -1.420557 -0.53484893 1.1985432e-39
1.2654781 -1.4123436 -0.54792887 5.5317378e-40
1.2499516 -1.3926535 -0.56183475 5.5317378e-40
1.2644753 -1.4462864 -0.54332989 6.4536941e-40
1.2589227 -1.4405485 -0.55342585 5.5317378e-40
1.2544987 -1.4741679 -0.54302377 6.4536941e-40
1.2456684 -1.4703772 -0.54708415 3.6878252e-40
1.2476907 -1.5007138 -0.54382378 5.5317378e-40
1.2324756 -1.5292282 -0.54298067 4.6097815e-40
1.2224531 -1.5383167 -0.5597676 5.5317378e-40
1.2218784 -1.5500903 -0.53674179 4.6097815e-40
1.2106586 -1.5575893 -0.54739559 3.6878252e-40
1.1914881 -1.5756135 -0.54853892 4.6097815e-40
1.1620132 -1.5957767 -0.55499196 4.6097815e-40
1.1347518 -1.5948383 -0.54470003 4.6097815e-40
1.1305969 -1.6076577 -0.54797083 3.6878252e-40
1.1366054 -1.2176883 -0.56403345 5.5317378e-40
1.1785448 -1.2597135 -0.54489362 7.3756504e-40
1.1632831 -1.2418969 -0.54995954 7.3756504e-40
1.1391007 -1.2291306 -0.55960357 8.2976067e-40
1.1144636 -1.2169176 -0.56742436 5.5317378e-40
1.2213049 -1.3091102 -0.53411096 7.3756504e-40
1.2048254 -1.2932782 -0.54045224 9.219563e-40
1.1868225 -1.2752824 -0.54551458 6.4536941e-40
1.2191184 -1.3332181 -0.53210044 1.1063476e-39
1.2546803 -1.3859386 -0.51981926 1.1985432e-39
1.2365386 -1.3742465 -0.52468365 1.2907388e-39
1.220976 -1.358391 -0.52883244 7.3756504e-40
1.2686993 -1.4191852 -0.51184529 1.1063476e-39
1.2612623 -1.4003603 -0.51540172 9.219563e-40
1.2634681 -1.4435974 -0.51189148 9.219563e-40
1.2560362 -1.4738681 -0.51191801 8.2976067e-40
1.2461154 -1.5032475 -0.51324332 8.2976067e-40
1.2324921 -1.5290881 -0.51184726 8.2976067e-40
1.2218051 -1.5499688 -0.51308876 6.4536941e-40
1.2032599 -1.5616318 -0.52044886 5.5317378e-40
1.1849703 -1.5695699 -0.5192908 1.0141519e-39
1.1679372 -1.5762143 -0.52106017 5.5317378e-40
1.143851 -1.5883981 -0.52096295 6.4536941e-40
1.1323682 -1.5931875 -0.53292519 9.219563e-40
1.1322619 -1.6092066 -0.51815754 6.4536941e-40
1.1267834 -1.6073748 -0.53270715 4.6097815e-40
1.1946951 -1.2715424 -0.50243801 8.2976067e-40
1.1760613 -1.26358 -0.51748151 1.1063476e-39
1.1538651 -1.2443154 -0.52153367 8.2976067e-40
1.1311046 -1.2249286 -0.53472018 1.0141519e-39
1.1183656 -1.2167757 -0.53891969 7.3756504e-40
1.2161716 -1.302193 -0.50365657 1.0141519e-39
1.2022591 -1.2848314 -0.50907731 9.219563e-40
1.1859043 -1.2745458 -0.52001828 1.5673257e-39
1.2272351 -1.3468893 -0.48994988 1.1063476e-39
1.219788 -1.3302053 -0.50115824 1.1985432e-39
1.269325 -1.3917118 -0.48121718 1.4751301e-39
1.2536203 -1.3844208 -0.49064144 9.219563e-40
1.2334739 -1.3652241 -0.49639967 1.0141519e-39
1.2179557 -1.3511233 -0.49890894 1.3829344e-39
1.2649366 -1.4130101 -0.48355407 1.1063476e-39
1.2648486 -1.4482092 -0.48022452 9.219563e-40
1.2604772 -1.4767033 -0.48180622 9.219563e-40
1.2601107 -1.5105293 -0.47094318 7.3756504e-40
1.2551439 -1.5013477 -0.48461896 1.0141519e-39
1.253249 -1.5284512 -0.47141862 9.219563e-40
1.2387666 -1.5356288 -0.48391929 9.219563e-40
1.2150657 -1.552727 -0.48262239 6.4536941e-40
1.1957538 -1.562906 -0.49317938 6.4536941e-40
1.1995982 -1.5664757 -0.47490755 7.3756504e-40
1.1773506 -1.575069 -0.48832634 1.0141519e-39
1.1625032 -1.5788335 -0.50389189 8.2976067e-40
1.1639019 -1.6024208 -0.48326874 7.3756504e-40
1.1504245 -1.5962656 -0.50050247 6.4536941e-40
1.1594727 -1.6160374 -0.4905442 4.6097815e-40
1.1395946 -1.6111424 -0.50668508 4.6097815e-40
1.2043554 -1.2717555 -0.47594285 1.0141519e-39
1.1756877 -1.2580333 -0.48457959 8.2976067e-40
1.1444013 -1.236362 -0.4975225 1.0141519e-39
1.1230046 -1.2201431 -0.51484483 1.1063476e-39
1.2154852 -1.2970555 -0.47286189 9.219563e-40
1.2040303 -1.2808301 -0.48843583 9.219563e-40
1.2218295 -1.3435851 -0.46391198 8.2976067e-40
1.2160659 -1.3259724 -0.47110683 1.0141519e-39
1.2663158 -1.3858041 -0.45196822 1.0141519e-39
1.2489082 -1.3740155 -0.46115914 8.2976067e-40
1.229709 -1.3597744 -0.46901903 1.1063476e-39
1.2141868 -1.3478498 -0.47928417 8.2976067e-40
1.2666706 -1.4126379 -0.45261121 9.219563e-40
1.2757016 -1.4490894 -0.43845257 8.2976067e-40
1.2684858 -1.4468337 -0.45469135 8.2976067e-40
1.2674601 -1.4810774 -0.44064894 1.2907388e-39
1.2611036 -1.4736654 -0.45755845 7.3756504e-40
1.257867 -1.5084782 -0.44681004 8.2976067e-40
1.2553006 -1.4911178 -0.46144176 6.4536941e-40
1.2496877 -1.5253578 -0.4528752 6.4536941e-40
1.2320446 -1.5326163 -0.44998237 8.2976067e-40
1.206295 -1.5512667 -0.45375329 7.3756504e-40
1.1922417 -1.56593 -0.44546267 7.3756504e-40
1.1769029 -1.5740499 -0.46250039 6.4536941e-40
1.1760669 -1.6060491 -0.44335946 4.6097815e-40
1.1649262 -1.5984693 -0.46134728 5.5317378e-40
1.1793475 -1.6220949 -0.46112773 2.7658689e-40
1.1591653 -1.6211495 -0.45202008 3.6878252e-40
1.1486804 -1.2192314 -0.47167027 1.5673257e-39
1.2120003 -1.2730076 -0.44318271 8.2976067e-40
1.1957731 -1.2626365 -0.45410267 9.219563e-40
1.1731982 -1.24415 -0.45885602 1.1985432e-39
1.1511811 -1.2291498 -0.47019893 1.1985432e-39
1.0477302 -1.2119824 -0.4844088 8.2976067e-40
1.0281732 -1.1987829 -0.49135453 7.3756504e-40
1.2294739 -1.3158792 -0.43018219 1.2907388e-38
1.2127464 -1.2967238 -0.44657353 1.1985432e-39
1.2270584 -1.3341314 -0.43961516 1.1063476e-39
1.215436 -1.323069 -0.44657624 1.5673257e-39
1.2638066 -1.3853459 -0.42691579 9.219563e-40
1.2489331 -1.3689259 -0.42916873 9.219563e-40
1.227538 -1.3539941 -0.43750113 9.219563e-40
1.2781115 -1.4238791 -0.40960723 1.3829344e-39
1.2676138 -1.4131541 -0.4242695 1.0141519e-39
1.2737356 -1.4474144 -0.41722375 8.2976067e-40
1.2692462 -1.4348396 -0.43037546 8.2976067e-40
1.2669075 -1.4787982 -0.41766432 9.219563e-40
1.2575049 -1.506761 -0.41672125 9.219563e-40
1.242101 -1.5224013 -0.41887894 6.4536941e-40
1.2213713 -1.5310729 -0.42093289 9.219563e-40
1.2065649 -1.5466654 -0.42561087 8.2976067e-40
1.1882851 -1.5737827 -0.42507082 6.4536941e-40
1.1737846 -1.5795403 -0.43293291 5.5317378e-40
1.1796448 -1.6052413 -0.42256671 4.6097815e-40
1.1659654 -1.6037883 -0.43927461 4.6097815e-40
1.1695105 -1.6253297 -0.42500332 3.6878252e-40
1.1564943 -1.6280924 -0.43927461 3.6878252e-40
1.1567814 -1.2229829 -0.4187144 9.219563e-40
1.0617051 -1.1822417 -0.45075393 6.4536941e-40
1.2100763 -1.2711629 -0.4157294 1.1985432e-39
1.1911849 -1.2510442 -0.42336085 1.0141519e-39
1.1710339 -1.2345774 -0.43067816 8.2976067e-40
1.1389118 -1.2215158 -0.4371323 6.4536941e-40
1.0824771 -1.211109 -0.4516792 6.4536941e-40
1.0554225 -1.1970279 -0.45653641 4.6097815e-40
1.0277269 -1.1918616 -0.47912672 8.2976067e-40
1.2261645 -1.3142035 -0.41047436 1.3829344e-39
1.2099682 -1.2942249 -0.41633272 1.0141519e-39
1.22412 -1.3354249 -0.40857437 1.1985432e-39
1.2820505 -1.401539 -0.39106381 8.2976067e-40
1.2622036 -1.3835877 -0.39661464 1.0141519e-39
1.2448624 -1.3632809 -0.40305781 1.4751301e-39
1.2242225 -1.353705 -0.40985477 1.1985432e-39
1.2782158 -1.4172893 -0.38865951 9.219563e-40
1.2720567 -1.4071355 -0.39930913 9.219563e-40
1.2669795 -1.4459023 -0.39036119 9.219563e-40
1.2576736 -1.4440438 -0.39930916 9.219563e-40
1.2743399 -1.4843901 -0.37504604 7.3756504e-40
1.2649243 -1.4769984 -0.39058721 8.2976067e-40
1.2506393 -1.5054722 -0.39017478 8.2976067e-40
1.2324687 -1.5283413 -0.39041319 8.2976067e-40
1.2219428 -1.5398312 -0.40552241 5.5317378e-40
1.2253298 -1.5461837 -0.38969025 7.3756504e-40
1.2051854 -1.5573962 -0.39456114 7.3756504e-40
1.2054404 -1.5899733 -0.37870151 6.4536941e-40
1.1890572 -1.577564 -0.39661628 6.4536941e-40
1.1865226 -1.6062751 -0.39533949 5.5317378e-40
1.1744288 -1.6284618 -0.39368674 3.6878252e-40
1.1552563 -1.2223886 -0.4118802 5.5317378e-40
1.0778761 -1.1783611 -0.4151684 7.3756504e-40
1.0652244 -1.1787194 -0.42475894 7.3756504e-40
1.2221503 -1.2826474 -0.37277943 1.0141519e-39
1.2089671 -1.2691704 -0.38593781 1.0141519e-39
1.1863041 -1.2459393 -0.39377311 9.219563e-40
1.1617017 -1.2287169 -0.39932185 7.3756504e-40
1.1314528 -1.2201427 -0.40603313 6.4536941e-40
1.1065733 -1.2178123 -0.40016562 7.3756504e-40
1.0736516 -1.204809 -0.41838425 6.4536941e-40
1.0601721 -1.1950037 -0.42979279 7.3756504e-40
1.2208374 -1.3055252 -0.37850115 1.1985432e-39
1.2141944 -1.2880355 -0.38863647 1.1063476e-39
1.2307868 -1.3406396 -0.36334836 1.1985432e-39
1.2251717 -1.3318788 -0.37759671 1.2907388e-39
1.2757336 -1.3948138 -0.3562949 1.0141519e-39
1.2599956 -1.3779123 -0.36604527 1.0141519e-39
1.2345098 -1.3560536 -0.37286505 1.0141519e-39
1.2755271 -1.4163251 -0.35873571 1.2907388e-39
1.2852513 -1.4645621 -0.35308802 1.0141519e-39
1.2675985 -1.4456224 -0.35805261 9.219563e-40
1.2750642 -1.4799215 -0.35391724 9.219563e-40
1.2681643 -1.4642128 -0.35907122 9.219563e-40
1.243158 -1.5038604 -0.35758495 1.1063476e-39
1.2306616 -1.5274998 -0.35877421 7.3756504e-40
1.2194839 -1.5449666 -0.36510301 7.3756504e-40
1.1955174 -1.5541786 -0.36311239 7.3756504e-40
1.2036008 -1.588906 -0.35643414 7.3756504e-40
1.1892493 -1.5723259 -0.36439908 6.4536941e-40
1.1966553 -1.6116457 -0.35898018 5.5317378e-40
1.1857852 -1.6080245 -0.36824286 5.5317378e-40
1.185837 -1.6300845 -0.36324868 3.6878252e-40
1.1740454 -1.6301428 -0.375424 3.6878252e-40
1.0944459 -1.1585796 -0.38535208 4.6097815e-40
1.0701404 -1.1433353 -0.39024168 5.5317378e-40
1.0847855 -1.182812 -0.38912192 4.6097815e-40
1.2171917 -1.2771231 -0.34511417 1.0141519e-39
1.2087762 -1.2623461 -0.35593396 1.0141519e-39
1.1802521 -1.2427909 -0.36586687 9.219563e-40
1.1572878 -1.2333536 -0.37487009 1.1985432e-39
1.1217299 -1.2254951 -0.3763237 9.219563e-40
1.0921581 -1.2125537 -0.3833406 7.3756504e-40
1.0828292 -1.202672 -0.38959816 6.4536941e-40
1.2336055 -1.3187929 -0.34763461 9.219563e-40
1.2193606 -1.299973 -0.34934762 1.2907388e-39
1.2093998 -1.28462 -0.36480638 1.0141519e-39
1.249985 -1.3561974 -0.3366864 9.219563e-40
1.2315673 -1.3376254 -0.34384996 1.1063476e-39
1.2200969 -1.3206259 -0.33650148 1.1063476e-39
1.2728184 -1.3902613 -0.32977343 1.2907388e-39
1.2573098 -1.3721735 -0.33401805 1.1063476e-39
1.2706618 -1.414248 -0.32755119 1.0141519e-39
1.278438 -1.4558507 -0.32196298 1.0141519e-39
1.2667663 -1.4378774 -0.32842931 1.0141519e-39
1.2686979 -1.4786298 -0.32337564 1.1985432e-39
1.2494746 -1.5103116 -0.31761262 8.2976067e-40
1.2422951 -1.4997075 -0.32941842 8.2976067e-40
1.2444395 -1.5274096 -0.32051039 7.3756504e-40
1.2327619 -1.5291867 -0.33272928 8.2976067e-40
1.2116396 -1.5551533 -0.32588121 6.4536941e-40
1.192678 -1.5520771 -0.33439067 7.3756504e-40
1.2170769 -1.596795 -0.31696275 7.3756504e-40
1.2081341 -1.5818697 -0.32817635 6.4536941e-40
1.1864645 -1.5625949 -0.33513388 1.2907388e-39
1.2120664 -1.6101214 -0.31481135 7.3756504e-40
1.2000095 -1.6121708 -0.33050659 6.4536941e-40
1.1832857 -1.6263964 -0.32841298 6.4536941e-40
1.1681862 -1.628594 -0.33096328 7.3756504e-40
1.1192361 -1.1415582 -0.34956729 3.6878252e-40
1.1077547 -1.1495755 -0.34854048 3.6878252e-40
1.095365 -1.1584234 -0.36097983 4.6097815e-40
1.0938923 -1.1921531 -0.35443711 7.3756504e-40
1.0877974 -1.1771362 -0.35990924 6.4536941e-40
1.2173496 -1.2726487 -0.32105592 1.1063476e-39
1.2040565 -1.2541497 -0.32755092 8.2976067e-40
1.1828524 -1.2386134 -0.33131579 7.3756504e-40
1.1394562 -1.2298082 -0.34277216 9.219563e-40
1.1140044 -1.2176569 -0.34788021 7.3756504e-40
1.0923021 -1.2098161 -0.36086029 1.4751301e-39
1.0813987 -1.1997703 -0.36933088 9.219563e-40
1.2261461 -1.3111728 -0.30706343 1.4751301e-39
1.2217458 -1.2959816 -0.31921634 1.1985432e-39
1.2438369 -1.3515129 -0.30824286 1.4751301e-39
1.2322814 -1.3340138 -0.31403941 1.1063476e-39
1.2191437 -1.3167019 -0.32684433 1.0141519e-39
1.2699716 -1.3876855 -0.30053291 1.1985432e-39
1.2507523 -1.3668218 -0.30683589 1.2907388e-39
1.273508 -1.4269533 -0.2847355 1.1063476e-39
1.2652574 -1.4123813 -0.2988483 1.0141519e-39
1.2777102 -1.4475706 -0.29226691 1.1985432e-39
1.2592746 -1.4293742 -0.3060199 8.2976067e-40
1.2649776 -1.4761947 -0.29185516 1.0141519e-39
1.2522757 -1.5049381 -0.29150981 8.2976067e-40
1.2434366 -1.4937531 -0.3076593 1.0141519e-39
1.2428112 -1.526922 -0.29397351 8.2976067e-40
1.2182717 -1.566687 -0.28169131 6.4536941e-40
1.2077756 -1.5614271 -0.29642564 8.2976067e-40
1.1765242 -1.5500401 -0.30227059 1.0141519e-39
1.2148538 -1.588809 -0.28721151 6.4536941e-40
1.2069551 -1.5799894 -0.30175743 6.4536941e-40
1.1723249 -1.5581462 -0.31110385 6.4536941e-40
1.1442158 -1.5527482 -0.30948797 8.2976067e-40
1.2096142 -1.6097301 -0.29265818 6.4536941e-40
1.1927474 -1.6154401 -0.30181444 5.5317378e-40
1.0956817 -1.1351519 -0.32693368 5.5317378e-40
1.1008151 -1.1562378 -0.32534626 5.5317378e-40
1.093559 -1.1499212 -0.34106606 5.5317378e-40
1.1420435 -1.2166748 -0.30631036 9.219563e-40
1.1145666 -1.2028698 -0.31415686 8.2976067e-40
1.0967898 -1.1844556 -0.3292475 8.2976067e-40
1.2132642 -1.2671033 -0.29191479 1.3829344e-39
1.1982298 -1.2486076 -0.29895782 1.0141519e-39
1.1712534 -1.2345163 -0.30359548 1.1063476e-39
1.1454735 -1.2255813 -0.31512412 8.2976067e-40
1.1151707 -1.2122467 -0.33072317 7.3756504e-40
1.2440603 -1.3191963 -0.27299979 1.5673257e-39
1.2335211 -1.3085696 -0.28407761 1.2907388e-39
1.2164769 -1.2879568 -0.28850403 1.2907388e-39
1.2403833 -1.3399694 -0.27427769 1.1063476e-39
1.2314728 -1.3357569 -0.28777766 1.2907388e-39
1.2682347 -1.3845545 -0.27185634 1.0141519e-39
1.2427475 -1.3638173 -0.27757901 1.1063476e-39
1.274985 -1.4236728 -0.26261032 1.1985432e-39
1.2631831 -1.4070632 -0.27351156 1.0141519e-39
1.276019 -1.4475161 -0.26110736 1.0141519e-39
1.2659698 -1.4758248 -0.26045033 9.219563e-40
1.2542531 -1.503659 -0.26135969 9.219563e-40
1.2353176 -1.5233212 -0.2650882 8.2976067e-40
1.2228191 -1.5683815 -0.26073578 6.4536941e-40
1.198542 -1.5516727 -0.26911613 7.3756504e-40
1.1772434 -1.5459518 -0.27311146 1.2907388e-39
1.1483426 -1.54443 -0.28073123 6.4536941e-40
1.2209616 -1.5897148 -0.26080012 7.3756504e-40
1.1649771 -1.5549848 -0.28416508 7.3756504e-40
1.1386679 -1.5497649 -0.28982094 7.3756504e-40
1.2172686 -1.6098087 -0.26191974 6.4536941e-40
1.090951 -1.1333082 -0.30573505 4.6097815e-40
1.1070616 -1.1683102 -0.27979419 9.219563e-40
1.09969 -1.155211 -0.29872531 7.3756504e-40
1.160275 -1.2237077 -0.26739901 9.219563e-40
1.1429194 -1.2179244 -0.28499308 7.3756504e-40
1.1043248 -1.1902974 -0.29067555 9.219563e-40
1.0930932 -1.1855685 -0.29884419 1.0141519e-39
1.2149071 -1.2660556 -0.25934249 1.0141519e-39
1.1882685 -1.2437848 -0.26976243 1.1063476e-39
1.1637263 -1.2309784 -0.27753776 1.1063476e-39
1.1158932 -1.2103968 -0.28350255 8.2976067e-40
1.2391319 -1.3172758 -0.25091615 1.1063476e-39
1.2249445 -1.3029336 -0.25641158 9.219563e-40
1.2118112 -1.2874186 -0.25869662 1.3829344e-39
1.2657661 -1.3640431 -0.23223166 1.1063476e-39
1.2366652 -1.3389649 -0.2494729 1.1063476e-39
1.275363 -1.3940805 -0.24211703 1.0141519e-39
1.2654796 -1.3800714 -0.24099059 1.0141519e-39
1.2493187 -1.360285 -0.2462697 1.1063476e-39
1.2884506 -1.4370773 -0.2165366 8.2976067e-40
1.2771876 -1.4198793 -0.23268536 1.1063476e-39
1.2619777 -1.4026619 -0.2416942 1.0141519e-39
1.2859224 -1.4448776 -0.2185268 1.0141519e-39
1.2738283 -1.4475152 -0.23219328 1.0141519e-39
1.2618229 -1.4758186 -0.23035482 9.219563e-40
1.2717466 -1.5028273 -0.22261094 9.219563e-40
1.2556542 -1.504053 -0.23537095 9.219563e-40
1.2304553 -1.5255992 -0.23245323 8.2976067e-40
1.2082076 -1.5328422 -0.24704368 9.219563e-40
1.2192224 -1.5624048 -0.23206379 7.3756504e-40
1.1966853 -1.5466235 -0.24350482 7.3756504e-40
1.2294556 -1.5953197 -0.22068542 8.2976067e-40
1.2236226 -1.5859017 -0.23339786 7.3756504e-40
1.2215736 -1.6086903 -0.2165366 8.2976067e-40
1.217656 -1.6086426 -0.23556943 6.4536941e-40
1.1099863 -1.1628058 -0.25921571 9.219563e-40
1.0920975 -1.1488245 -0.27074993 7.3756504e-40
1.20969 -1.2455114 -0.22507557 1.0141519e-39
1.1855067 -1.2331479 -0.2367589 9.219563e-40
1.1580523 -1.2204149 -0.24803612 1.1063476e-39
1.125778 -1.2110083 -0.25741181 9.219563e-40
1.1073866 -1.1901472 -0.26138267 1.1063476e-39
1.2227347 -1.2757335 -0.22250314 1.0141519e-39
1.2119095 -1.2590456 -0.23544501 1.3829344e-39
1.1868234 -1.2396212 -0.25169429 7.3756504e-40
1.1097608 -1.2080069 -0.25602293 2.2126951e-39
1.2342303 -1.3134166 -0.22170304 1.1985432e-39
1.2269603 -1.2970381 -0.22440515 1.3829344e-39
1.259401 -1.3564644 -0.20552158 1.0141519e-39
1.2323724 -1.3354527 -0.22212468 1.1985432e-39
1.2661525 -1.3916111 -0.20254275 1.2907388e-39
1.2591231 -1.3763938 -0.21145241 1.1063476e-39
1.2466873 -1.3574786 -0.22533786 1.0141519e-39
1.2845192 -1.4336627 -0.19606605 1.2907388e-39
1.2735851 -1.4157592 -0.20414291 1.1063476e-39
1.2527901 -1.3937076 -0.2181375 1.1985432e-39
1.2806628 -1.4527597 -0.19856784 1.0141519e-39
1.2698814 -1.4469262 -0.19357553 9.219563e-40
1.2839168 -1.4952195 -0.18400563 1.4751301e-39
1.2762363 -1.481764 -0.19733231 1.0141519e-39
1.2817196 -1.5008578 -0.18400563 9.219563e-40
1.2649791 -1.5086622 -0.1972587 9.219563e-40
1.2463496 -1.517204 -0.20857337 9.219563e-40
1.252376 -1.5284712 -0.18899234 8.2976067e-40
1.2320044 -1.531431 -0.20603871 8.2976067e-40
1.2335942 -1.5700994 -0.19334708 7.3756504e-40
1.2223372 -1.5554745 -0.20322971 6.4536941e-40
1.2322526 -1.5916574 -0.19791363 7.3756504e-40
1.2219424 -1.5738994 -0.19957466 6.4536941e-40
1.2189088 -1.6076517 -0.20459543 7.3756504e-40
1.0970087 -1.1014431 -0.23376709 6.4536941e-40
1.0854771 -1.0960827 -0.22800687 5.5317378e-40
1.0907133 -1.1164385 -0.23201035 5.5317378e-40
1.0780816 -1.1214697 -0.23772283 5.5317378e-40
1.1082582 -1.1619421 -0.23347443 1.1063476e-39
1.0861912 -1.1400747 -0.2345095 9.219563e-40
1.0749085 -1.1348549 -0.24567236 9.219563e-40
1.2029974 -1.2397087 -0.19978414 1.0141519e-39
1.1813614 -1.2280368 -0.21288483 9.219563e-40
1.1623529 -1.2157607 -0.2147783 9.219563e-40
1.1209729 -1.2068191 -0.22657244 1.0141519e-39
1.1108074 -1.1894606 -0.23197815 1.1063476e-39
1.2168155 -1.2717441 -0.19962691 1.1985432e-39
1.2102371 -1.2563901 -0.20076506 9.219563e-40
1.2313277 -1.3097306 -0.18979833 1.1985432e-39
1.2250253 -1.2928071 -0.19758408 1.0141519e-39
1.2558124 -1.3529425 -0.18295619 9.219563e-40
1.2355678 -1.3328787 -0.18952788 1.5673257e-39
1.2668065 -1.3870423 -0.1758354 1.1063476e-39
1.2551196 -1.3731185 -0.18079446 1.3829344e-39
1.2819165 -1.424471 -0.16055806 1.3829344e-39
1.2712679 -1.4136543 -0.1771501 1.1063476e-39
1.2782663 -1.450277 -0.16786827 1.0141519e-39
1.2710141 -1.4341264 -0.17857771 1.0141519e-39
1.2803084 -1.4913777 -0.16414401 1.1985432e-39
1.2745755 -1.4766842 -0.16863148 1.0141519e-39
1.2741617 -1.5027835 -0.15752345 1.1985432e-39
1.2613202 -1.51149 -0.16846843 9.219563e-40
1.257575 -1.5434059 -0.154581 1.6595213e-39
1.2480224 -1.5362583 -0.16780941 7.3756504e-40
1.2531805 -1.5546826 -0.154581 8.2976067e-40
1.2366903 -1.5648204 -0.16933936 8.2976067e-40
1.2204434 -1.5596681 -0.18182832 5.5317378e-40
1.2377998 -1.5941511 -0.15458098 1.4751301e-39
1.2295874 -1.5894587 -0.16785683 7.3756504e-40
1.2135791 -1.6055748 -0.1807131 1.0141519e-39
1.0812163 -1.0967618 -0.2124612 5.5317378e-40
1.0881121 -1.1057311 -0.20565934 6.4536941e-40
1.0731673 -1.1163518 -0.21084596 6.4536941e-40
1.1213138 -1.173401 -0.19376665 1.0141519e-39
1.1064298 -1.1597258 -0.2061992 1.0141519e-39
1.0801785 -1.1410986 -0.20817286 8.2976067e-40
1.0662355 -1.1314751 -0.20680828 7.3756504e-40
1.2136735 -1.2473985 -0.16186137 1.0141519e-39
1.1982797 -1.2347835 -0.17515592 9.219563e-40
1.1748027 -1.2177215 -0.17953739 9.219563e-40
1.1477619 -1.2043903 -0.18585792 9.219563e-40
1.1207978 -1.1923041 -0.1965552 1.0141519e-39
1.1069744 -1.1879668 -0.21480343 1.0141519e-39
1.2299014 -1.2832142 -0.16337021 1.1985432e-39
1.2198429 -1.2656832 -0.16758175 1.0141519e-39
1.2067721 -1.249711 -0.17715867 9.219563e-40
1.2318321 -1.3061546 -0.16129559 1.4751301e-39
1.2629428 -1.3623638 -0.14571814 1.8439126e-39
1.2543036 -1.3514466 -0.15509155 1.1985432e-39
1.2370436 -1.3329837 -0.15793282 1.1063476e-39
1.2621554 -1.383894 -0.14692171 1.1985432e-39
1.25157 -1.3685858 -0.1495471 1.1985432e-39
1.2777743 -1.4228387 -0.14053939 1.1985432e-39
1.2661335 -1.4051009 -0.14762466 1.1063476e-39
1.2844049 -1.4564419 -0.12711795 1.2907388e-39
1.2773955 -1.4487102 -0.1390118 1.1985432e-39
1.2809827 -1.4826487 -0.13252048 1.0141519e-39
1.2730827 -1.4731623 -0.14276473 1.1985432e-39
1.2677065 -1.5078205 -0.13556632 1.0141519e-39
1.2569642 -1.5150112 -0.14350395 1.2907388e-39
1.2596405 -1.540133 -0.13326162 8.2976067e-40
1.2511482 -1.5312355 -0.14547509 8.2976067e-40
1.2464237 -1.5664793 -0.13287105 9.219563e-40
1.2361184 -1.5708439 -0.14705202 1.1985432e-39
1.2343668 -1.5913147 -0.13692616 9.219563e-40
1.2256801 -1.5913889 -0.13759042 1.0141519e-39
1.0771167 -1.1154051 -0.17755158 7.3756504e-40
1.067661 -1.1138346 -0.18560962 7.3756504e-40
1.1385431 -1.182914 -0.14963654 1.1063476e-39
1.1237016 -1.173207 -0.16608015 1.1985432e-39
1.0966902 -1.1517153 -0.17296764 9.219563e-40
1.0733168 -1.1376355 -0.18072788 9.219563e-40
1.0615046 -1.1296314 -0.18560968 7.3756504e-40
1.2138232 -1.2463068 -0.13663937 1.1063476e-39
1.1980298 -1.2304728 -0.14350033 1.2907388e-39
1.1691823 -1.2085768 -0.15210441 1.1985432e-39
1.1449101 -1.1940482 -0.15908487 1.1063476e-39
1.1289988 -1.1902068 -0.17078859 1.1063476e-39
1.2238654 -1.2803785 -0.13559033 1.1063476e-39
1.2190374 -1.2630754 -0.13531806 1.8439126e-39
1.245814 -1.3192023 -0.12527475 2.2126951e-39
1.23046 -1.3028896 -0.13240488 1.3829344e-39
1.2584181 -1.3572412 -0.12035002 1.1985432e-39
1.2450823 -1.340584 -0.1234349 1.2907388e-39
1.2336968 -1.3307025 -0.13421005 1.1985432e-39
1.256969 -1.3810232 -0.11764724 1.4751301e-39
1.2463255 -1.3732965 -0.13628609 9.219563e-40
1.2719874 -1.4215666 -0.10935312 1.5673257e-39
1.2627667 -1.4050062 -0.1172092 1.5673257e-39
1.2825015 -1.4596792 -0.10340809 1.4751301e-39
1.27447 -1.44213 -0.10919773 1.1985432e-39
1.2800974 -1.4813124 -0.10513142 1.4751301e-39
1.2695394 -1.5114552 -0.10490635 1.0141519e-39
1.2618111 -1.541811 -0.10407741 9.219563e-40
1.2560672 -1.5683846 -0.10264093 1.0141519e-39
1.2387873 -1.5933044 -0.10749827 9.219563e-40
1.0731566 -1.1155429 -0.15376718 6.4536941e-40
1.1649668 -1.1928154 -0.11717716 1.1985432e-39
1.1416941 -1.1807877 -0.126472 1.3829344e-39
1.1243393 -1.1690878 -0.13728222 2.2126951e-39
1.0918696 -1.1561946 -0.14329544 1.1063476e-39
1.0647206 -1.136885 -0.15177172 9.219563e-40
1.212487 -1.2429549 -0.10911109 1.2907388e-39
1.193506 -1.2237439 -0.11480697 1.1063476e-39
1.1721025 -1.2052826 -0.12285505 1.3829344e-39
1.1443062 -1.1893071 -0.13881537 1.1985432e-39
1.2195776 -1.2715894 -0.10558455 2.2126951e-39
1.2151686 -1.2583269 -0.10696767 1.1985432e-39
1.2265582 -1.3023049 -0.1020292 1.4751301e-39
1.2547992 -1.3524714 -0.099040762 1.4751301e-39
1.2391666 -1.3417295 -0.094498664 1.8439126e-39
1.2273741 -1.3244835 -0.10018508 1.4751301e-39
1.2689509 -1.3965325 -0.079213224 1.0141519e-39
1.2535974 -1.3782523 -0.089721888 1.5673257e-39
1.2404985 -1.3586423 -0.09140262 1.1985432e-39
1.2696441 -1.4154785 -0.080251664 1.3829344e-39
1.2599567 -1.3996121 -0.089677624 2.5814776e-39
1.2789636 -1.4569892 -0.077156343 1.1985432e-39
1.2664423 -1.4380319 -0.077413015 1.1985432e-39
1.2728567 -1.4843664 -0.073195212 1.3829344e-39
1.264311 -1.5114217 -0.073265046 1.3829344e-39
1.2654074 -1.5482384 -0.059286185 7.3756504e-40
1.2591833 -1.5382103 -0.073773295 8.2976067e-40
1.2512524 -1.5670676 -0.071231492 9.219563e-40
1.2334731 -1.590848 -0.074544482 1.0141519e-39
1.0531044 -1.1185596 -0.13614628 1.1063476e-39
1.1609046 -1.1882751 -0.096143156 1.5673257e-39
1.1410931 -1.1733013 -0.1020515 1.1985432e-39
1.1032414 -1.1632519 -0.10414015 1.6595213e-39
1.0770216 -1.148564 -0.11275815 2.0283039e-39
1.058398 -1.1389124 -0.12462685 1.1985432e-39
1.0496776 -1.1250225 -0.13261318 9.219563e-40
1.1982064 -1.2405647 -0.081672139 1.0141519e-39
1.1851066 -1.2237074 -0.085088857 1.2907388e-39
1.1635404 -1.2036101 -0.092216298 1.2907388e-39
1.2144866 -1.2728711 -0.075834222 1.5673257e-39
1.2036928 -1.2553495 -0.080993712 2.2126951e-39
1.2225232 -1.299201 -0.071323454 1.2907388e-39
1.2457361 -1.3527789 -0.064250223 1.2907388e-39
1.2322438 -1.3341929 -0.068278417 1.4751301e-39
1.2196043 -1.3217822 -0.065864176 1.2907388e-39
1.266286 -1.3954941 -0.067272045 1.1985432e-39
1.2475858 -1.3751354 -0.060115438 1.6595213e-39
1.2317735 -1.3541166 -0.050599489 1.1063476e-39
1.2598702 -1.4140486 -0.054415241 1.5673257e-39
1.2516812 -1.3994477 -0.050796144 1.8439126e-39
1.267068 -1.4555031 -0.052526712 1.3829344e-39
1.2585298 -1.4400882 -0.050063934 1.5673257e-39
1.2649126 -1.4761562 -0.048012652 1.1985432e-39
1.2521927 -1.4609427 -0.042974748 1.751717e-39
1.2566038 -1.5091938 -0.043125771 1.1063476e-39
1.2637335 -1.5435308 -0.045637872 1.1063476e-39
1.2530566 -1.5324404 -0.039952628 1.1063476e-39
1.2456431 -1.5648509 -0.041928921 1.1063476e-39
1.2322797 -1.5872861 -0.042271815 9.219563e-40
1.1529564 -1.1862376 -0.069681682 1.6595213e-39
1.1385224 -1.1785601 -0.065677218 1.2907388e-39
1.1058707 -1.1659937 -0.074161962 1.2907388e-39
