# .PCD v0.7 - Point Cloud Data file format
VERSION 0.7
FIELDS x y z rgb
SIZE 4 4 4 4
TYPE F F F F
COUNT 1 1 1 1
WIDTH 962
HEIGHT 1
VIEWPOINT 0 0 0 1 0 0 0
POINTS 962
DATA ascii
-0.28069389 0.15147883 -1.2591655 4.514723e-39
-0.23322845 0.12859851 -1.2332011 2.4871254e-39
-0.25111234 0.13283557 -1.2490717 2.4867653e-39
-0.20866632 0.10179263 -1.2261239 2.3956585e-39
-0.22114146 0.10711974 -1.2395549 1.6609619e-39
-0.21561027 0.076745868 -1.2364414 2.3049146e-39
-0.2305696 0.056159437 -1.2423493 3.5038095e-39
-0.094334126 0.066297293 -1.2001863 4.2392431e-39
-0.11153078 0.065406084 -1.2218813 5.708953e-39
-0.23952663 0.044063449 -1.2439984 4.147395e-39
-0.25098372 0.029481769 -1.2543253 4.7927799e-39
-0.070247889 0.052064359 -1.1905373 4.4189443e-39
-0.07982254 0.049784899 -1.2047111 3.8690173e-39
-0.061025858 0.021406353 -1.1912891 4.148474e-39
-0.068217278 0.024441063 -1.2067281 4.145614e-39
-0.065037966 -0.010810375 -1.2044244 4.7009444e-39
-0.065661669 -0.037510633 -1.2033966 6.6327408e-39
-0.087830424 -0.056414604 -1.2010268 6.4429882e-39
-0.10318756 -0.065341234 -1.2006373 7.3810972e-39
-0.089029312 -0.065769792 -1.2078786 1.5784222e-38
-0.099252701 -0.071758687 -1.2076319 1.5120533e-38
-0.24431849 0.15001112 -1.2059867 6.7259748e-39
-0.22167921 0.12248123 -1.2024568 3.130355e-39
-0.23780024 0.1330514 -1.2057809 4.0494275e-39
-0.21465302 0.10033196 -1.2042404 2.670816e-39
-0.22634745 0.099129736 -1.2074635 2.6744019e-39
-0.20951819 0.082603455 -1.2040004 3.0396027e-39
-0.22037077 0.066532969 -1.202589 2.8587918e-39
-0.23547614 0.052733719 -1.2221814 3.7778712e-39
-0.085380912 0.072645307 -1.1595312 1.3277596e-38
-0.087530851 0.064417362 -1.1808869 1.9437509e-39
-0.23705637 0.037806869 -1.2129204 4.6033425e-39
-0.075526834 0.050299823 -1.1670719 3.868283e-39
-0.061510205 0.02273196 -1.1683966 4.1477524e-39
-0.055327058 -0.0032117367 -1.1657604 4.9782389e-39
-0.078760386 -0.033296466 -1.1779352 5.7168886e-39
-0.095720649 -0.053018093 -1.1815765 6.0813663e-39
-0.10712242 -0.058923781 -1.1936427 7.373882e-39
-0.11516476 -0.072070658 -1.1973585 6.6413714e-39
-0.25294113 0.14748853 -1.1740476 7.9245446e-39
-0.22956395 0.1209088 -1.1739876 3.1292718e-39
-0.24522483 0.13368034 -1.1776769 3.774644e-39
-0.22306979 0.10082 -1.1760193 2.6704559e-39
-0.23702037 0.092073739 -1.1639911 2.396013e-39
-0.21437836 0.081176341 -1.1859928 1.8428911e-39
-0.22891617 0.070653617 -1.175721 2.1201576e-39
-0.082065463 0.069976747 -1.1356691 1.0425714e-38
-0.23029125 0.046439826 -1.1781687 2.4875094e-39
-0.24502456 0.024733365 -1.1881577 3.4994851e-39
-0.079355001 0.047549963 -1.1382244 3.7761014e-39
-0.24437439 0.014154077 -1.1827333 6.6301974e-39
-0.044569731 0.016249061 -1.1240798 5.0653983e-39
-0.060564637 0.025382876 -1.1363372 4.055205e-39
-0.054044724 -0.0014843941 -1.1367805 5.5288974e-39
-0.079805851 -0.023073077 -1.139923 6.539113e-39
-0.088927507 -0.038343251 -1.1463248 6.1764346e-39
-0.096222639 -0.054410756 -1.1540959 5.3413111e-39
-0.094695568 -0.064446509 -1.1492541 1.272056e-38
-0.24404323 0.14265227 -1.1463763 3.9619136e-39
-0.26105988 0.1487307 -1.1485845 7.2834548e-39
-0.23617852 0.1251629 -1.1438679 3.1310627e-39
-0.2537365 0.13815391 -1.1531229 4.0523197e-39
-0.2313143 0.10067463 -1.1428277 2.487131e-39
-0.24003601 0.095110536 -1.1567457 2.5807798e-39
-0.23457026 0.06926018 -1.1495003 2.1194345e-39
-0.090666771 0.067335546 -1.1057156 1.0711312e-38
-0.22997737 0.040614903 -1.1475552 2.672974e-39
-0.24470532 0.018264055 -1.1561779 4.5129532e-39
-0.056774497 0.047666132 -1.0917578 3.8711571e-39
-0.080205441 0.053091288 -1.1085051 4.5097092e-39
-0.23219907 0.01395154 -1.1465086 4.7009332e-39
-0.2514075 0.0059696436 -1.1653197 5.157217e-39
-0.047209263 0.025430501 -1.1005305 4.6062138e-39
-0.064419627 0.034260988 -1.1150346 4.1445322e-39
-0.067253709 -0.0092192888 -1.1081878 5.8973254e-39
-0.078331828 -0.021230876 -1.1264845 6.4515697e-39
-0.082158685 -0.046490371 -1.1162552 6.7220652e-39
-0.25470495 0.14732027 -1.1146828 5.0704037e-39
-0.26775503 0.14972645 -1.1168958 6.1796744e-39
-0.24108541 0.12500852 -1.1138657 2.9473917e-39
-0.23509622 0.095203221 -1.1155232 2.7615613e-39
-0.22968495 0.064984381 -1.1175641 2.2127077e-39
-0.1050154 0.062851965 -1.0827488 8.2111858e-39
-0.11776662 0.067810237 -1.081149 9.1223185e-39
-0.22462952 0.041773736 -1.1115615 2.2123532e-39
-0.23125982 0.029049397 -1.1205186 3.6849707e-39
-0.059859276 0.046696246 -1.0716459 4.2377956e-39
-0.089400768 0.052109182 -1.0769793 4.0541106e-39
-0.21695495 0.018032312 -1.1139625 3.5070521e-39
-0.22920632 0.01723218 -1.1156883 5.4377779e-39
-0.046409011 0.027466774 -1.0682161 4.6087249e-39
-0.054881096 -0.0011512637 -1.062248 5.2541167e-39
-0.066333294 -0.013309002 -1.0819662 5.7140061e-39
-0.069551706 -0.040715456 -1.0815243 5.7187018e-39
-0.077557802 -0.05781585 -1.092483 7.990173e-39
-0.25942457 0.14224172 -1.0879589 3.9604534e-39
-0.27459931 0.14771682 -1.0915369 5.9941635e-39
-0.2470057 0.1235972 -1.0839489 2.9466868e-39
-0.23576605 0.097258925 -1.0848296 2.9456092e-39
-0.22502446 0.067835212 -1.0825043 2.3034768e-39
-0.11231875 0.06070751 -1.0556889 4.4225568e-39
-0.12289429 0.059923947 -1.0557613 3.4069559e-39
-0.22800827 0.040416539 -1.0853827 3.0381734e-39
-0.23659623 0.025521457 -1.0987823 3.6835428e-39
-0.061999679 0.044095874 -1.0391724 4.055568e-39
-0.10112906 0.045290112 -1.0510107 3.8711599e-39
-0.11934066 0.040352523 -1.048281 3.9615646e-39
-0.2367717 0.011432528 -1.0896128 5.4402891e-39
-0.039717913 0.027527213 -1.0226705 4.6090738e-39
-0.051283479 0.030003607 -1.0410964 4.2406697e-39
-0.031045794 0.013665795 -1.0199035 5.8980288e-39
-0.048015475 -0.0045744777 -1.0411128 5.9905916e-39
-0.051481485 -0.026442707 -1.0392811 6.4551697e-39
-0.064119697 -0.042088687 -1.0543618 6.4555424e-39
-0.069533229 -0.057982624 -1.0556767 8.2663816e-39
-0.26403475 0.14785135 -1.0549023 4.9760431e-39
-0.28258634 0.153216 -1.0698006 9.4965352e-39
-0.25291288 0.12220407 -1.0540957 3.0388839e-39
-0.22226894 0.092716277 -1.0376879 2.9481442e-39
-0.23385394 0.099424541 -1.0518123 3.0385153e-39
-0.21733117 0.07731241 -1.039103 2.6729726e-39
-0.22435987 0.071004808 -1.0580505 2.4893044e-39
-0.11546278 0.061172724 -1.0210575 4.7002241e-39
-0.2259357 0.037470341 -1.0529406 3.5020144e-39
-0.074617982 0.039937019 -1.0136551 3.869739e-39
-0.10787201 0.044230521 -1.021117 3.9615632e-39
-0.23445165 0.012894928 -1.0491354 7.2795381e-39
-0.24115515 0.0084941387 -1.066178 5.9005483e-39
-0.042340994 0.025594831 -1.0065134 4.1470405e-39
-0.066549778 0.031380653 -1.0115037 3.7786139e-39
-0.034176826 0.0054649711 -1.0040882 5.7143676e-39
-0.047964811 -0.016377926 -1.0059626 7.650822e-39
-0.056136131 -0.036438107 -1.0133934 7.6515506e-39
-0.069815397 -0.054249823 -1.0079819 5.6319096e-39
-0.073632121 -0.060388386 -1.0072799 1.0031758e-38
-0.25268686 0.16805333 -1.0093845 9.9719173e-39
-0.26132894 0.15022928 -1.0221978 5.0660947e-39
-0.25338411 0.12355894 -1.0238036 2.8562765e-39
-0.23006892 0.098086774 -1.0164604 2.4878639e-39
-0.24149609 0.10239136 -1.0261092 3.0395929e-39
-0.22264111 0.077285349 -1.0209632 2.5804183e-39
-0.2298857 0.06071645 -1.0239737 2.9452449e-39
-0.066063046 0.080921054 -0.9678185 3.5038445e-39
-0.10490942 0.058591783 -1.0012912 3.9651688e-39
-0.23576474 0.033199131 -1.0265846 4.054119e-39
-0.051689148 0.054192126 -0.96853542 4.0551924e-39
-0.077792883 0.055840969 -0.98885834 3.6856868e-39
-0.24222803 0.010611594 -1.0203233 6.9107598e-39
-0.044966459 0.028183341 -0.97218794 5.0664661e-39
-0.03480196 0.012732148 -0.97845823 7.5557369e-39
-0.059521437 -0.01025629 -0.98274481 7.2795115e-39
-0.065118074 -0.034576237 -0.98294228 7.2798955e-39
-0.077334523 -0.052546144 -0.99635077 8.5673959e-39
-0.074225783 -0.063913047 -0.99803185 1.1790996e-38
-0.25857723 0.17398453 -0.99523288 1.3828247e-38
-0.2552551 0.15669203 -0.98924559 5.4409799e-39
-0.24619377 0.12757033 -0.99098736 3.4062118e-39
-0.23333287 0.098716497 -0.98885351 2.8548415e-39
-0.22718811 0.069765925 -0.99167359 3.0392328e-39
-0.056931496 0.084183574 -0.93206698 4.2385019e-39
-0.063022256 0.08826983 -0.94862038 4.4236386e-39
-0.22321224 0.046474695 -0.98815703 3.6853197e-39
-0.23173594 0.027593911 -0.99556768 4.6969717e-39
-0.048374295 0.060186744 -0.93722177 4.2392207e-39
-0.054062247 0.061173141 -0.95204484 3.5935066e-39
-0.23737121 0.01447016 -0.99643797 5.7157997e-39
-0.051969528 0.025188982 -0.94424653 4.2395907e-39
-0.055119038 0.0017725825 -0.94434279 4.5179894e-39
-0.062752128 -0.016314983 -0.95558584 5.1608281e-39
-0.067444324 -0.039889514 -0.95289862 6.9111087e-39
-0.078844547 -0.056900918 -0.9745279 6.9132793e-39
-0.25762486 0.15283084 -0.96013349 3.8700599e-39
-0.27413344 0.1602416 -0.97272241 7.7623821e-39
-0.21438754 0.13255781 -0.93828923 3.3143693e-39
-0.24363005 0.12682199 -0.96507394 2.9466644e-39
-0.21940267 0.11434096 -0.94356054 2.5818308e-39
-0.23021984 0.095537305 -0.96068299 2.8544842e-39
-0.05611515 0.10461736 -0.90607613 5.9945306e-39
-0.22660792 0.068299115 -0.95701861 2.6726125e-39
-0.039637566 0.092095435 -0.89188361 3.9626268e-39
-0.05361414 0.08915323 -0.9140681 4.4218155e-39
-0.22716761 0.040922701 -0.96285582 3.8682746e-39
-0.032214522 0.066814065 -0.89188361 4.6984178e-39
-0.044825196 0.060443759 -0.91048276 4.3306919e-39
-0.23567092 0.017401874 -0.96085864 7.8334518e-39
-0.045104861 0.02686137 -0.91282314 4.8835294e-39
-0.059008121 -0.0099776387 -0.9193089 5.9891454e-39
-0.068911672 -0.039134622 -0.92403066 7.3699191e-39
-0.23333561 0.14790362 -0.929649 4.4174967e-39
-0.2559315 0.15529686 -0.92829978 4.238848e-39
-0.20978558 0.12814528 -0.9089449 3.3147407e-39
-0.22284412 0.13496703 -0.92346346 3.2236157e-39
-0.20374703 0.10757852 -0.90894496 3.3143792e-39
-0.21349716 0.10591477 -0.92987609 2.762297e-39
-0.050339103 0.10954899 -0.87286043 5.8983945e-39
-0.20818961 0.077450156 -0.91947156 3.2246932e-39
-0.21885681 0.059724689 -0.93134534 4.0540994e-39
-0.038477302 0.093930066 -0.8727501 4.4210854e-39
-0.21250415 0.056120694 -0.90878183 4.4174743e-39
-0.22831607 0.03820312 -0.93224812 6.264275e-39
-0.030146599 0.065559089 -0.87275273 4.6065627e-39
-0.24111438 0.015803576 -0.94069028 7.1934676e-39
-0.032637239 0.046094298 -0.86968994 5.1604638e-39
-0.041293979 0.028154492 -0.88005155 5.8043968e-39
-0.05002749 0.0059850216 -0.87729716 5.7154298e-39
-0.056466103 -0.0087726712 -0.8872205 5.805822e-39
-0.064047337 -0.030748069 -0.88747191 5.6239727e-39
-0.075714946 -0.049332082 -0.90467936 7.0973231e-39
-0.24349248 0.17643261 -0.88295412 8.8500966e-39
-0.25916076 0.1690554 -0.90336692 5.6942758e-39
-0.22490478 0.16046208 -0.88071275 4.0508638e-39
-0.23626053 0.16084409 -0.89878047 2.6715363e-39
-0.21333408 0.13390839 -0.88484144 3.0385055e-39
-0.22675824 0.14015847 -0.90370476 3.4040693e-39
-0.19879866 0.10838062 -0.88361537 3.1299907e-39
-0.045720458 0.11338347 -0.84813976 7.0133461e-39
-0.20343161 0.083842158 -0.8862474 3.4087342e-39
-0.20830357 0.066946328 -0.8933295 3.592038e-39
-0.028119802 0.091220498 -0.83058453 4.3288884e-39
-0.039483428 0.097282171 -0.84481674 4.23669e-39
-0.21192217 0.04741466 -0.8918913 3.9618911e-39
-0.22518337 0.033955514 -0.906115 4.6022467e-39
-0.032389522 0.06146878 -0.84346324 4.7913141e-39
-0.035153031 0.033556283 -0.84343779 4.7002017e-39
-0.039472818 0.024635077 -0.85811836 5.6196483e-39
-0.046244264 -0.0022696257 -0.85291636 5.1608239e-39
-0.047120333 -0.028042138 -0.85313398 7.7394359e-39
-0.053038359 -0.028787255 -0.86543763 3.783681e-39
-0.23138976 0.18574995 -0.85812628 1.3737131e-38
-0.20770752 0.16673219 -0.83650357 3.9608444e-39
-0.22032106 0.16472024 -0.8554759 3.9593842e-39
-0.19851971 0.1376918 -0.83875859 3.1317788e-39
-0.20911038 0.1361056 -0.85828537 2.8552073e-39
-0.19192016 0.11521554 -0.83875853 2.393876e-39
-0.19667602 0.10802245 -0.85632455 2.4871422e-39
-0.042431235 0.11293924 -0.80351996 4.4211023e-39
-0.05632925 0.11110866 -0.81521446 7.0122937e-39
-0.18691921 0.095932066 -0.83650357 2.0261669e-39
-0.19818854 0.076984167 -0.85664016 2.5796812e-39
-0.024511099 0.097483814 -0.80718344 4.2374187e-39
-0.042256713 0.10204691 -0.82644266 4.5114874e-39
-0.20060194 0.052433252 -0.85863847 4.9749613e-39
-0.20892215 0.051787436 -0.8760373 2.3052761e-39
-0.024930716 0.069336712 -0.80624938 4.5150859e-39
-0.032534719 0.054694116 -0.8177188 4.51473e-39
-0.022698402 0.040745139 -0.79852343 4.6061998e-39
-0.029590249 0.02976656 -0.81515384 4.6062152e-39
-0.028172493 0.0017542839 -0.81439555 5.8965813e-39
-0.037027478 -0.0091452003 -0.83262694 5.3462928e-39
-0.028771043 -0.01455766 -0.82213193 6.4321547e-39
-0.042196751 -0.023804486 -0.83724236 7.3627346e-39
-0.21948898 0.18809384 -0.81771195 5.6210524e-39
-0.23012173 0.19188595 -0.82217091 1.0962651e-38
-0.2076304 0.16752785 -0.81725174 3.9601017e-39
-0.19759536 0.14238793 -0.81682426 3.315084e-39
-0.19075513 0.1119231 -0.81776971 2.7630102e-39
-0.037176967 0.1148653 -0.7773518 4.8824307e-39
-0.18873942 0.08681047 -0.81709671 2.3949466e-39
-0.19520378 0.073611438 -0.83094442 2.5789651e-39
-0.023044944 0.096938431 -0.77606988 4.4218029e-39
-0.20230401 0.054217398 -0.83140612 4.2381361e-39
-0.021522403 0.06635195 -0.77753448 4.0555455e-39
-0.012349248 0.03796339 -0.77434093 4.6998471e-39
-0.016341329 0.010961235 -0.77929807 5.8987589e-39
-0.022251964 0.0025766492 -0.79505533 5.5310582e-39
-0.2199899 0.19353205 -0.78890401 5.4377471e-39
-0.23823166 0.20422959 -0.80687022 1.7598197e-38
-0.18759525 0.15910023 -0.77928787 4.1409028e-39
-0.20349324 0.17164922 -0.7861647 4.0512197e-39
-0.18175507 0.13920963 -0.77928787 3.1314284e-39
-0.19118094 0.14094406 -0.79359883 3.6817113e-39
-0.17786157 0.12594926 -0.77928787 2.7630116e-39
-0.18322408 0.11010551 -0.785752 2.6700845e-39
-0.04222703 0.11642307 -0.74787986 4.7891505e-39
-0.07275033 0.11598581 -0.75300717 4.605848e-39
-0.18595886 0.079662442 -0.78863245 2.7630088e-39
-0.013557792 0.10323924 -0.73874241 4.3296073e-39
-0.019817352 0.086381793 -0.75434726 4.3317695e-39
-0.0046396255 0.070210695 -0.73531902 4.3299688e-39
-0.016757846 0.068874836 -0.75389713 4.421454e-39
0.0027496815 0.046335876 -0.73305112 4.7916826e-39
-0.0094736814 0.034719944 -0.75265998 5.2519321e-39
-0.011927605 0.013275206 -0.7523554 5.8951758e-39
-0.2074579 0.19948971 -0.74829453 4.6011649e-39
-0.21535873 0.19760001 -0.76376796 3.8693536e-39
-0.19228089 0.17188871 -0.75278872 3.8664767e-39
-0.20825517 0.1767469 -0.76711333 4.6004488e-39
-0.17913008 0.14526892 -0.75507057 3.2229094e-39
-0.057708621 0.13675839 -0.70879 3.6828142e-39
-0.17732537 0.11547053 -0.75010353 2.6704461e-39
-0.18573666 0.1000542 -0.76711333 2.1201562e-39
-0.026683688 0.12089717 -0.70936173 4.1459419e-39
-0.053602934 0.12271613 -0.72081679 4.605125e-39
-0.073325276 0.12011015 -0.73855805 4.5143264e-39
-0.17060208 0.091095924 -0.7480405 2.0265186e-39
-0.18182039 0.086716294 -0.76711333 2.305604e-39
-2.2888184e-05 0.093767762 -0.70000899 3.5952961e-39
-0.011259675 0.10521346 -0.71159446 3.9611863e-39
0.0068778992 0.078954041 -0.69689363 4.1462908e-39
-0.0013895035 0.072892845 -0.71449542 4.3303191e-39
0.0029473305 0.043967366 -0.70991367 5.4366835e-39
-0.003533721 0.022034466 -0.71220696 7.0068791e-39
-0.015511036 0.0060586929 -0.71707809 8.662118e-39
-0.036439061 -0.0117836 -0.73228055 8.3887401e-39
-0.21647155 0.21860331 -0.71576476 1.2259829e-38
-0.22715116 0.21103996 -0.73700476 1.3464874e-38
-0.20740938 0.2000767 -0.72232658 4.1412531e-39
-0.18007028 0.17287165 -0.70795864 3.6806365e-39
-0.19083166 0.17531317 -0.7253992 3.77463e-39
-0.17439759 0.15681958 -0.71123165 2.8548331e-39
-0.17762148 0.14414501 -0.72447181 2.6711579e-39
-0.067242265 0.13290584 -0.69235456 3.6853141e-39
-0.16187072 0.11088824 -0.70795864 2.6697132e-39
-0.17460632 0.11748809 -0.72109097 2.66973e-39
-0.014462352 0.12095702 -0.67060053 3.959757e-39
-0.027977228 0.12322599 -0.68480641 4.4192932e-39
-0.055408716 0.12830615 -0.69155192 4.4221532e-39
-0.13179612 0.10754681 -0.70010066 3.5891373e-39
-0.14908051 0.10189426 -0.71488124 2.94594e-39
-0.16298604 0.098056138 -0.7282325 2.5757071e-39
-0.0017383099 0.1048944 -0.67575687 4.1448573e-39
0.0099360943 0.076702952 -0.67434478 4.3296101e-39
0.0058157444 0.050876796 -0.67105824 5.435229e-39
-0.00024247169 0.036680222 -0.68441111 6.7241811e-39
-0.0067138672 0.014750659 -0.68298584 8.2057866e-39
-0.01787138 -0.0024121404 -0.6942122 6.6366672e-39
-0.028283954 -0.01781857 -0.68757963 1.0027437e-38
-0.22222149 0.21806282 -0.69714969 9.1215954e-39
-0.23919356 0.22199184 -0.70689619 1.5476216e-38
-0.19045186 0.19705963 -0.67830753 3.4994935e-39
-0.20577717 0.20142227 -0.69502962 3.6856658e-39
-0.17170084 0.1793263 -0.68142205 3.3147337e-39
-0.16862786 0.14914924 -0.68399251 2.4867639e-39
-0.18164754 0.13532853 -0.70190734 1.6606256e-39
-0.074198842 0.13358533 -0.66044235 3.9600891e-39
-0.11609566 0.12456775 -0.66360539 2.5793154e-39
-0.13805461 0.12291753 -0.67568225 2.487131e-39
-0.15559852 0.12193567 -0.69005871 2.3031013e-39
-0.17972147 0.1287688 -0.70190734 1.3851387e-39
-0.013212919 0.12545437 -0.64678168 3.7760734e-39
-0.043394446 0.13300216 -0.65537417 4.3292499e-39
-0.13353515 0.10703617 -0.69365716 3.8664305e-39
0.0018132925 0.10276878 -0.64395553 3.6853183e-39
0.0088721514 0.075761259 -0.64540803 4.5118447e-39
0.0089274645 0.048303008 -0.64701915 5.7121816e-39
-0.0020267963 0.028749406 -0.66129273 7.3716973e-39
0.0022307634 0.025918663 -0.63974243 7.0972726e-39
-0.0081475973 0.010114968 -0.65725982 7.5561068e-39
-0.018617511 -0.0098170638 -0.66209275 1.251814e-38
-0.035831094 -0.020034552 -0.65961713 1.2431684e-38
-0.22239435 0.22280473 -0.66108268 5.6203265e-39
-0.17573428 0.19928795 -0.6421091 4.509314e-39
-0.19011343 0.20416784 -0.65826893 3.7778628e-39
-0.21452999 0.21117735 -0.66571033 4.1473474e-39
-0.16871774 0.17780364 -0.64452541 2.5796924e-39
-0.17438042 0.17920166 -0.65984678 3.3154483e-39
-0.12955856 0.15088046 -0.63295764 3.3143735e-39
-0.15643167 0.15023947 -0.64875442 2.6704475e-39
-0.16609371 0.15324199 -0.66211313 2.3952969e-39
-0.041177273 0.14366996 -0.60960913 4.4203666e-39
-0.057925224 0.13917953 -0.62184387 4.971374e-39
-0.08234024 0.13573039 -0.63371348 4.0515714e-39
-0.1173197 0.13755602 -0.64222354 2.5789623e-39
-0.13827515 0.13576734 -0.66010195 2.5807658e-39
-0.018493891 0.12815791 -0.61767679 3.6849595e-39
-0.050175309 0.13426793 -0.63412786 4.3306877e-39
0.0050413609 0.10164571 -0.6033051 3.5941932e-39
0.00013065338 0.10469371 -0.61915058 3.7767922e-39
0.010905743 0.07914418 -0.6007722 4.145579e-39
0.0088043213 0.073308468 -0.61730319 4.2370529e-39
0.011016846 0.044741035 -0.6176579 5.7125501e-39
0.0049265623 0.020795345 -0.61426258 7.831958e-39
-0.010042548 0.0019759536 -0.62606126 6.9089465e-39
-0.02359736 -0.011279225 -0.64364183 9.7608846e-39
-0.012072325 -0.013805807 -0.62059724 5.5245575e-39
-0.02721417 -0.022974968 -0.6417492 9.8336778e-39
-0.20863998 0.21764046 -0.61841482 4.6965947e-39
-0.23167849 0.22164196 -0.63616228 5.5274078e-39
-0.17738104 0.20444643 -0.62210584 4.0530078e-39
-0.20170963 0.2123 -0.63670659 4.4217959e-39
-0.14093018 0.17881209 -0.60663301 3.0395649e-39
-0.16420889 0.18170774 -0.62404448 3.0381482e-39
-0.10832965 0.16306853 -0.59903151 3.4987564e-39
-0.12904346 0.16171181 -0.61675733 3.3143693e-39
-0.14802063 0.16525471 -0.62869555 2.3963899e-39
-0.042111516 0.14305758 -0.58808219 3.871513e-39
-0.067256927 0.14463019 -0.59473389 4.0533665e-39
-0.092999697 0.14607114 -0.60604793 3.222531e-39
-0.11300814 0.14244044 -0.6255635 2.8551863e-39
-0.010131836 0.12522256 -0.57516181 3.6838735e-39
-0.023367405 0.13241088 -0.59068161 4.0512309e-39
0.0045036077 0.10725111 -0.58000326 3.8693494e-39
-0.0086501837 0.11318803 -0.59770662 4.0533749e-39
0.015085697 0.078851104 -0.57951117 4.697315e-39
0.017680287 0.051196516 -0.57770884 6.2646309e-39
0.01140368 0.04192555 -0.59473741 6.908578e-39
0.0072659254 0.016094387 -0.58837956 6.4486816e-39
-0.017913342 -0.019481719 -0.59498852 7.8265882e-39
-0.032214522 -0.038021326 -0.59854418 1.0688945e-38
-0.21400106 0.22024059 -0.59937453 4.8820594e-39
-0.23952377 0.22485769 -0.60646701 6.3560712e-39
-0.1647712 0.20724714 -0.58037895 3.3175909e-39
-0.1787138 0.20920199 -0.59571236 3.6867364e-39
-0.11844957 0.18716514 -0.57424319 3.776058e-39
-0.15102053 0.18954629 -0.58538187 2.9463085e-39
-0.16613936 0.18821156 -0.60219443 3.4044126e-39
-0.089688778 0.16731298 -0.56383324 2.8573401e-39
-0.10299337 0.17073941 -0.57929248 3.6835162e-39
-0.044645429 0.14578104 -0.55828661 3.6845882e-39
-0.072910786 0.14917529 -0.57108158 2.9473805e-39
-0.0914253 0.15524888 -0.57906365 3.1292844e-39
-0.012494206 0.12855077 -0.55074209 3.4080125e-39
-0.02730608 0.13744545 -0.55836505 3.7757202e-39
0.013316274 0.09847796 -0.53972614 3.317619e-39
0.0035202503 0.10743904 -0.54955816 3.7767908e-39
0.013064742 0.075201452 -0.54766846 4.513637e-39
0.014422059 0.04582417 -0.5512591 5.9891104e-39
0.0046572685 0.01389116 -0.55818915 7.0043637e-39
-0.010095954 -0.010325015 -0.56139582 7.9180608e-39
-0.020659208 -0.029032528 -0.56705904 9.8628136e-39
-0.23751056 0.24105078 -0.58031255 9.2076576e-39
-0.24458754 0.23797846 -0.59002554 9.5800512e-39
-0.20501602 0.21859485 -0.56156522 3.6856532e-39
-0.22075725 0.22165215 -0.57102871 4.8831342e-39
-0.24384475 0.22699964 -0.58156395 7.7386455e-39
-0.13763988 0.20571917 -0.53844631 4.6011761e-39
-0.1623019 0.2094782 -0.5552426 3.132499e-39
-0.18765759 0.21550691 -0.56492561 4.1459223e-39
-0.1050849 0.18818545 -0.5322209 3.4980347e-39
-0.12273383 0.19358629 -0.54843557 3.6849469e-39
-0.15617955 0.1964547 -0.56563914 3.1271306e-39
-0.089024901 0.17229927 -0.53977448 3.0406607e-39
-0.051378965 0.14592135 -0.53100085 3.2250632e-39
-0.077376962 0.15291357 -0.53668386 2.6722369e-39
-0.018023014 0.12829965 -0.52068943 3.3161742e-39
-0.034970164 0.13760614 -0.53238487 3.3161798e-39
0.0052108765 0.10110646 -0.51471162 4.1462936e-39
-0.0038969517 0.11049318 -0.52258873 3.7753447e-39
0.010437012 0.085018873 -0.51642489 4.790584e-39
0.007964015 0.066445112 -0.51893026 5.0678954e-39
0.0096070766 0.043302238 -0.5205602 6.3582643e-39
0.0040736198 0.022749841 -0.52098608 7.184446e-39
-0.0018830299 0.0090181828 -0.52854538 8.2011161e-39
-0.017608881 -0.014395118 -0.53169304 8.5699266e-39
-0.024701238 -0.031250179 -0.54232186 1.013759e-38
-0.21069956 0.22071058 -0.53506565 4.0548155e-39
-0.22950184 0.22790647 -0.53643346 6.5426723e-39
-0.14099407 0.20473433 -0.52601856 3.6860385e-39
-0.17223155 0.20682013 -0.52713192 3.5934786e-39
-0.19350576 0.21439976 -0.53661394 3.500927e-39
-0.087761164 0.19706559 -0.49237156 2.578612e-39
-0.10660732 0.19484562 -0.50938582 2.9488322e-39
-0.13545215 0.19696438 -0.52052236 3.6849483e-39
-0.05126524 0.17286551 -0.48257053 1.9357425e-39
-0.075634956 0.17542893 -0.4939687 2.5782406e-39
-0.092177153 0.17252171 -0.51466238 3.0399531e-39
-0.0370332 0.15306002 -0.48173699 2.3949424e-39
-0.059800625 0.14760953 -0.50304717 2.6729572e-39
-0.081164718 0.15309638 -0.51588988 2.2137825e-39
-0.022844195 0.12824649 -0.49156836 3.22398e-39
-0.0015177727 0.10072297 -0.48694381 3.8700697e-39
-0.013640404 0.11080104 -0.4896625 3.592052e-39
0.0061351061 0.074629605 -0.48642126 5.4352318e-39
0.0015109777 0.070887804 -0.5013696 5.5277917e-39
0.009527564 0.053217649 -0.48147315 5.9866189e-39
0.0031461716 0.038701892 -0.49370301 7.1869529e-39
-0.00046908855 0.019348741 -0.4873127 7.0011352e-39
-0.010120273 0.0030494332 -0.49999595 9.7698683e-39
-0.022797704 -0.01879698 -0.50367534 1.1705636e-38
-0.030997872 -0.035091043 -0.51330298 1.1887872e-38
-0.216694 0.22202581 -0.50670189 4.8813503e-39
-0.23768866 0.2282607 -0.51765501 9.0312229e-39
-0.1196847 0.21493548 -0.48177844 1.9332566e-39
-0.15046871 0.21683961 -0.48736015 2.4867751e-39
-0.18208933 0.21293312 -0.50326091 3.3176091e-39
-0.20138156 0.21472567 -0.50853741 3.499827e-39
-0.086472631 0.19861436 -0.47604558 1.3815275e-39
-0.10962951 0.20533562 -0.47768018 1.4737092e-39
-0.047946095 0.17434067 -0.46951947 1.1056511e-39
-0.06858027 0.18229049 -0.46914041 1.3811534e-39
-0.024193287 0.15158391 -0.46496812 1.5651971e-39
-0.03861165 0.15830195 -0.46190664 1.3818709e-39
-0.01505053 0.12873316 -0.45806229 1.6570298e-39
-0.025810957 0.13004231 -0.46741897 1.8421414e-39
-0.001129508 0.10292411 -0.45834437 2.578619e-39
0.0033496618 0.073503315 -0.46020022 3.961545e-39
0.0064254999 0.047714233 -0.45856175 5.6207034e-39
-0.00039327145 0.031410694 -0.46715435 7.7401197e-39
-0.0023070574 0.015700996 -0.46261749 1.0409836e-38
-0.017702818 -0.0005710125 -0.47557819 1.1613082e-38
-0.028014779 -0.018345118 -0.47254622 1.5852988e-38
-0.037035108 -0.027444541 -0.48559761 1.3645347e-38
-0.22186208 0.24258578 -0.49120054 4.4128668e-39
-0.19624531 0.22467345 -0.47257593 2.0272319e-39
-0.22117937 0.23122758 -0.47647247 1.9350446e-39
-0.13628519 0.20993775 -0.44758153 1.2879082e-39
-0.15445447 0.21524197 -0.46372315 1.1974838e-39
-0.18362689 0.21685487 -0.4592104 1.0155925e-39
-0.10284054 0.18820292 -0.443876 1.656304e-39
-0.11716437 0.19850457 -0.45446736 1.1971223e-39
-0.079382896 0.17473465 -0.44525698 1.4740707e-39
-0.10726821 0.18150783 -0.45530534 7.3794759e-40
-0.048851609 0.1489343 -0.43975511 1.4733518e-39
-0.067945361 0.15899855 -0.44133019 1.4747938e-39
-0.023499012 0.12469083 -0.43320081 1.1985656e-39
-0.035875916 0.13490319 -0.43795606 1.4719281e-39
-0.0035641193 0.10320163 -0.4282102 1.3822394e-39
0.0066052675 0.073723078 -0.42885044 1.7506618e-39
0.0059252977 0.042199314 -0.43247527 2.2120043e-39
0.0046215057 0.023396432 -0.43487072 3.3151288e-39
-0.0014915466 0.0082911253 -0.43649155 3.9601381e-39
-0.019810438 -0.016159952 -0.444336 6.4504753e-39
0.020663381 0.2885896 -0.36619762 5.8029437e-39
-0.00032901764 0.29164129 -0.3708922 4.6054655e-39
-0.18059349 0.23000818 -0.43102917 2.4878597e-39
-0.19753635 0.22792906 -0.44501424 1.2911214e-39
-0.23209834 0.2240063 -0.45614135 2.0254592e-39
-0.24747205 0.22609365 -0.4574936 3.2225507e-39
-0.27626097 0.21442789 -0.45839995 3.4047699e-39
0.035380006 0.27067447 -0.36476764 5.8933162e-39
0.010859609 0.25251889 -0.38279995 2.6711481e-39
-0.13365793 0.21326298 -0.42495838 2.8566548e-39
-0.16216397 0.21997732 -0.43328115 2.6715279e-39
0.029657602 0.24453431 -0.3665404 7.4566749e-39
0.015173554 0.2333802 -0.38061887 5.1561169e-39
-0.10764682 0.19103289 -0.430316 3.2293736e-39
-0.12129533 0.19938141 -0.42905274 2.4896758e-39
0.016061306 0.20532799 -0.37635997 4.2384906e-39
-0.07049644 0.17148459 -0.4155896 1.197516e-39
-0.084388614 0.17505985 -0.42487034 3.776788e-39
-0.11462641 0.17934734 -0.42804229 1.3797157e-39
0.022079349 0.1727705 -0.37410051 1.8421315e-39
0.0043714046 0.15988564 -0.38791406 9.227144e-40
-0.056662202 0.14847797 -0.41330251 2.9484847e-39
-0.071640015 0.1557706 -0.42549467 4.5172243e-39
0.025180459 0.14463335 -0.37846324 3.5027319e-39
0.0118891 0.1362862 -0.39484522 3.0381692e-39
-0.026914716 0.12742651 -0.41220477 2.9502854e-39
-0.042173147 0.131998 -0.41356623 2.7701975e-39
0.023540735 0.12516797 -0.3797543 8.1132112e-39
0.01605618 0.10761672 -0.38940409 4.8878271e-39
0.01921773 0.080357611 -0.38660255 4.8871055e-39
0.0014433861 0.066731572 -0.40649813 2.1208947e-39
0.018562198 0.050516188 -0.38349533 6.5441059e-39
0.0028848648 0.041624963 -0.40541613 3.4123551e-39
0.0012043715 0.018662274 -0.4003441 5.4406646e-39
-0.0066757202 0.0020974278 -0.41045621 3.1354207e-39
-0.016787887 -0.01536864 -0.41164955 3.9641108e-39
-0.022121549 -0.031406641 -0.4069373 7.0912218e-39
-0.066092849 0.29618609 -0.35239026 4.3285367e-39
-0.075878263 0.30175394 -0.35413259 3.7739196e-39
0.029446006 0.29080886 -0.32944179 5.8011416e-39
0.021850586 0.29242694 -0.34306848 4.9728229e-39
0.036355853 0.27320218 -0.32933408 5.2504832e-39
0.02986753 0.26769084 -0.34779361 5.2479608e-39
0.04102838 0.25046533 -0.32854393 3.4948412e-39
0.035475731 0.2406286 -0.34499103 9.0239964e-39
0.021549582 0.22095668 -0.36180174 7.5560928e-39
0.030168891 0.21104306 -0.34249622 5.9873153e-39
0.023870587 0.200104 -0.35678852 2.7630145e-39
0.026559114 0.17350626 -0.35204718 1.5666405e-39
0.031229854 0.14403671 -0.35294047 4.8842272e-39
0.019729376 0.11289483 -0.35076809 4.425393e-39
0.017331123 0.10388112 -0.36310339 5.8083401e-39
0.026160359 0.085421443 -0.34888086 4.0548407e-39
0.022869587 0.079640865 -0.36180064 4.6094508e-39
0.023612857 0.048365355 -0.36032069 5.5292449e-39
0.020326614 0.018664479 -0.35927647 5.4359801e-39
0.011732101 0.010208666 -0.37513465 5.8076437e-39
0.021728158 -0.0029122233 -0.35239026 3.8794387e-39
0.013305068 -0.017203569 -0.35946459 1.2892628e-38
-0.016045332 -0.018458307 -0.38646773 7.0032918e-39
-0.029735804 -0.039990187 -0.39231104 7.7401309e-39
-0.042617917 -0.059023082 -0.40168938 1.438104e-38
-0.055550933 0.33288473 -0.31800753 7.5510131e-39
-0.070533156 0.32911468 -0.33272547 6.5426457e-39
-0.043923974 0.30557948 -0.32145655 2.5778973e-39
-0.063447714 0.30589658 -0.33658186 5.7074914e-39
-0.080725312 0.309659 -0.34551653 5.8018619e-39
0.026476622 0.2928533 -0.32136092 8.1056708e-39
0.018242598 0.28776604 -0.32049266 8.1031387e-39
-0.023490191 0.28374839 -0.31675974 3.2261562e-39
0.036874175 0.2636385 -0.31870452 1.0314379e-38
0.015558958 0.26860064 -0.31928721 8.8457568e-39
-0.012676358 0.26358795 -0.31360465 9.0351507e-39
0.043669105 0.24690843 -0.31283861 1.0589894e-38
0.026665807 0.22872502 -0.31235215 1.0497687e-38
0.03018105 0.20878661 -0.31701398 7.6439542e-39
0.027511239 0.18595159 -0.32122651 2.2123574e-39
0.025266051 0.16909575 -0.32253659 1.8414211e-39
0.035336137 0.14706743 -0.30897409 3.506336e-39
0.031226516 0.14620501 -0.3244383 3.4094657e-39
0.025027752 0.11083817 -0.32631257 4.0566273e-39
0.025667548 0.084451377 -0.32928517 6.454434e-39
0.018238425 0.067014039 -0.32927504 3.224001e-39
0.030809283 0.041003704 -0.32025284 4.0509058e-39
0.021619439 0.050444067 -0.33243757 5.0693541e-39
0.027944088 0.018421113 -0.33250013 5.9920209e-39
0.023675203 -0.012641132 -0.33307904 7.281322e-39
0.01839149 -0.025042176 -0.34838855 1.3163526e-38
0.023471594 -0.033960521 -0.32724079 7.270553e-39
0.018652916 -0.037403166 -0.33690047 1.139669e-38
-0.059814215 0.33819026 -0.30666852 6.9989519e-39
-0.071462035 0.33165848 -0.29611167 7.0007358e-39
-0.047251463 0.30920881 -0.30333665 3.5949289e-39
-0.062984705 0.30564296 -0.29121807 8.4812735e-39
-0.039636135 0.28078318 -0.30418569 8.2976151e-39
-0.053760052 0.27302188 -0.29647374 6.3496435e-39
-0.01741755 0.25474411 -0.30006275 6.8163683e-39
-0.12926269 0.21835625 -0.31378213 4.1419818e-39
-0.0053181648 0.22859275 -0.29425409 7.8272763e-39
0.015304089 0.20190221 -0.29556346 5.896563e-39
0.0032908916 0.20123303 -0.28838319 5.8036429e-39
0.014016509 0.1699059 -0.29574808 2.0276186e-39
0.02969873 0.15531158 -0.29800177 2.8581094e-39
0.021876574 0.1414659 -0.29260984 4.8885558e-39
0.025221586 0.11272645 -0.29436684 4.9757166e-39
0.019948125 0.077418447 -0.29967326 6.0860074e-39
0.026759505 0.047039688 -0.29980001 4.793842e-39
0.016296387 0.056270361 -0.31189102 5.1665636e-39
0.030558467 0.018491864 -0.29457825 5.5313987e-39
0.026973128 0.018032789 -0.31001157 5.0697059e-39
0.034556746 0.00077801943 -0.29274747 3.3169323e-39
0.029280782 -0.011776328 -0.30446282 6.7306761e-39
0.020359039 -0.040100098 -0.31047449 1.004613e-38
0.014258385 -0.054240704 -0.30504712 6.4530257e-39
0.013936043 -0.073977709 -0.30264461 1.1338665e-38
-0.086728215 0.32155901 -0.2871035 1.0312221e-38
-0.099459648 0.31037712 -0.282332 1.0684936e-38
-0.2686708 0.26437277 -0.31642559 5.8003975e-39
-0.088080764 0.30829483 -0.2895166 9.8677742e-39
-0.10416794 0.29005611 -0.28627917 8.0141997e-39
-0.12533486 0.28080326 -0.27893433 9.3960285e-39
-0.074777007 0.27241236 -0.28603244 8.8425002e-39
-0.10019386 0.26897931 -0.28083521 7.4592168e-39
-0.12732184 0.24011469 -0.29049286 9.1208779e-39
-0.13646519 0.2192409 -0.29619455 3.6849764e-39
-0.10936236 0.18780023 -0.29935801 9.1129718e-39
-0.12690425 0.19500846 -0.29369557 3.778953e-39
-0.047933936 0.17156416 -0.2895166 2.7626711e-39
-0.081368446 0.16212583 -0.28050032 2.859889e-39
-0.098268509 0.17319709 -0.28859776 4.7902225e-39
-0.0044344664 0.15849823 -0.28262758 1.7535415e-39
-0.034515381 0.15153766 -0.28322443 2.3056404e-39
-0.058819532 0.15213692 -0.27741894 3.7818439e-39
0.0023773909 0.13492841 -0.27560979 5.1586771e-39
-0.033660293 0.12366796 -0.27493444 6.178203e-39
-0.047909856 0.12262255 -0.27012593 6.3622299e-39
0.010926127 0.10683161 -0.271772 7.3760147e-39
-0.017504692 0.10155189 -0.26548785 7.7430064e-39
0.014166474 0.076471567 -0.27159375 5.4410037e-39
-0.0062416792 0.084242761 -0.26302773 1.9411529e-39
0.023303509 0.048446 -0.27167502 4.5165391e-39
0.02971971 0.018654823 -0.26916474 4.4275847e-39
0.032636046 -0.010358155 -0.26273277 4.7934959e-39
0.026819706 -0.015379071 -0.27971813 5.8105191e-39
0.035490513 -0.031360447 -0.26374522 8.1136148e-39
0.026393056 -0.0467906 -0.27656552 6.8221641e-39
0.025569916 -0.070360005 -0.27116817 8.3923583e-39
0.011703014 -0.082210839 -0.28604311 7.2766795e-39
0.0091482401 -0.10195547 -0.2773726 1.1245045e-38
-0.27840328 0.26240546 -0.30341536 2.7727114e-39
-0.13774383 0.28903913 -0.27439922 7.5531809e-39
-0.15184689 0.27013886 -0.27753049 9.4878654e-39
-0.18959248 0.25835133 -0.27453765 7.2777066e-39
-0.25573623 0.24777883 -0.28853101 2.4831723e-39
-0.2701627 0.25309241 -0.30003825 3.1292606e-39
-0.1301167 0.25601727 -0.2747288 9.0268943e-39
-0.1560868 0.24274248 -0.27163622 6.9107024e-39
-0.18433642 0.23804665 -0.26936057 6.0813214e-39
-0.14503467 0.21838373 -0.26757374 3.8715116e-39
-0.11682057 0.18308419 -0.25442258 2.3931683e-39
-0.13049376 0.19413984 -0.26606154 3.410902e-39
-0.081081629 0.16245836 -0.25823325 4.2406585e-39
-0.10340035 0.17305392 -0.26208606 3.5027333e-39
-0.054290533 0.14185053 -0.2380745 6.4508158e-39
-0.061747789 0.14869189 -0.25257182 4.1488286e-39
-0.046519756 0.12472355 -0.2474276 4.3350121e-39
-0.051588416 0.11743355 -0.25238088 4.4221897e-39
-0.034325004 0.093891501 -0.24937351 4.5176097e-39
-0.046693325 0.10199106 -0.25361174 3.9659101e-39
0.0041739941 0.067824006 -0.25626075 7.0072378e-39
-0.024814487 0.068462133 -0.24823438 5.3470074e-39
-0.035504937 0.052415729 -0.24212365 3.3190861e-39
0.010493398 0.042939186 -0.2528927 6.6363225e-39
-0.010192037 0.036668956 -0.24463879 6.5462751e-39
-0.034616232 0.037492156 -0.24202573 4.5183201e-39
0.017938018 0.01227957 -0.24212964 5.3481046e-39
0.004997015 0.023449302 -0.2404754 3.5971149e-39
0.026979804 -0.014292121 -0.24028693 7.1001775e-39
0.031393409 -0.039257348 -0.24186137 6.7313992e-39
0.030422807 -0.056577682 -0.24705313 9.0341446e-39
0.035836339 -0.066912651 -0.22931671 6.7296084e-39
0.029558778 -0.073910773 -0.24659665 8.1150567e-39
0.019866109 -0.10500282 -0.2437903 1.1615992e-38
0.016054034 -0.10812849 -0.25720179 1.0972781e-38
-0.29384351 0.25571942 -0.27728862 5.5353503e-39
-0.21869683 0.24679482 -0.26986131 6.6287569e-39
-0.26300991 0.24427068 -0.26906952 2.9481288e-39
-0.28286266 0.25018674 -0.26858044 5.7208178e-39
-0.18836141 0.22357982 -0.25111341 4.1488089e-39
-0.21861756 0.2294451 -0.25940204 5.1586365e-39
-0.2502203 0.2240054 -0.25583869 3.4991137e-39
-0.14988065 0.21712148 -0.24163406 4.0562728e-39
-0.18045652 0.21905166 -0.2432595 5.0722058e-39
-0.12534356 0.18450272 -0.23099184 2.9499252e-39
-0.13778138 0.19485623 -0.23903064 4.1488188e-39
-0.089052677 0.16251451 -0.22628953 3.9655191e-39
-0.10761559 0.17173338 -0.23435648 3.2275715e-39
-0.057611227 0.13984412 -0.22473767 2.6722874e-39
-0.070644617 0.14781672 -0.22091918 4.4264959e-39
-0.05398941 0.12027997 -0.21749768 3.9655275e-39
-0.058868051 0.11707288 -0.22718918 3.9644331e-39
-0.043955684 0.092432618 -0.22158527 4.1484698e-39
-0.054183364 0.087354064 -0.2134034 4.7002171e-39
-0.036666989 0.065251589 -0.22147152 3.8729661e-39
-0.041706204 0.050594926 -0.21914747 5.6300669e-39
-0.035611629 0.030434787 -0.22210792 3.9651702e-39
0.0006415844 0.0093243122 -0.22337155 6.2718518e-39
-0.037618876 -0.00069433451 -0.22095877 4.1506334e-39
0.018148184 -0.02140367 -0.21456167 5.9023658e-39
0.0024089813 -0.011212587 -0.21618934 5.9956222e-39
-0.024699688 -0.015928566 -0.21053138 4.3368043e-39
0.024088144 -0.044837236 -0.21135408 6.1785982e-39
0.025879025 -0.058929205 -0.22919932 4.1478014e-39
0.032756686 -0.072678804 -0.21303809 7.4700587e-39
0.032607555 -0.087474227 -0.22356124 9.1342239e-39
0.02366364 -0.10466832 -0.22185326 8.5749853e-39
-0.30285561 0.25265259 -0.26194206 7.0068833e-39
-0.31302023 0.24891084 -0.25675923 7.1891025e-39
-0.26935554 0.23289126 -0.24932265 4.1524383e-39
-0.29222012 0.23726839 -0.24998525 6.4555046e-39
-0.31744504 0.23489368 -0.24609253 7.4674803e-39
-0.20005608 0.22127801 -0.22294995 3.9644331e-39
-0.21221209 0.2196641 -0.23157167 3.5038053e-39
-0.26074171 0.21477753 -0.24394453 2.3042097e-39
-0.289662 0.2102598 -0.23679017 5.0736631e-39
-0.30878782 0.21510065 -0.23733334 4.9850618e-39
-0.1434989 0.20817059 -0.20331918 2.858803e-39
-0.15798986 0.21300483 -0.21518117 4.51906e-39
-0.19189596 0.2128129 -0.21768735 4.0580581e-39
-0.13053048 0.18725783 -0.20378168 3.6896469e-39
-0.14620638 0.19924033 -0.21468346 4.794184e-39
-0.10511792 0.16303611 -0.20040245 4.0573476e-39
-0.11490595 0.17190409 -0.2054396 2.3041957e-39
-0.065844417 0.13768458 -0.19449161 4.0562924e-39
-0.085876822 0.14606792 -0.19399565 4.4243463e-39
-0.054826856 0.12012482 -0.19055034 3.9648073e-39
-0.045786977 0.092472792 -0.18966554 4.149553e-39
-0.041691303 0.062098324 -0.19255844 4.5172552e-39
-0.037743688 0.037176609 -0.18968086 4.2424675e-39
-0.039696693 0.021956384 -0.19732009 3.7779049e-39
-0.035539627 -0.00089991093 -0.19414636 3.5981855e-39
-0.011426926 -0.022711992 -0.19073118 3.96841e-39
0.019811749 -0.051737189 -0.18531087 6.5477366e-39
0.0044552088 -0.044147551 -0.18269876 5.6257789e-39
0.026061893 -0.073096156 -0.18207654 7.1020006e-39
0.022988439 -0.079107642 -0.19912955 9.8653346e-39
0.026625514 -0.092711091 -0.17206061 1.1526678e-38
0.021807551 -0.10264915 -0.18937422 9.9579099e-39
-0.33129692 0.22060037 -0.2399229 5.8169511e-39
-0.35299969 0.2160632 -0.22905459 8.57489e-39
-0.20396996 0.22271615 -0.19411357 4.1498992e-39
-0.29457927 0.19229734 -0.22972454 4.1487781e-39
-0.3172369 0.19672763 -0.22704186 3.780409e-39
-0.34133983 0.19368786 -0.22302784 4.7038016e-39
-0.14650214 0.20288759 -0.17793612 4.334303e-39
-0.16556597 0.20707786 -0.1836673 4.7956427e-39
-0.19421399 0.21162856 -0.19185211 3.9647946e-39
-0.12216771 0.18378282 -0.16302343 4.8867537e-39
-0.13426471 0.19062376 -0.17613985 3.9644443e-39
-0.11327386 0.16548526 -0.17266957 3.1353885e-39
-0.073508978 0.1331135 -0.16376925 4.6998345e-39
-0.091188312 0.14370131 -0.16636066 4.3328667e-39
-0.059013844 0.11794037 -0.1618253 4.4254197e-39
-0.033561945 0.086117923 -0.14586507 4.797072e-39
-0.040857792 0.092534006 -0.15864238 4.1502719e-39
-0.029602051 0.071884632 -0.1451166 6.0856585e-39
-0.036838531 0.061209977 -0.16128345 3.965166e-39
-0.042745829 0.032232285 -0.16171658 4.0595252e-39
-0.046000481 0.017617881 -0.17147182 3.8733347e-39
-0.0057194233 -0.0049704313 -0.14960726 4.7981384e-39
-0.035833001 0.00058448315 -0.15756117 3.5996191e-39
-0.041140795 -0.0022829771 -0.17038968 3.2294128e-39
-0.00068318844 -0.018067479 -0.15155819 6.2711329e-39
-0.0095432997 -0.022687495 -0.16294263 4.79637e-39
-0.035551786 -0.019114971 -0.17032303 3.9666107e-39
0.016177535 -0.054291189 -0.15200481 5.8112576e-39
0.00069022179 -0.04628861 -0.15938668 5.4428296e-39
0.022725582 -0.075237572 -0.155444 8.667883e-39
0.022585392 -0.093897283 -0.15709174 1.4473676e-38
0.010740161 -0.11276191 -0.15846433 1.4387965e-38
-0.36546063 0.21103531 -0.20736489 5.9023364e-39
-0.20743942 0.22066802 -0.16170201 4.4275693e-39
-0.32993555 0.18687063 -0.19437075 3.5066962e-39
-0.34713697 0.19522655 -0.20356466 3.4123509e-39
-0.15136492 0.20195699 -0.14810716 4.8903341e-39
-0.18051457 0.20445418 -0.15610139 4.0570015e-39
-0.20132399 0.21105057 -0.16406685 4.7045121e-39
-0.33040285 0.17834049 -0.20064715 2.9510155e-39
-0.33798122 0.17492974 -0.20831124 1.7492647e-39
-0.12478817 0.18301338 -0.15331462 4.6115962e-39
-0.13911557 0.18936199 -0.14303163 4.2399522e-39
-0.11483133 0.1641891 -0.14084885 3.0428369e-39
-0.082808495 0.13244575 -0.13137978 3.0335113e-39
-0.095559597 0.14021778 -0.13776848 4.3332184e-39
-0.064768553 0.11683148 -0.13133225 4.4236274e-39
-0.03695333 0.08666116 -0.12463088 4.6090921e-39
-0.050065875 0.096532285 -0.13015865 4.3346632e-39
-0.029184222 0.067695379 -0.12563138 5.6239614e-39
-0.034640908 0.051487625 -0.13335215 4.8846027e-39
-0.037796855 0.032209933 -0.13020748 4.8871237e-39
-0.014937282 -0.0015996695 -0.12154057 4.6105494e-39
-0.03581965 -0.0003259182 -0.13346949 3.9644597e-39
-0.049121618 -0.0044427514 -0.13873079 3.5960093e-39
0.0020788908 -0.019895494 -0.12506932 5.9934811e-39
-0.018152118 -0.013094962 -0.12778449 3.9680569e-39
0.010478258 -0.050415456 -0.12475261 6.180396e-39
-0.0058293343 -0.043822885 -0.13617115 6.8228816e-39
0.021243334 -0.073819935 -0.12461288 9.0355865e-39
0.014505267 -0.096269786 -0.1271539 1.3557858e-38
0.0071992874 -0.11402756 -0.1324572 1.4935405e-38
-0.3441211 0.21336293 -0.15938674 9.5941623e-39
-0.3678776 0.20231646 -0.1799254 5.8209546e-39
-0.39068389 0.20058537 -0.18718433 7.1945788e-39
-0.21943593 0.21312457 -0.13483043 6.177117e-39
-0.24430668 0.20941436 -0.13675834 4.8834831e-39
-0.31544828 0.1861698 -0.15240242 4.8849391e-39
-0.33323538 0.19285691 -0.16698872 3.6882077e-39
-0.35279059 0.19908261 -0.18198615 6.1853875e-39
-0.19148135 0.20170242 -0.12845072 4.7019995e-39
-0.21070695 0.21016955 -0.13117813 5.7132676e-39
-0.13725185 0.18298501 -0.11077227 3.5960233e-39
-0.15039587 0.1878581 -0.12184742 4.7009233e-39
-0.17328084 0.19213849 -0.12075856 4.9771263e-39
-0.1169883 0.16443962 -0.1097423 3.227224e-39
-0.089000821 0.13165891 -0.10946927 4.9768012e-39
-0.10475934 0.13987005 -0.10709028 3.9637212e-39
-0.052338481 0.10896575 -0.10470051 6.7324502e-39
-0.071854472 0.11524856 -0.10126954 4.4257826e-39
-0.044021368 0.090534329 -0.097762279 4.702731e-39
-0.028762937 0.065808475 -0.094026729 5.5328434e-39
-0.029272676 0.032241404 -0.085960262 4.7967301e-39
-0.043689013 0.027300715 -0.10393008 4.4254365e-39
-0.0132128 0.0046861172 -0.094326995 4.4290336e-39
-0.042155027 0.005930841 -0.1043956 3.7836684e-39
0.0013124943 -0.017922223 -0.093766831 6.0874787e-39
0.0059554577 -0.049777925 -0.095315203 7.1016335e-39
0.012424588 -0.077891707 -0.09431497 9.9586218e-39
0.0062044859 -0.10022646 -0.094877169 1.2909626e-38
0.0016229153 -0.11117512 -0.1011849 1.2722001e-38
-0.34901786 0.21132267 -0.14556408 1.6240835e-38
-0.36803865 0.20173079 -0.13262655 4.3166943e-39
-0.23179638 0.20839095 -0.12024142 6.6431286e-39
-0.25837135 0.20813489 -0.11427513 3.5034451e-39
-0.29085958 0.20472574 -0.11452637 4.6094172e-39
-0.31574512 0.19131351 -0.13807672 2.7676962e-39
-0.3398875 0.19681829 -0.13879314 3.5956478e-39
-0.36611259 0.195171 -0.13262655 2.4983218e-39
-0.17450273 0.19426829 -0.083639987 4.8892817e-39
-0.19498873 0.19886804 -0.097075932 5.2548202e-39
-0.22095978 0.20335937 -0.10415749 4.7027044e-39
-0.24656713 0.2026341 -0.10563879 4.3306919e-39
-0.13941824 0.17661548 -0.097003371 6.1731443e-39
-0.15905178 0.18012059 -0.087965518 4.6108815e-39
-0.17857969 0.18843961 -0.098979317 4.0555427e-39
-0.12332535 0.16243738 -0.080275036 3.3212287e-39
-0.098322034 0.13201618 -0.078032441 4.7942092e-39
-0.10795689 0.13571775 -0.078418106 4.4243491e-39
-0.060873508 0.10600305 -0.060801663 4.6134151e-39
-0.079278708 0.11425883 -0.075208224 4.5190586e-39
-0.048509598 0.08997947 -0.066740543 4.9793165e-39
-0.062361479 0.0952335 -0.082609482 6.5498568e-39
-0.028243542 0.066476762 -0.064084016 5.1655154e-39
-0.029486179 0.033222139 -0.067261808 4.9786131e-39
-0.0020620823 0.01333338 -0.047466796 7.0087064e-39
-0.013786674 0.0078704357 -0.063106485 5.2595117e-39
0.009051919 -0.0190413 -0.052952949 7.84169e-39
-0.0008906126 -0.023579955 -0.062860504 6.3644272e-39
0.0064194202 -0.050848424 -0.065049522 7.1027251e-39
0.0092666149 -0.078346848 -0.063973539 9.1303157e-39
0.0017986298 -0.10557073 -0.069571614 1.5860585e-38
-0.003528595 -0.11639684 -0.071333364 1.2336732e-38
-0.36839855 0.20970666 -0.10245782 1.1846417e-38
-0.37371361 0.20243967 -0.11397956 5.6311557e-39
-0.26769757 0.20440811 -0.08611688 5.255518e-39
-0.32022893 0.19317651 -0.09695027 3.5038291e-39
-0.34756136 0.19245046 -0.10824262 4.1495516e-39
-0.37144148 0.19360638 -0.1128827 3.2283268e-39
-0.18327606 0.19169229 -0.051134549 7.2881365e-39
-0.19876778 0.19791532 -0.070998617 5.530684e-39
-0.23146796 0.1995917 -0.073567182 4.5183342e-39
-0.25536072 0.19976819 -0.081082456 5.3495326e-39
-0.15204024 0.17501163 -0.052342787 6.2700539e-39
-0.16445589 0.17541146 -0.062095348 4.9800242e-39
-0.185202 0.18212664 -0.064528227 3.7814852e-39
-0.13042796 0.15859133 -0.051211532 3.781488e-39
-0.1570369 0.16375858 -0.053572278 4.1452454e-39
-0.10519898 0.12690282 -0.049453489 4.5165461e-39
-0.11685872 0.1373589 -0.049697943 4.6098039e-39
-0.067488909 0.10451728 -0.048567142 5.8072793e-39
-0.091407776 0.11087066 -0.044617213 4.703094e-39
-0.060815096 0.086473346 -0.037829097 4.886409e-39
-0.039823055 0.05964148 -0.036249347 4.9807598e-39
-0.026135206 0.032029688 -0.034057949 5.5332288e-39
-0.0061681271 0.014345646 -0.031602301 5.9027344e-39
-0.013324142 0.0057111382 -0.031829696 6.3637069e-39
-0.0070563555 -0.023474097 -0.032736558 5.99493e-39
0.0064651966 -0.037619889 -0.025522126 6.8333339e-39
0.0032073259 -0.052272975 -0.033856779 8.6696879e-39
0.00021088123 -0.08063817 -0.036721025 1.115681e-38
-0.0059233904 -0.10682255 -0.041977406 1.5127695e-38
-0.01430881 -0.11345798 -0.037504964 1.1514877e-38
-0.37089956 0.20188516 -0.086092941 9.7621051e-39
-0.37780833 0.19886225 -0.096429482 4.2270729e-39
-0.27933431 0.20090652 -0.056950487 5.0729345e-39
-0.30876863 0.1990543 -0.061052158 5.0682765e-39
-0.3266772 0.19699794 -0.073243618 4.8846168e-39
-0.35748804 0.19530743 -0.080115236 3.5938765e-39
-0.37588227 0.19230247 -0.096429482 3.049346e-39
-0.1848712 0.19122392 -0.045224432 6.174554e-39
-0.20727205 0.19057 -0.042019635 5.1647896e-39
-0.2344979 0.19092143 -0.047162522 6.4551598e-39
-0.26672304 0.19186187 -0.051024728 4.4261259e-39
-0.17498326 0.17103547 -0.036006939 4.2410326e-39
-0.19632649 0.17918885 -0.033611532 5.1644224e-39
-0.14538825 0.15334541 -0.025117429 4.3350191e-39
-0.16651607 0.16097534 -0.018450929 6.4508088e-39
-0.11413515 0.13030452 -0.022378637 4.7020108e-39
-0.12827969 0.13789141 -0.016198847 3.3158113e-39
-0.097349763 0.10585976 -0.016801111 5.0700716e-39
-0.067208886 0.076426506 -0.013330569 4.4250721e-39
-0.080489397 0.086389184 -0.011916771 5.1647826e-39
-0.056382298 0.055173934 -0.0086805606 5.8101576e-39
-0.03502202 0.029127538 -0.0048080748 6.0863913e-39
-0.010793209 0.0036887527 -0.0028541554 7.2860149e-39
-0.022970796 0.010829389 -0.0014770848 5.717627e-39
-0.011889219 -0.025288582 -0.0037904636 7.5626116e-39
0.0017057657 -0.047618926 0.0039587389 8.5800258e-39
-0.0015336275 -0.055636704 -0.0060427571 1.014265e-38
-0.007065773 -0.083576202 -0.0056169294 1.1894754e-38
-0.024456501 -0.10422927 -0.01213363 1.9180297e-38
-0.28779948 0.20183116 -0.027893869 5.2580558e-39
-0.31101799 0.2014395 -0.031394463 5.7918664e-39
-0.3408637 0.19659466 -0.044497296 5.9988971e-39
-0.35590136 0.19776195 -0.059262536 7.3839699e-39
-0.22446203 0.18120182 -0.022009861 6.8134803e-39
-0.24128747 0.17925161 -0.021014081 5.6235915e-39
-0.27138817 0.18324858 -0.022575032 4.5204922e-39
-0.17819619 0.16253698 -0.0097172754 2.3956893e-39
-0.20564818 0.16835982 -0.011213949 5.7165102e-39
-0.23618019 0.16989386 -0.0039506336 9.313876e-39
-0.15564072 0.14396036 0.00057871646 4.2428179e-39
-0.17763007 0.15292734 -0.0020234508 5.624309e-39
-0.11747551 0.12020409 -0.00086929073 6.9143345e-39
-0.13557243 0.12736344 0.0075279358 4.4257826e-39
-0.1109376 0.099825025 0.0094941519 5.6225223e-39
-0.12563765 0.10990584 0.0077424347 5.0715219e-39
-0.092116117 0.078408957 0.013713516 5.2566321e-39
-0.066839218 0.049604237 0.017475991 5.6250517e-39
-0.081692576 0.060868084 0.017748117 6.2682673e-39
-0.049270034 0.025892198 0.020474583 5.9952859e-39
