# .PCD v0.7 - Point Cloud Data file format
VERSION 0.7
FIELDS x y z rgb
SIZE 4 4 4 4
TYPE F F F F
COUNT 1 1 1 1
WIDTH 555
HEIGHT 1
VIEWPOINT 0 0 0 1 0 0 0
POINTS 555
DATA ascii
5.0947943 -0.91631562 -1.0889773 8.8647977e-39
5.1023097 -0.93540555 -1.0613464 2.2123658e-39
5.0440612 -0.94036698 -0.98211825 4.8730743e-39
5.1173406 -0.93540555 -1.0060843 5.8016069e-39
5.1173406 -0.91631562 -1.0060843 1.0894294e-38
5.1173406 -0.8781358 -1.0060843 1.2558483e-38
5.0489969 -0.94036698 -0.96397018 5.8811263e-39
5.1298661 -0.95449543 -0.96003252 5.0517819e-39
5.0522881 -0.91529053 -0.95187145 9.7875877e-39
5.124856 -0.91631562 -0.97845316 1.1629324e-38
5.1273608 -0.88768077 -0.96924281 1.3016584e-38
5.1348763 -0.97358537 -0.94161183 6.2894941e-39
5.1348763 -0.94495046 -0.94161183 7.4754845e-39
5.0588694 -0.90275228 -0.92767411 1.162824e-38
5.1348763 -0.88768077 -0.94161183 1.2736043e-38
5.1423917 -0.97358537 -0.91398078 1.0610465e-38
5.0687413 -0.94036698 -0.89137805 1.1352364e-38
5.1398864 -0.95449543 -0.92319113 8.1215812e-39
5.0662732 -0.91215599 -0.90045202 1.0982888e-38
5.0687413 -0.88394499 -0.89137805 1.347578e-38
5.1398864 -0.88768077 -0.92319113 1.1540021e-38
5.0687413 -0.86513764 -0.89137805 9.8747401e-39
5.1423917 -0.85904592 -0.91398078 7.0144699e-39
5.1448965 -0.83995599 -0.90477043 6.4652338e-39
5.0042925 -0.94513762 -0.84256858 1.1914111e-38
5.0736775 -0.95917428 -0.87323004 3.0622772e-39
5.0026712 -0.9204281 -0.8485294 1.0245678e-38
5.0736775 -0.91215599 -0.87323004 1.1536777e-38
5.0042925 -0.88954133 -0.84256858 1.2458366e-38
5.0761456 -0.88394499 -0.86415601 1.2283345e-38
5.0769682 -0.85886854 -0.86113131 8.3052424e-39
5.1499071 -0.85904592 -0.88634974 6.3716355e-39
5.1499071 -0.83995599 -0.88634974 6.0932395e-39
5.1499071 -0.7635963 -0.88634974 7.3789855e-39
5.1499071 -0.74450642 -0.88634974 9.5945701e-39
4.9399428 -0.93756336 -0.80101556 1.6704718e-38
5.0115886 -0.91733944 -0.81574488 1.153139e-38
5.0123992 -0.88336396 -0.81276447 1.2090299e-38
5.0835495 -0.88394499 -0.83693397 1.190808e-38
5.0835495 -0.85573399 -0.83693397 8.3063073e-39
5.0140204 -0.83394504 -0.80680364 7.8463718e-39
5.1574221 -0.83041108 -0.85871869 5.9081336e-39
5.1574221 -0.80177623 -0.85871869 5.07874e-39
5.1574221 -0.7635963 -0.85871869 7.6566374e-39
4.9511275 -1.0227964 -0.759893 4.9692566e-39
4.9511275 -0.97713578 -0.759893 1.2068743e-38
4.9463344 -0.94973946 -0.7775169 1.4846455e-38
5.0188842 -0.94513762 -0.78892118 1.0153493e-38
5.0188842 -0.91733944 -0.78892118 9.6867559e-39
5.0188842 -0.88027525 -0.78892118 1.1447451e-38
5.0188842 -0.85247713 -0.78892118 9.7825304e-39
5.0884857 -0.86513764 -0.81878591 9.5048744e-39
5.0188842 -0.83394504 -0.78892118 7.9357087e-39
5.0909538 -0.82752293 -0.80971193 5.8155722e-39
5.0909538 -0.80871564 -0.80971193 5.6322824e-39
5.1649375 -0.7922312 -0.83108759 4.8893069e-39
5.1649375 -0.73496145 -0.83108759 1.0426102e-38
5.0934219 -0.69587153 -0.80063784 9.9737348e-39
5.1649375 -0.7063266 -0.83108759 1.0428253e-38
5.0934219 -0.67706418 -0.80063784 8.7655171e-39
5.1649375 -0.67769176 -0.83108759 8.4002854e-39
5.1649375 -0.64905691 -0.83108759 7.01087e-39
5.0286117 -1.0377982 -0.7531563 1.0519625e-38
5.0261798 -1.019266 -0.76209754 1.401449e-38
4.9559212 -0.97713578 -0.74226904 1.373792e-38
5.0261798 -0.96366978 -0.76209754 1.2558765e-38
5.0261798 -0.94513762 -0.76209754 8.2858554e-39
5.0261798 -0.91733944 -0.76209754 9.503438e-39
5.0253692 -0.88336396 -0.76507795 1.0891413e-38
4.9559212 -0.84928632 -0.74226904 9.968372e-39
5.0237479 -0.85247713 -0.77103871 9.7843311e-39
5.0261798 -0.82467896 -0.76209754 6.0936038e-39
5.0983577 -0.80871564 -0.78248978 6.6475427e-39
5.1724529 -0.7922312 -0.8034566 4.061714e-39
5.1749582 -0.7635963 -0.7942462 6.0845963e-39
5.1724529 -0.73496145 -0.80345654 9.7839514e-39
5.0983577 -0.69587153 -0.78248978 9.7850332e-39
5.0983577 -0.67706418 -0.78248978 8.8627181e-39
5.1724529 -0.66814679 -0.80345654 7.5643969e-39
5.0983577 -0.63944954 -0.78248978 6.277258e-39
5.1699476 -0.64905691 -0.81266689 6.4627241e-39
5.1724529 -0.62996697 -0.80345654 4.0674398e-39
4.9631114 -1.0045321 -0.71583307 1.621999e-38
4.9623127 -0.98017979 -0.71877044 1.3089301e-38
5.0334759 -0.96366978 -0.73527384 1.1255826e-38
5.1082301 -0.95917428 -0.74619377 9.2981744e-39
5.0334759 -0.91733944 -0.73527384 1.0705172e-38
4.9631114 -0.87668264 -0.71583307 9.6942991e-39
4.9631114 -0.84928632 -0.71583307 9.2347461e-39
4.9631114 -0.82189 -0.71583307 6.7372076e-39
5.0334759 -0.81541288 -0.73527384 5.1731161e-39
5.105762 -0.79931194 -0.75526774 6.4613059e-39
5.1849785 -0.78268623 -0.7574048 5.8148687e-39
5.1032939 -0.77110088 -0.76434177 6.4609304e-39
5.1824732 -0.7635963 -0.76661521 5.4539671e-39
5.1824732 -0.73496145 -0.76661521 7.3775351e-39
5.1824732 -0.7063266 -0.76661521 8.4006624e-39
5.1816382 -0.68087339 -0.76968527 7.9367877e-39
5.1065845 -0.64571863 -0.7522431 6.736811e-39
5.1049395 -0.60810399 -0.75829244 4.5085993e-39
5.1849785 -0.62996697 -0.7574048 2.9632236e-39
5.1032939 -0.58302754 -0.76434177 9.4165701e-39
5.1849785 -0.59178716 -0.7574048 7.1217435e-39
5.1082301 -0.56422019 -0.74619377 9.643219e-39
4.9703016 -1.0045321 -0.68939722 1.6597001e-38
5.0407715 -0.98220187 -0.70845014 1.1335787e-38
5.115634 -0.97798163 -0.71897173 1.0796978e-38
5.1148114 -0.95290518 -0.72199637 8.8555169e-39
5.0415821 -0.91425079 -0.70546973 8.4910896e-39
4.9726987 -0.87668264 -0.68058527 9.4137367e-39
4.9726987 -0.85841841 -0.68058527 8.8594783e-39
5.0432034 -0.85247713 -0.69950891 8.3120709e-39
4.9703016 -0.82189 -0.68939722 8.9380183e-39
5.0407715 -0.81541288 -0.70845014 7.9393423e-39
5.0407715 -0.79688078 -0.70845014 8.3949157e-39
5.1131659 -0.78990829 -0.7280457 5.821012e-39
5.0432034 -0.77834868 -0.69950891 8.692714e-39
5.115634 -0.76169717 -0.71897167 5.2616964e-39
5.115634 -0.73348624 -0.71897173 5.7154508e-39
5.1899886 -0.72541648 -0.73898411 7.1124627e-39
5.1181021 -0.71467888 -0.7098977 7.4815858e-39
5.1899886 -0.7063266 -0.73898411 7.1985291e-39
5.1899886 -0.67769176 -0.73898411 6.552061e-39
5.1899886 -0.64905691 -0.73898411 5.3513613e-39
5.1899886 -0.59178716 -0.73898411 1.1440182e-38
5.0529308 -1.0377982 -0.66374403 4.7066266e-39
5.050499 -1.019266 -0.67268527 1.233981e-38
5.0529308 -0.9729358 -0.66374403 1.7463654e-39
5.1230383 -0.97798163 -0.69174969 8.1013548e-39
5.050499 -0.94513762 -0.67268527 9.6813118e-39
5.050499 -0.91733944 -0.67268521 1.1534968e-38
5.0529308 -0.88027525 -0.66374403 9.8783022e-39
5.050499 -0.85247713 -0.67268527 8.6743696e-39
5.050499 -0.82467896 -0.67268521 7.5691235e-39
5.050499 -0.79688078 -0.67268527 7.9364486e-39
5.0513096 -0.77217132 -0.66970491 6.8361939e-39
5.1230383 -0.76169717 -0.69174969 5.8148547e-39
5.0529308 -0.73201835 -0.66374403 5.6283447e-39
5.1230383 -0.73348624 -0.69174969 5.994951e-39
5.1230383 -0.70527518 -0.69174969 6.6518055e-39
5.1949992 -0.7063266 -0.72056341 7.2024625e-39
5.1230383 -0.67706418 -0.69174969 5.6311964e-39
5.1949992 -0.67769176 -0.72056341 5.8130737e-39
5.1230383 -0.64885318 -0.69174969 5.1705545e-39
5.1949992 -0.64905691 -0.72056341 4.9840039e-39
5.1949992 -0.6108771 -0.72056341 6.0615127e-39
5.1949992 -0.59178716 -0.72056341 1.1985454e-38
5.057795 -1.0563303 -0.64586157 3.7793706e-39
5.057795 -1.0377982 -0.64586157 2.0323298e-39
5.057795 -1.019266 -0.64586157 9.2667867e-40
5.1312652 -1.0093273 -0.6615029 3.0392174e-39
5.057795 -0.96366978 -0.64586157 7.8387557e-39
5.057795 -0.94513762 -0.64586157 1.2828167e-38
4.9870791 -0.91321105 -0.62771338 1.3097207e-38
5.057795 -0.90807343 -0.64586157 1.2363627e-38
5.057795 -0.88027525 -0.64586157 1.2175243e-38
5.057795 -0.85247713 -0.64586157 1.1347978e-38
5.057795 -0.82467896 -0.64586157 1.1067801e-38
5.057795 -0.79688078 -0.64586157 1.0513193e-38
5.057795 -0.77834868 -0.64586157 1.014583e-38
5.1329103 -0.76169717 -0.65545356 1.0054689e-38
5.1329103 -0.73348624 -0.65545356 8.3037472e-39
5.1296196 -0.70840979 -0.66755229 6.7378914e-39
5.1304421 -0.67706418 -0.66452765 5.1698539e-39
5.2050195 -0.66814679 -0.68372202 4.9868821e-39
5.2050195 -0.64905691 -0.68372202 4.7084904e-39
5.2050195 -0.62042201 -0.68372202 2.7655312e-39
5.0650907 -1.0563303 -0.61903787 4.8067774e-39
4.999063 -1.0319285 -0.58365351 4.4315251e-39
5.0650907 -1.0377982 -0.61903787 3.7865116e-39
4.999063 -1.0045321 -0.58365351 3.0546989e-39
5.0650907 -1.019266 -0.61903787 1.8454106e-39
5.1378465 -1.0061927 -0.63730556 2.299151e-39
5.0650907 -0.94513762 -0.61903787 1.1619533e-38
4.9942694 -0.91321105 -0.60127741 4.5230033e-39
5.0650907 -0.90807343 -0.61903787 6.4569857e-39
5.0650907 -0.88027525 -0.61903787 4.7051973e-39
5.0650907 -0.85247713 -0.61903787 3.0446278e-39
5.0650907 -0.82467902 -0.61903787 1.2925661e-39
5.0650907 -0.79688078 -0.61903787 1.5738319e-39
5.0650907 -0.77834868 -0.61903787 2.4903638e-39
5.1378465 -0.76169717 -0.63730556 4.6944157e-39
5.2150397 -0.73496145 -0.64688063 8.0213617e-39
5.2125349 -0.7063266 -0.65609097 7.7505888e-39
5.2133698 -0.67451006 -0.65302086 6.824678e-39
5.2125349 -0.64905691 -0.65609097 4.8932389e-39
5.2100296 -0.62996697 -0.66530138 2.1302525e-39
5.0038567 -1.0045321 -0.56602949 2.8602562e-39
5.1452503 -1.0061927 -0.61008358 1.8428658e-39
5.2200503 -0.99267524 -0.62845993 9.5976459e-39
5.07725 -0.94513762 -0.5743317 1.9451116e-39
5.1477184 -0.95917428 -0.60100949 5.6004014e-40
5.0748181 -0.91733944 -0.58327293 2.3085285e-39
5.0038567 -0.87668264 -0.56602949 2.0330066e-39
5.0740075 -0.8771866 -0.5862534 1.8478825e-39
5.0038567 -0.84015417 -0.56602949 1.66781e-39
5.0723863 -0.85247713 -0.59221417 1.3876358e-39
5.0748181 -0.82467902 -0.58327287 1.5709453e-39
5.0748181 -0.79688078 -0.58327293 1.2947465e-39
5.0748181 -0.76908267 -0.58327293 7.4262373e-40
5.1427822 -0.76169717 -0.61915755 9.2159616e-40
5.0756288 -0.735107 -0.58029252 8.330271e-40
5.1477184 -0.73348624 -0.60100949 7.3863703e-40
5.2200503 -0.73496145 -0.62845993 8.2906142e-40
5.07725 -0.70422018 -0.5743317 1.108507e-39
5.1477184 -0.71467888 -0.60100949 9.2304651e-40
5.2200503 -0.7063266 -0.62845993 3.2365342e-39
5.1477184 -0.67706418 -0.60100949 7.3756224e-40
5.2200503 -0.67769176 -0.62845993 6.3643641e-39
5.0086498 -1.0045321 -0.54840547 3.4155543e-39
5.0821142 -1.000734 -0.55644923 2.8627645e-39
5.1526546 -1.0061927 -0.58286142 1.2933046e-39
5.2250605 -0.99267524 -0.61003923 8.3121802e-40
5.0821142 -0.98220187 -0.55644923 2.2181153e-39
5.1551228 -0.97798163 -0.57378733 2.2137923e-39
5.0821142 -0.94513762 -0.55644923 3.973393e-39
5.0821142 -0.91733944 -0.55644923 2.4025458e-39
5.0086498 -0.87668264 -0.54840547 1.7575099e-39
5.0086498 -0.84928632 -0.54840547 2.5865265e-39
5.0086498 -0.82189 -0.54840547 3.3219462e-39
5.0086498 -0.80362576 -0.54840547 2.8620344e-39
5.0821142 -0.79688078 -0.55644923 3.5949513e-39
5.0821142 -0.76908261 -0.55644923 2.5847202e-39
5.0821142 -0.73201835 -0.55644923 1.1114119e-39
5.0821142 -0.70422018 -0.55644923 1.0188379e-39
5.1575909 -0.69587153 -0.56471336 9.2307594e-40
5.2275653 -0.7063266 -0.60082889 8.301222e-40
5.1551228 -0.67706418 -0.57378733 8.3013201e-40
5.2300706 -0.66814679 -0.59161842 3.7165518e-40
5.1575909 -0.65825689 -0.56471336 8.3193408e-40
5.2300706 -0.64905691 -0.59161842 9.3322274e-41
5.086978 -1.01 -0.53856683 2.4932575e-39
5.0894098 -0.9729358 -0.52962554 2.5865251e-39
5.0894098 -0.94513762 -0.52962554 3.5095506e-39
5.0894098 -0.91733944 -0.52962554 3.6932412e-39
5.0182371 -0.87668264 -0.51315755 2.7709234e-39
5.0885992 -0.8771866 -0.53260601 3.0460641e-39
5.0894098 -0.85247713 -0.52962554 2.5854237e-39
5.0182371 -0.82189 -0.51315755 3.5066948e-39
5.0885992 -0.82159024 -0.53260601 2.3099494e-39
5.0894098 -0.79688078 -0.52962554 2.1241415e-39
5.0894098 -0.76908267 -0.52962554 1.754975e-39
5.0894098 -0.73201835 -0.52962548 1.110323e-39
5.0894098 -0.70422018 -0.52962554 1.2957737e-39
5.1625266 -0.69587153 -0.54656535 1.4762399e-39
5.1625266 -0.67706418 -0.54656535 1.8435567e-39
5.1625266 -0.65825689 -0.54656535 1.934337e-39
5.237586 -0.64905691 -0.56398743 9.219549e-40
5.237586 -0.62996697 -0.56398743 5.4370016e-39
5.1699309 -1.0344037 -0.51934326 1.2994016e-39
5.1699309 -1.0155963 -0.51934326 1.9411725e-39
5.0967054 -0.9729358 -0.50280184 3.6907161e-39
5.0254273 -0.93147528 -0.48672163 3.8729227e-39
5.0278239 -0.91321105 -0.47790968 4.702731e-39
5.0967054 -0.91733944 -0.50280184 2.4993854e-39
5.026226 -0.88277072 -0.48378426 3.2322687e-39
5.0967054 -0.87100923 -0.50280184 1.8486378e-39
5.0278239 -0.85841841 -0.47790968 2.8624296e-39
5.0967054 -0.85247713 -0.50280184 1.8497126e-39
5.0230308 -0.82189 -0.49553365 2.2174315e-39
5.0967054 -0.81541288 -0.50280184 1.9379663e-39
5.0230308 -0.78536153 -0.49553365 1.845405e-39
5.0967054 -0.76908261 -0.50280184 1.4794755e-39
5.0967054 -0.73201835 -0.50280184 1.7549876e-39
5.0967054 -0.70422018 -0.50280184 2.0293815e-39
5.1674628 -0.69587153 -0.52841729 7.4260691e-40
5.0967054 -0.68568808 -0.50280184 1.1095846e-39
5.1699309 -0.67706418 -0.51934326 1.0159442e-39
5.1707535 -0.65198779 -0.51631862 7.4082026e-40
5.2451015 -0.64905691 -0.53635639 3.6987693e-40
5.2451015 -0.62042201 -0.53635639 1.858402e-40
5.2451015 -0.59178716 -0.53635639 1.0145345e-39
5.0374112 -1.0593249 -0.44266179 9.0398941e-39
5.0358133 -1.0349725 -0.4485364 6.8307989e-39
5.104001 -1.0377982 -0.47597823 3.7843915e-39
5.1048121 -1.0130887 -0.47299778 1.1114399e-39
5.1773348 -1.0061927 -0.49212122 2.3034951e-39
5.1048121 -0.96984714 -0.47299778 2.4921743e-39
5.0350142 -0.93147528 -0.45147374 3.4141404e-39
5.0350142 -0.91321105 -0.45147374 3.2322869e-39
5.0350142 -0.88581479 -0.45147368 2.7684319e-39
5.0350142 -0.84928632 -0.45147368 2.6783634e-39
5.1015692 -0.85247713 -0.48491943 2.5865517e-39
5.0350142 -0.82189 -0.45147374 2.125191e-39
5.1031904 -0.82159024 -0.47895861 2.218851e-39
5.0374112 -0.79449368 -0.44266179 1.754975e-39
5.104001 -0.79688078 -0.47597823 1.7567785e-39
5.1040015 -0.76908261 -0.47597817 1.6638668e-39
5.1040015 -0.73201835 -0.47597817 1.5705893e-39
5.104001 -0.70422018 -0.47597823 1.0184946e-39
5.1031904 -0.67951065 -0.47895861 9.2665765e-40
5.1773348 -0.64885318 -0.49212122 6.4754563e-40
5.2526169 -0.62042201 -0.50872535 6.4825328e-40
5.2526169 -0.59178716 -0.50872535 8.3264874e-40
5.0422049 -1.0319285 -0.42503783 5.6362018e-39
5.113729 -1.01 -0.44021335 2.0326703e-39
5.113729 -0.9729358 -0.44021335 2.2127021e-39
5.0422049 -0.93147528 -0.42503783 4.2438688e-39
4.9749994 -0.9001835 -0.40160191 2.862054e-39
5.0422049 -0.91321105 -0.42503783 4.2442458e-39
4.9726372 -0.88217986 -0.41028818 2.4950483e-39
5.0422049 -0.87668264 -0.42503783 3.2290331e-39
5.0422049 -0.84928632 -0.42503783 3.1386255e-39
5.0422049 -0.82189 -0.42503783 1.9443955e-39
5.0422049 -0.79449368 -0.42503783 2.3077844e-39
5.113729 -0.76908261 -0.44021335 1.4805391e-39
5.113729 -0.73201835 -0.44021335 1.1103272e-39
5.113729 -0.70422018 -0.44021335 1.477665e-39
5.113729 -0.68568808 -0.44021335 1.5695285e-39
5.1847391 -0.67706418 -0.46489918 1.2914801e-39
5.1847391 -0.64885318 -0.46489921 9.219619e-40
5.2601318 -0.62042201 -0.4810943 7.4116638e-40
5.2601318 -0.59178716 -0.4810943 1.0155841e-39
5.0485959 -1.0288845 -0.40153921 5.8116149e-39
5.0517917 -1.0045321 -0.38978994 2.8591968e-39
5.1210246 -1.01 -0.41338965 2.7727395e-39
5.0517917 -0.98626792 -0.38978994 2.4025066e-39
5.1210246 -0.98220187 -0.41338965 1.8378296e-39
5.0493951 -0.94060731 -0.39860189 2.4932491e-39
4.9828749 -0.90618473 -0.37264773 3.141145e-39
4.9820871 -0.88217986 -0.37554312 3.1364969e-39
5.0493951 -0.87668264 -0.39860189 2.4021549e-39
5.0493951 -0.84928632 -0.39860195 2.4939862e-39
5.0493951 -0.82189 -0.39860189 1.9419166e-39
5.0493951 -0.79449368 -0.39860195 1.5723788e-39
5.0493951 -0.76709729 -0.39860189 1.4816293e-39
5.0501938 -0.74274492 -0.3956646 1.4787412e-39
5.1210246 -0.73201835 -0.41338965 1.6617004e-39
5.1210246 -0.70422018 -0.41338965 1.199646e-39
5.1210246 -0.676422 -0.41338965 1.2000089e-39
5.192143 -0.67706418 -0.43767712 1.4769434e-39
5.1954341 -0.65198779 -0.42557847 6.4681415e-40
5.2701526 -0.64905691 -0.44425291 7.3899997e-40
5.2676473 -0.62042201 -0.45346329 9.2521432e-40
5.2651424 -0.59178716 -0.46267357 1.4754762e-39
5.1283202 -1.0563303 -0.38656595 6.5686188e-39
5.0589819 -1.0227964 -0.363354 2.5851308e-39
5.0589819 -1.0045321 -0.363354 2.2192126e-39
5.0589819 -0.97713578 -0.36335397 1.938674e-39
5.1258883 -0.98220187 -0.39550716 1.2965556e-39
5.0589819 -0.94973946 -0.363354 2.3989151e-39
4.9891753 -0.90918535 -0.34948432 2.9567524e-39
4.9891753 -0.88217986 -0.34948432 2.2177692e-39
5.0589819 -0.87668264 -0.363354 2.5833077e-39
5.0589819 -0.84928632 -0.36335397 2.4932883e-39
5.0589819 -0.82189 -0.363354 2.2159629e-39
5.0589819 -0.79449368 -0.363354 2.123403e-39
5.0589819 -0.76709729 -0.363354 1.7578645e-39
5.0589819 -0.748833 -0.363354 1.7542295e-39
5.1283202 -0.73201835 -0.38656595 1.475507e-39
5.0597811 -0.70621651 -0.36041665 9.2556464e-40
5.1283202 -0.70422018 -0.38656595 1.2043109e-39
5.0565853 -0.67577618 -0.37216598 1.2025103e-39
5.1275096 -0.67333335 -0.38954633 9.2665065e-40
5.2020154 -0.65825689 -0.40138108 8.3085648e-40
5.2751627 -0.6108771 -0.42583218 1.294343e-39
5.0661721 -1.0227964 -0.33691809 1.5734802e-39
5.0661721 -1.0045321 -0.33691809 2.4936569e-39
5.0661721 -0.97713578 -0.33691809 1.7528338e-39
5.0661721 -0.94060737 -0.33691809 2.5854713e-39
4.996263 -0.90918535 -0.3234255 2.6794634e-39
5.0661721 -0.88581473 -0.33691809 2.5861664e-39
5.0661721 -0.84928632 -0.33691809 1.9426159e-39
5.0661721 -0.82189 -0.33691809 1.2064661e-39
5.0661721 -0.79449368 -0.33691809 1.3887288e-39
5.0661721 -0.76709729 -0.33691809 1.2014453e-39
5.0661721 -0.748833 -0.33691809 1.2031983e-39
5.1380482 -0.74128437 -0.35080108 1.2950618e-39
5.0661721 -0.71230459 -0.33691809 1.7563665e-39
5.14048 -0.70422018 -0.34185988 1.8503796e-39
5.1372375 -0.67951077 -0.35378152 1.1088769e-39
5.2102423 -0.65198779 -0.37113425 8.322802e-40
5.2826781 -0.64905691 -0.39820123 8.3050336e-40
5.2118874 -0.60183489 -0.36508504 1.2028942e-39
5.14048 -0.59302753 -0.34185988 6.4791277e-40
5.005713 -1.0262091 -0.28868037 1.0544936e-38
5.0709658 -1.0319285 -0.31929407 6.6529055e-39
5.0065007 -1.0022043 -0.28578493 2.6669358e-39
5.0757594 -1.0045321 -0.30167013 2.5872916e-39
5.1453438 -1.01 -0.32397738 3.2297589e-39
5.0709658 -0.96800369 -0.31929407 1.3847477e-39
5.0741615 -0.94365138 -0.30754474 2.0337325e-39
5.0033503 -0.9001835 -0.29736677 2.5872678e-39
5.0709658 -0.91321105 -0.31929407 2.124496e-39
5.005713 -0.88217986 -0.28868037 2.2184839e-39
5.0725636 -0.88277072 -0.31341934 1.9411725e-39
5.0733624 -0.84928632 -0.31048205 1.7574987e-39
5.0733624 -0.82189 -0.31048205 1.7564071e-39
5.0733624 -0.79449368 -0.31048217 2.0315633e-39
5.0733624 -0.76709729 -0.31048205 1.2957933e-39
5.0733624 -0.73970091 -0.31048205 1.3854694e-39
5.0741615 -0.70621651 -0.30754474 1.0188505e-39
5.1453438 -0.70422018 -0.32397738 1.3858239e-39
5.1453438 -0.68568808 -0.32397738 7.4009158e-40
5.2168236 -0.67706418 -0.34693694 2.208033e-39
5.2168236 -0.64885318 -0.34693694 1.3804317e-39
5.1453438 -0.61155963 -0.32397738 1.0180938e-39
5.2168236 -0.62064219 -0.34693694 1.1070748e-39
5.2901936 -0.62996697 -0.37057012 1.7531631e-39
5.1453438 -0.58376145 -0.32397738 1.20069e-39
5.0128007 -0.99920368 -0.26262164 2.949645e-39
5.1502075 -1.000734 -0.30609488 2.3085187e-39
4.9479799 -0.97647703 -0.24184969 1.948329e-39
5.0829496 -0.97713578 -0.27523422 2.308883e-39
5.1502075 -0.98220187 -0.30609488 1.659185e-39
5.0829496 -0.94060731 -0.27523422 3.5974513e-39
5.0128007 -0.9001835 -0.26262164 3.2326582e-39
5.0805531 -0.91321105 -0.28404611 3.0464733e-39
5.0128007 -0.88217986 -0.26262164 2.7702255e-39
5.0805531 -0.87668264 -0.28404611 2.403573e-39
5.0128007 -0.8551743 -0.26262164 3.1375437e-39
5.0821509 -0.84624225 -0.27817151 1.8493314e-39
5.0829496 -0.82189 -0.27523422 2.3092095e-39
5.0829496 -0.79449368 -0.27523422 1.939348e-39
5.0829496 -0.76709729 -0.27523422 2.2152315e-39
5.0829496 -0.73970091 -0.27523422 1.7567799e-39
5.0821509 -0.70621651 -0.27817151 1.297587e-39
5.1526394 -0.676422 -0.29715368 1.0166967e-39
5.2217593 -0.67706418 -0.32878897 8.3301589e-40
5.3002138 -0.66814679 -0.33372879 1.1052826e-39
5.2242274 -0.63944954 -0.3197149 8.3049775e-40
5.2266955 -0.61123854 -0.31064096 7.4187964e-40
5.0198884 -0.97219819 -0.23656277 3.2272632e-39
5.0198884 -0.95419449 -0.23656277 2.6726503e-39
5.0901399 -0.94060737 -0.24879818 3.4127069e-39
5.0175261 -0.9001835 -0.24524906 3.4163054e-39
5.0175261 -0.88217986 -0.24524906 2.4965001e-39
5.0175261 -0.8551743 -0.24524906 2.1248379e-39
5.0901399 -0.84015417 -0.24879818 1.6616891e-39
5.0901399 -0.82189 -0.24879818 2.1219526e-39
5.0901399 -0.79449368 -0.24879818 1.5705613e-39
5.0222511 -0.76515603 -0.22787648 1.4812804e-39
5.0901399 -0.76709729 -0.24879818 1.3858548e-39
5.0901399 -0.73970091 -0.24879818 1.3876302e-39
5.0901399 -0.70317245 -0.24879818 1.3897812e-39
5.1599355 -0.70422018 -0.27032998 3.7493002e-40
5.0901399 -0.67577618 -0.24879818 1.2986309e-39
5.1599355 -0.676422 -0.27032998 1.2936339e-39
5.3052239 -0.66814679 -0.31530806 9.219563e-40
5.2340999 -0.64885318 -0.2834188 9.2340244e-40
5.0901399 -0.60271931 -0.24879818 1.0159582e-39
5.0222511 -0.5941211 -0.22787648 1.476579e-39
5.0997272 -0.97713578 -0.21355036 2.9488855e-39
5.0973301 -0.94060731 -0.22236225 3.5974793e-39
5.0269761 -0.9001835 -0.21050392 3.6039295e-39
5.0949335 -0.91321105 -0.23117426 3.2297645e-39
5.0965314 -0.8888588 -0.22529967 2.7705773e-39
5.0293388 -0.86417615 -0.20181775 2.492554e-39
5.0973301 -0.84928632 -0.22236237 2.492526e-39
5.0973301 -0.82189 -0.22236237 2.950986e-39
5.0981293 -0.79753762 -0.21942507 1.9404537e-39
5.0997272 -0.76709729 -0.21355036 1.8486378e-39
5.0973301 -0.73970091 -0.22236237 1.6627906e-39
5.0981293 -0.70621651 -0.21942507 2.0283431e-39
5.169663 -0.70422018 -0.23456499 1.662778e-39
5.0973301 -0.67577618 -0.22236237 1.4794503e-39
5.1672311 -0.66715598 -0.2435063 1.7517464e-39
5.1672311 -0.63935781 -0.2435063 1.1088783e-39
5.0269761 -0.5941211 -0.21050392 1.1106762e-39
5.1793909 -1.000734 -0.1988001 3.5981575e-39
5.1045203 -0.96800369 -0.19592632 3.8711599e-39
5.1069174 -0.94060737 -0.18711431 3.1368374e-39
5.1069174 -0.91321105 -0.18711431 3.2308618e-39
5.0364265 -0.88217986 -0.17575888 2.6787544e-39
5.1045203 -0.89494681 -0.19592632 3.5059955e-39
5.0364265 -0.86417615 -0.17575888 1.5720537e-39
5.1061182 -0.85233039 -0.19005173 2.3095557e-39
5.1045203 -0.82189 -0.19592632 2.0362268e-39
5.1069174 -0.79449368 -0.18711431 2.1262897e-39
5.1069174 -0.76709729 -0.18711431 1.478765e-39
5.1069174 -0.73970091 -0.18711431 1.4798314e-39
5.1069174 -0.70317245 -0.18711431 1.7546135e-39
5.1777697 -0.67333335 -0.20476098 1.843914e-39
5.176959 -0.63935781 -0.20774131 1.3861981e-39
5.1842546 -1.01 -0.18091772 3.0410195e-39
5.1842546 -0.98220187 -0.18091772 3.0489508e-39
5.1141076 -0.94973946 -0.16067851 3.1397045e-39
5.0411515 -0.9001835 -0.15838632 2.6790977e-39
5.0411515 -0.88217986 -0.15838632 2.5862e-39
5.0411515 -0.86417615 -0.15838632 3.5931591e-39
5.1141076 -0.84928632 -0.16067851 3.4137606e-39
5.1842546 -0.85247713 -0.18091772 2.4903792e-39
5.1842546 -0.83394504 -0.18091772 2.8605897e-39
5.1141076 -0.79449368 -0.16067851 3.7012048e-39
5.1141076 -0.76709729 -0.16067851 1.4762371e-39
5.1141076 -0.748833 -0.16067851 1.8475139e-39
5.1842546 -0.676422 -0.18091772 1.7538862e-39
5.1842546 -0.64862388 -0.18091772 1.2929347e-39
5.1891184 -1.000734 -0.16303521 3.0486019e-39
5.1891184 -0.98220187 -0.16303521 3.324809e-39
5.1189013 -0.93147528 -0.14305447 1.8536138e-39
5.1891184 -0.94513762 -0.16303521 3.0489032e-39
5.1189013 -0.91321105 -0.14305447 2.3117641e-39
5.1212978 -0.88581479 -0.13424246 2.4021563e-39
5.1212978 -0.85841841 -0.13424246 1.8485859e-39
5.1939821 -0.85247713 -0.14515284 1.2104472e-39
5.1915503 -0.83394504 -0.15409403 4.6976373e-39
5.1189013 -0.79449368 -0.14305447 7.7531322e-39
5.1189013 -0.76709729 -0.14305447 7.3937552e-40
5.1189013 -0.748833 -0.14305447 1.2014187e-39
5.1915503 -0.73201835 -0.15409403 1.6649051e-39
5.1915503 -0.70422018 -0.15409403 1.8461056e-39
5.1915503 -0.676422 -0.15409403 1.6609843e-39
5.1907396 -0.64244652 -0.15707447 1.5705781e-39
5.1284881 -0.84928632 -0.10780653 2.9488182e-39
5.1988459 -0.85247713 -0.12727034 2.761927e-39
5.1284881 -0.82189 -0.10780653 1.1344046e-38
5.1988459 -0.82467896 -0.12727034 1.1335745e-38
4.9300027 -0.78787154 -0.052660927 1.0501335e-38
5.1988459 -0.79688078 -0.12727034 7.6687726e-39
4.9300027 -0.7616092 -0.052660927 7.1808559e-39
4.994576 -0.7634275 -0.070532255 8.2946976e-39
5.1988459 -0.76908261 -0.12727034 1.383289e-39
4.9300027 -0.73534679 -0.052660927 4.7145636e-39
5.0695024 -0.84617251 -0.054151122 1.5220164e-38
5.1332817 -0.84928632 -0.090182625 7.6465158e-39
4.9992361 -0.81668991 -0.053400446 1.3182539e-38
5.0647774 -0.81916702 -0.071523696 1.5766862e-38
5.1332817 -0.82189 -0.090182625 1.4384687e-38
5.2037101 -0.81541288 -0.10938784 1.226776e-38
4.9368954 -0.78787154 -0.027319171 1.0796268e-38
5.0647774 -0.79216152 -0.071523696 1.106385e-38
5.1332817 -0.79449368 -0.090182625 1.0141518e-38
5.2037101 -0.79688078 -0.10938784 7.0104678e-39
4.9361296 -0.76452726 -0.030134998 6.6377084e-39
5.2037101 -0.76908261 -0.10938784 1.5666237e-39
5.2760563 -0.75229353 -0.12916048 1.57092e-39
4.9368954 -0.73534679 -0.027319171 4.8920941e-39
5.2760563 -0.73348624 -0.12916048 2.1197974e-39
5.2760563 -0.70527518 -0.12916048 1.8468133e-39
5.2760563 -0.67706418 -0.12916048 1.5684439e-39
5.1476622 -0.87668264 -0.037310772 1.3268307e-38
5.0789528 -0.84617251 -0.01940598 1.2717271e-38
5.1476622 -0.85841841 -0.037310772 1.4203149e-38
4.8832331 -0.82894677 0.023045927 1.5667859e-38
4.9483833 -0.82288808 0.014917091 1.5119348e-38
5.0108848 -0.82556701 -0.010571085 1.4472178e-38
5.0742278 -0.82816887 -0.036778666 1.013618e-38
5.0132146 -0.79005873 -0.0020052367 1.0044275e-38
5.0108848 -0.7634275 -0.010571085 7.3752903e-39
5.0132146 -0.74567342 -0.0020052367 4.6126948e-39
4.955276 -0.82288808 0.040258851 1.7053308e-38
5.0225339 -0.81668991 0.032258157 1.53041e-38
5.0836778 -0.82816887 -0.0020335242 1.4376767e-38
5.0899782 -0.8161664 0.021129904 1.1247539e-38
5.1620426 -0.79449368 0.015561194 8.2943753e-39
5.1620426 -0.76709729 0.015561194 8.1993056e-39
5.1716299 -0.84015417 0.050809018 1.6860957e-38
5.1716299 -0.82189 0.050809018 1.2823477e-38
5.1668363 -0.79449368 0.03318499 8.5663015e-39
5.2426205 -0.77834868 0.033671707 7.4696425e-39
5.1764235 -0.84015417 0.068432927 1.2709609e-38
5.2474842 -0.81541288 0.05155421 8.7477794e-39
5.2474842 -0.79688078 0.05155421 9.9510128e-39
5.2474842 -0.77834868 0.05155421 7.2913651e-39
