# .PCD v0.7 - Point Cloud Data file format
VERSION 0.7
FIELDS x y z rgb
SIZE 4 4 4 4
TYPE F F F F
COUNT 1 1 1 1
WIDTH 1026
HEIGHT 1
VIEWPOINT 0 0 0 1 0 0 0
POINTS 1026
DATA ascii
6.4084578 -3.6727176 -1.2407912 1.8439126e-40
6.3951931 -3.6364303 -1.247354 3.6878252e-40
6.3857255 -3.5968046 -1.2473776 4.6097815e-40
6.3677449 -3.561053 -1.2610595 3.6878252e-40
6.3476062 -3.5662639 -1.2610595 3.6878252e-40
6.3195438 -3.5740685 -1.2637827 3.6878252e-40
6.3079638 -3.5323865 -1.2613071 3.6878252e-40
6.3006163 -3.578423 -1.2610594 3.6878252e-40
6.5462508 -3.7470238 -1.1960838 4.6097815e-40
6.5426559 -3.7076564 -1.1891987 5.5317378e-40
6.5207462 -3.7523496 -1.1896952 4.6097815e-40
6.498651 -3.7935297 -1.1776172 3.6878252e-40
6.4829521 -3.7621288 -1.1896954 5.5317378e-40
6.4706635 -3.7665827 -1.1960838 3.6878252e-40
6.4600711 -3.7296696 -1.1924262 3.6878252e-40
6.4413943 -3.696831 -1.2039855 3.6878252e-40
6.4198632 -3.6631932 -1.2078311 4.6097815e-40
6.4238214 -3.6996436 -1.1952873 5.5317378e-40
6.4026628 -3.6291826 -1.220705 3.6878252e-40
6.3913884 -3.59131 -1.2271745 3.6878252e-40
6.3728113 -3.552953 -1.2270184 3.6878252e-40
6.3459597 -3.559901 -1.2270184 3.6878252e-40
6.3169804 -3.5678523 -1.2292877 4.6097815e-40
6.3023291 -3.5292685 -1.2383609 3.6878252e-40
6.5503869 -3.7370353 -1.1513647 5.5317378e-40
6.5192013 -3.7463789 -1.157753 4.6097815e-40
6.4977336 -3.7899837 -1.1586463 4.6097815e-40
6.4863229 -3.7543766 -1.1551977 4.6097815e-40
6.4650311 -3.7225931 -1.1633784 3.6878252e-40
6.4421711 -3.6909921 -1.1757168 2.7658689e-40
6.4182687 -3.6570323 -1.1748711 5.5317378e-40
6.3852243 -3.5857422 -1.1912581 4.6097815e-40
6.3778777 -3.5448532 -1.1929774 3.6878252e-40
6.3446426 -3.5548105 -1.1997856 4.6097815e-40
6.3110785 -3.5634959 -1.1997856 3.6878252e-40
6.3056335 -3.5233796 -1.21312 4.6097815e-40
6.2722664 -3.4881113 -1.2198106 3.6878252e-40
6.5536842 -3.7662582 -1.1122735 9.219563e-40
6.5431609 -3.7350824 -1.1321994 5.5317378e-40
6.5287442 -3.7727115 -1.1122735 3.6878252e-40
6.5116663 -3.743232 -1.1321994 5.5317378e-40
6.4952869 -3.7805278 -1.1080577 3.6878252e-40
6.4864702 -3.7497516 -1.1321994 2.7658689e-40
6.4672647 -3.7534473 -1.125811 3.6878252e-40
6.4510527 -3.7210608 -1.137558 3.6878252e-40
6.4341617 -3.6865597 -1.143099 3.6878252e-40
6.4169936 -3.6521034 -1.1485029 3.6878252e-40
6.3947711 -3.577004 -1.1598312 6.4536941e-40
6.3701768 -3.5427723 -1.1725528 4.6097815e-40
6.3433256 -3.5497203 -1.1725528 4.6097815e-40
6.309761 -3.5584054 -1.1725528 4.6097815e-40
6.3043013 -3.5182326 -1.1855845 3.6878252e-40
6.2768188 -3.5239711 -1.1787007 5.5317378e-40
6.5504847 -3.7624617 -1.089087 5.5317378e-40
6.5255442 -3.7689152 -1.089087 4.6097815e-40
6.4943695 -3.7769818 -1.089087 4.6097815e-40
6.4660287 -3.7486708 -1.1002573 3.6878252e-40
6.4494915 -3.7150276 -1.1052824 5.5317378e-40
6.4325838 -3.6804628 -1.1104811 3.6878252e-40
6.4157181 -3.6471748 -1.1221349 3.6878252e-40
6.3934684 -3.571969 -1.1328938 3.6878252e-40
6.3688598 -3.5376821 -1.1453199 3.6878252e-40
6.3441362 -3.5436268 -1.1430506 2.7658689e-40
6.3304524 -3.5073471 -1.164933 3.6878252e-40
6.308444 -3.5533152 -1.1453199 2.7658689e-40
6.3095908 -3.5106859 -1.1546072 2.7658689e-40
6.2859583 -3.5586808 -1.1430506 2.7658689e-40
6.543026 -3.759347 -1.0637927 4.6097815e-40
6.5243211 -3.7641871 -1.0637927 5.5317378e-40
6.4931459 -3.7722538 -1.0637927 4.6097815e-40
6.4678998 -3.7775254 -1.0574691 3.6878252e-40
6.4560847 -3.7448733 -1.068315 5.5317378e-40
6.4348893 -3.711082 -1.0665519 3.6878252e-40
6.4316373 -3.6768048 -1.0909106 2.7658689e-40
6.414443 -3.642246 -1.0957669 3.6878252e-40
6.3965402 -3.6055217 -1.0941217 4.6097815e-40
6.3675427 -3.5325918 -1.1180871 3.6878252e-40
6.3406911 -3.5395398 -1.1180872 3.6878252e-40
6.307127 -3.5482249 -1.1180872 2.7658689e-40
6.3145471 -3.5018525 -1.1167458 2.7658689e-40
6.2862506 -3.5956831 -1.1126908 2.7658689e-40
6.2891159 -3.5524325 -1.1158177 2.7658689e-40
6.5567331 -3.7855113 -1.028143 4.6097815e-40
6.5421085 -3.755801 -1.044822 9.219563e-40
6.5379114 -3.7891326 -1.0218825 4.6097815e-40
6.5198269 -3.7596748 -1.0353366 5.5317378e-40
6.4916167 -3.7663438 -1.0321748 4.6097815e-40
6.4615664 -3.7736154 -1.0296454 4.6097815e-40
6.4377427 -3.7432492 -1.0363729 2.7658689e-40
6.4171953 -3.6740365 -1.0582927 3.6878252e-40
6.3995304 -3.6382167 -1.0562147 3.6878252e-40
6.3709426 -3.5670531 -1.0790191 2.7658689e-40
6.3390446 -3.5331767 -1.0840461 2.7658689e-40
6.3054805 -3.5418618 -1.0840461 1.8439126e-40
6.3132153 -3.4967058 -1.0892103 2.7658689e-40
6.2853417 -3.5470726 -1.084046 1.8439126e-40
6.5552187 -3.7796602 -0.99684036 5.5317378e-40
6.5396614 -3.746345 -0.99423337 4.6097815e-40
6.5391617 -3.7854798 -1.0051877 5.5317378e-40
6.5212626 -3.7523673 -1.0005569 6.4536941e-40
6.505836 -3.792438 -0.99684036 3.6878252e-40
6.4899344 -3.7598429 -0.9973951 7.3756504e-40
6.4811449 -3.7988272 -0.99684036 3.6878252e-40
6.4589124 -3.7685008 -1.0005569 3.6878252e-40
6.4365067 -3.7384727 -1.0108191 5.5317378e-40
6.419662 -3.7047231 -1.0149112 4.6097815e-40
6.4095011 -3.6708236 -1.0321985 3.6878252e-40
6.3811464 -3.600204 -1.0474857 3.6878252e-40
6.3696394 -3.5620182 -1.0520817 3.6878252e-40
6.3578658 -3.5228755 -1.0568132 4.6097815e-40
6.3373981 -3.5268137 -1.050005 1.8439126e-40
6.3081994 -3.5339167 -1.0477356 1.8439126e-40
6.3122163 -3.4928455 -1.0685587 2.7658689e-40
6.2836952 -3.5407097 -1.0500051 1.8439126e-40
6.538744 -3.742799 -0.97526264 5.5317378e-40
6.5483432 -3.7031639 -0.97887695 4.6097815e-40
6.5200391 -3.7476392 -0.97526264 3.6878252e-40
6.5046248 -3.7877574 -0.9717983 4.6097815e-40
6.4929185 -3.7542365 -0.97315472 3.6878252e-40
6.4672852 -3.7961705 -0.96553785 5.5317378e-40
6.4347253 -3.7692945 -0.97315472 3.6878252e-40
6.4163737 -3.7385857 -0.98526537 4.6097815e-40
6.4063082 -3.7056038 -1.0020009 4.6097815e-40
6.3836617 -3.630491 -0.99688661 3.6878252e-40
6.379858 -3.5952229 -1.0208367 5.5317378e-40
6.3616967 -3.558701 -1.0251443 3.6878252e-40
6.336081 -3.5217235 -1.0227722 1.8439126e-40
6.3082509 -3.5711875 -1.01841 1.8439126e-40
6.3113575 -3.5276685 -1.0205028 1.8439126e-40
6.2823782 -3.5356195 -1.0227722 1.8439126e-40
6.2619104 -3.5395579 -1.015964 3.6878252e-40
6.5420804 -3.735126 -0.94111532 1.0141519e-39
6.5477252 -3.7007756 -0.96610004 3.6878252e-40
6.5185099 -3.7417293 -0.94364476 8.2976067e-40
6.4910679 -3.7862709 -0.94675618 3.6878252e-40
6.4966874 -3.747376 -0.94364476 3.6878252e-40
6.466074 -3.7914896 -0.94049573 3.6878252e-40
6.4371662 -3.7985539 -0.93840885 3.6878252e-40
6.4255962 -3.7682934 -0.95629191 3.6878252e-40
6.4128203 -3.7703381 -0.94996834 3.6878252e-40
6.3953142 -3.7351167 -0.94054633 3.6878252e-40
6.3850288 -3.7020986 -0.9568153 3.6878252e-40
6.3585396 -3.5940955 -0.98752522 3.6878252e-40
6.3328567 -3.556762 -0.97800392 2.7658689e-40
6.3283801 -3.5196426 -1.0023476 2.7658689e-40
6.3079123 -3.523581 -0.99553937 2.7658689e-40
6.2810612 -3.530529 -0.99553937 1.8439126e-40
6.2609224 -3.5357401 -0.99553937 2.7658689e-40
6.5259857 -3.768496 -0.90293252 9.219563e-40
6.5232158 -3.7342057 -0.91202682 5.5317378e-40
6.4940681 -3.777504 -0.90668887 3.6878252e-40
6.46456 -3.7856386 -0.9091931 5.5317378e-40
6.4336958 -3.7936249 -0.9091931 2.7658689e-40
6.4151773 -3.7984171 -0.90919304 4.6097815e-40
6.3985152 -3.7664728 -0.91202682 3.6878252e-40
6.3817892 -3.7347944 -0.921381 3.6878252e-40
6.3600583 -3.6654027 -0.94086874 2.7658689e-40
6.341475 -3.6282599 -0.93096644 1.8439126e-40
6.3372216 -3.5929685 -0.95421386 1.8439126e-40
6.3096375 -3.5582933 -0.95555609 1.8439126e-40
6.3136373 -3.5180266 -0.97511476 2.7658689e-40
6.2875042 -3.5640206 -0.95555609 1.8439126e-40
6.2733603 -3.5284486 -0.97511476 1.8439126e-40
6.2651534 -3.5689087 -0.95106655 2.7658689e-40
6.2599344 -3.5319226 -0.97511476 1.8439126e-40
6.5247135 -3.763581 -0.87663835 3.6878252e-40
6.5222979 -3.7306597 -0.89305609 4.6097815e-40
6.4939098 -3.7718012 -0.87789041 3.6878252e-40
6.4783711 -3.809643 -0.86285096 4.6097815e-40
6.4606371 -3.7806606 -0.87914252 3.6878252e-40
6.4321814 -3.7877738 -0.87789041 6.4536941e-40
6.4136629 -3.7925656 -0.87789041 3.6878252e-40
6.3972917 -3.7617447 -0.88673252 5.5317378e-40
6.3808622 -3.7312119 -0.90221566 4.6097815e-40
6.3755417 -3.6916792 -0.89226431 3.6878252e-40
6.3584809 -3.6593058 -0.90825099 3.6878252e-40
6.3405185 -3.6245632 -0.91119039 1.8439126e-40
6.3093348 -3.5935409 -0.92090249 2.7658689e-40
6.3172965 -3.5513871 -0.93086356 2.7658689e-40
6.2896276 -3.5986404 -0.92090249 2.7658689e-40
6.2633519 -3.6054394 -0.92090249 1.8439126e-40
6.5359087 -3.7559397 -0.85284835 5.5317378e-40
6.5142279 -3.7251813 -0.85511464 4.6097815e-40
6.4926987 -3.7671206 -0.85284835 4.6097815e-40
6.4699712 -3.7341106 -0.84246749 1.1985432e-39
6.461895 -3.775341 -0.85410047 4.6097815e-40
6.4535484 -3.7392008 -0.8466832 3.6878252e-40
6.4309702 -3.7830932 -0.85284835 4.6097815e-40
6.4124517 -3.787885 -0.85284835 7.3756504e-40
6.3957624 -3.7558351 -0.85511464 5.5317378e-40
6.3786993 -3.7228532 -0.85749662 3.6878252e-40
6.3572187 -3.6544282 -0.88215673 3.6878252e-40
6.3612514 -3.6889405 -0.85998887 2.7658689e-40
6.3389244 -3.6184025 -0.87823033 3.6878252e-40
6.3169117 -3.5867083 -0.89647412 2.7658689e-40
6.3159933 -3.5463517 -0.90392613 2.7658689e-40
6.2949076 -3.5919592 -0.89425337 2.7658689e-40
6.2761536 -3.5566607 -0.90392613 2.7658689e-40
6.258338 -3.5608227 -0.90168136 1.8439126e-40
6.2438745 -3.5252156 -0.92064911 2.7658689e-40
6.2359877 -3.565711 -0.89719182 2.7658689e-40
6.5461349 -3.7445536 -0.80902469 1.5673257e-39
6.5236397 -3.7521579 -0.81796837 6.4536941e-40
6.4911847 -3.7612691 -0.82154578 3.6878252e-40
6.4693594 -3.7317467 -0.82982028 3.6878252e-40
6.4597149 -3.7669156 -0.80902469 6.4536941e-40
6.4506545 -3.7365868 -0.82982028 3.6878252e-40
6.4294562 -3.7772417 -0.82154578 6.4536941e-40
6.4058785 -3.7828436 -0.81904149 3.6878252e-40
6.3774633 -3.7180765 -0.83194286 3.6878252e-40
6.3556409 -3.6483314 -0.84953898 3.6878252e-40
6.3379679 -3.6147058 -0.85845429 2.7658689e-40
6.3064346 -3.5823331 -0.86094201 3.6878252e-40
6.3112078 -3.5415466 -0.87362164 1.8439126e-40
6.2867274 -3.5874326 -0.86094201 2.7658689e-40
6.2818165 -3.5511665 -0.88372314 1.8439126e-40
6.2604518 -3.5942316 -0.86094201 1.8439126e-40
6.2552562 -3.5580392 -0.88372314 2.7658689e-40
6.2346849 -3.5606759 -0.87025446 2.7658689e-40
6.5452266 -3.7410431 -0.79024309 4.6097815e-40
6.520535 -3.747432 -0.79024315 6.4536941e-40
6.4896708 -3.7554185 -0.79024309 5.5317378e-40
6.4588065 -3.7634046 -0.79024315 5.5317378e-40
6.4378104 -3.8040705 -0.78228384 4.6097815e-40
6.4220724 -3.7741587 -0.7965036 4.6097815e-40
6.4252892 -3.8060746 -0.77608639 4.6097815e-40
6.4032512 -3.7777803 -0.79024309 7.3756504e-40
6.3762274 -3.7133 -0.80638915 4.6097815e-40
6.3543787 -3.6434538 -0.82344472 3.6878252e-40
6.3320408 -3.6096666 -0.82549417 1.8439126e-40
6.3120365 -3.5768974 -0.84095514 1.8439126e-40
6.3035564 -3.6157219 -0.81890219 1.8439126e-40
6.2823153 -3.5839236 -0.83762401 2.7658689e-40
6.2598071 -3.5917408 -0.84761739 2.7658689e-40
6.2529759 -3.5492275 -0.83658272 1.8439126e-40
6.2330561 -3.5543818 -0.83658272 1.8439126e-40
6.5463037 -3.7698171 -0.75129652 8.2976067e-40
6.5443182 -3.7375324 -0.77146155 4.6097815e-40
6.5340824 -3.7729795 -0.75129652 4.6097815e-40
6.5169153 -3.743624 -0.76645309 5.5317378e-40
6.4884596 -3.7507374 -0.76520103 6.4536941e-40
6.4600039 -3.7578506 -0.76394892 5.5317378e-40
6.4430218 -3.7990141 -0.76369148 5.5317378e-40
6.4264283 -3.7655399 -0.75894052 1.1985432e-39
6.4246898 -3.8037577 -0.76369148 4.6097815e-40
6.40204 -3.7730992 -0.76520103 4.6097815e-40
6.384634 -3.7385361 -0.75393736 3.6878252e-40
6.3749914 -3.7085235 -0.78083539 1.5673257e-39
6.3617754 -3.7093949 -0.76805854 9.219563e-40
6.358129 -3.6768746 -0.79543787 6.4536941e-40
6.3399367 -3.6406858 -0.79082698 2.7658689e-40
6.3217802 -3.6057479 -0.79253411 1.8439126e-40
6.3022809 -3.6107934 -0.79253411 1.8439126e-40
6.2772584 -3.5779245 -0.80098146 1.8439126e-40
6.2572293 -3.5817783 -0.79431921 1.8439126e-40
6.2519989 -3.5454514 -0.81637973 2.7658689e-40
6.2258387 -3.5108736 -0.82533419 2.7658689e-40
6.2314277 -3.5480881 -0.80291104 1.8439126e-40
6.5431066 -3.7328513 -0.74641943 3.6878252e-40
6.5261731 -3.7676101 -0.71411175 6.4536941e-40
6.5162191 -3.738025 -0.73747587 9.219563e-40
6.4869456 -3.7448862 -0.73389846 4.6097815e-40
6.4592557 -3.7861614 -0.7203092 1.2907388e-39
6.4612617 -3.7525311 -0.7389068 6.4536941e-40
6.4470344 -3.7893238 -0.7203092 5.5317378e-40
6.4252172 -3.7608588 -0.73389846 3.6878252e-40
6.4016395 -3.7664607 -0.73139417 8.2976067e-40
6.3774815 -3.7366037 -0.73496664 4.6097815e-40
6.3605394 -3.7046185 -0.74250478 3.6878252e-40
6.3383594 -3.634589 -0.75820917 2.7658689e-40
6.3205047 -3.6008193 -0.76616603 1.8439126e-40
6.3010058 -3.6058648 -0.76616603 1.8439126e-40
6.2762918 -3.5741885 -0.78099465 2.7658689e-40
6.281188 -3.609678 -0.75957406 2.7658689e-40
6.2562628 -3.5780425 -0.77433234 1.8439126e-40
6.2365556 -3.5831418 -0.77433234 2.7658689e-40
6.5337529 -3.7951145 -0.68250877 3.6878252e-40
6.5233369 -3.7650483 -0.69758511 4.6097815e-40
6.5039501 -3.7342436 -0.70259577 4.6097815e-40
6.4854317 -3.7390354 -0.70259577 5.5317378e-40
6.4580564 -3.7815278 -0.69551933 5.5317378e-40
6.4587836 -3.7463472 -0.70468259 4.6097815e-40
6.4455357 -3.7835317 -0.68932188 3.6878252e-40
6.4237032 -3.755008 -0.70259577 5.5317378e-40
6.3990116 -3.7613971 -0.70259577 5.5317378e-40
6.3762579 -3.7318757 -0.70967227 3.6878252e-40
6.3596129 -3.7010362 -0.72333944 4.6097815e-40
6.3543825 -3.6623957 -0.71797675 4.6097815e-40
6.3370972 -3.6297114 -0.73211497 2.7658689e-40
6.3192296 -3.5958905 -0.73979801 1.8439126e-40
6.3110528 -3.6351492 -0.72559142 2.7658689e-40
6.2976704 -3.6019077 -0.74199528 1.8439126e-40
6.2853241 -3.6418068 -0.72559142 2.7658689e-40
6.2671256 -3.6089349 -0.73760062 1.8439126e-40
6.2552958 -3.5743065 -0.75434554 2.7658689e-40
6.2349443 -3.576915 -0.74102098 2.7658689e-40
6.2294731 -3.5405354 -0.76250499 2.7658689e-40
6.542707 -3.7559159 -0.67692691 4.6097815e-40
6.5394731 -3.7188089 -0.67129314 4.6097815e-40
6.524375 -3.7606595 -0.67692691 4.6097815e-40
6.511847 -3.7265816 -0.6744234 6.4536941e-40
6.4842205 -3.7343545 -0.67755365 7.3756504e-40
6.4565578 -3.7757356 -0.66453201 4.6097815e-40
6.4616876 -3.7406013 -0.67964053 1.0141519e-39
6.4404626 -3.7807248 -0.66866356 3.6878252e-40
6.4227948 -3.7514975 -0.68381423 3.6878252e-40
6.4198937 -3.7852228 -0.66453201 3.6878252e-40
6.3978004 -3.7567163 -0.67755365 4.6097815e-40
6.3706656 -3.6918056 -0.69139731 6.4536941e-40
6.353446 -3.6587758 -0.6986115 5.5317378e-40
6.335835 -3.6248338 -0.70602071 6.4536941e-40
6.3179541 -3.5909619 -0.71342993 1.8439126e-40
6.3036742 -3.6331556 -0.70602071 1.8439126e-40
6.2659564 -3.6044164 -0.71342999 1.8439126e-40
6.2336555 -3.571934 -0.71437186 2.7658689e-40
6.5382619 -3.7141283 -0.64625108 7.3756504e-40
6.5203395 -3.7534637 -0.6356104 4.6097815e-40
6.5168085 -3.7203035 -0.64938134 5.5317378e-40
6.4904952 -3.7620099 -0.63974214 5.5317378e-40
6.4581814 -3.8024316 -0.62114662 4.6097815e-40
6.4628115 -3.7696679 -0.64222109 6.4536941e-40
6.4339805 -3.8086939 -0.62114662 3.6878252e-40
6.4383688 -3.7759926 -0.64222109 4.6097815e-40
6.4218798 -3.8118248 -0.62114662 3.6878252e-40
6.4114819 -3.7829497 -0.64222109 3.6878252e-40
6.3901138 -3.7524626 -0.64625108 3.6878252e-40
6.3735051 -3.7212377 -0.65276009 4.6097815e-40
6.356214 -3.6879008 -0.65306664 4.6097815e-40
6.343399 -3.6549387 -0.666336 3.6878252e-40
6.3247671 -3.6218431 -0.67666471 9.219563e-40
6.3136969 -3.6626241 -0.666336 2.7658689e-40
6.3008103 -3.6273918 -0.67340291 1.8439126e-40
6.2708621 -3.5965736 -0.68046993 2.7658689e-40
6.2455044 -3.5635533 -0.68772274 1.8439126e-40
6.2277727 -3.5672557 -0.68328124 2.7658689e-40
6.2262163 -3.5279477 -0.69516158 2.7658689e-40
6.5429206 -3.7066798 -0.61494845 4.6097815e-40
6.5189409 -3.7480578 -0.60668886 4.6097815e-40
6.5247049 -3.7126417 -0.62120897 4.6097815e-40
6.4905238 -3.7558224 -0.60875481 5.5317378e-40
6.4572911 -3.7989905 -0.60273796 4.6097815e-40
6.4660816 -3.7621474 -0.60875475 8.2976067e-40
6.4355283 -3.7700534 -0.60875475 1.0141519e-39
6.4135938 -3.7413926 -0.62120897 3.6878252e-40
6.4168963 -3.7736385 -0.6025573 3.6878252e-40
6.3947725 -3.7450142 -0.61494845 3.6878252e-40
6.3719759 -3.7153275 -0.62114221 3.6878252e-40
6.3595061 -3.7185543 -0.62114221 5.5317378e-40
6.3375945 -3.6500039 -0.6340605 3.6878252e-40
6.3198156 -3.6159687 -0.64078516 4.6097815e-40
6.300519 -3.6209619 -0.64078516 2.7658689e-40
6.2727513 -3.6285808 -0.64295971 2.7658689e-40
6.2583289 -3.5928056 -0.64531237 1.8439126e-40
6.2423139 -3.6347218 -0.63426161 2.7658689e-40
6.2310777 -3.5619717 -0.66107363 1.8439126e-40
6.5450273 -3.6642437 -0.58952427 5.5317378e-40
6.5384717 -3.7022121 -0.58677608 6.4536941e-40
6.5134683 -3.743706 -0.57776737 5.5317378e-40
6.5228882 -3.7056205 -0.58364582 5.5317378e-40
6.4890251 -3.7500303 -0.57776749 4.6097815e-40
6.4572496 -3.7582529 -0.57776743 4.6097815e-40
6.4611597 -3.7215929 -0.58364582 6.4536941e-40
6.4340291 -3.764261 -0.57776749 3.6878252e-40
6.4120798 -3.7355413 -0.58990633 3.6878252e-40
6.4150977 -3.7666879 -0.56537247 2.7658689e-40
6.3964963 -3.7389493 -0.58677608 6.4536941e-40
6.3748074 -3.7091303 -0.59373999 9.219563e-40
6.3582826 -3.7138262 -0.59584785 4.6097815e-40
6.3411441 -3.6816077 -0.60195917 3.6878252e-40
6.3239284 -3.6496778 -0.61469525 6.4536941e-40
6.3282371 -3.6836731 -0.59557074 1.8439126e-39
6.3045225 -3.6534119 -0.60824013 2.7658689e-40
6.2735281 -3.6227419 -0.61469096 2.7658689e-40
6.2488122 -3.5917621 -0.62773371 2.7658689e-40
6.2455502 -3.6295476 -0.61251646 2.7658689e-40
6.5584111 -3.6901855 -0.55234319 5.5317378e-40
6.5444155 -3.6618795 -0.57687712 4.6097815e-40
6.5398927 -3.6949775 -0.55234319 4.6097815e-40
6.512269 -3.7390721 -0.55297756 4.6097815e-40
6.517158 -3.7004442 -0.55025637 6.4536941e-40
6.4875264 -3.7442381 -0.54678017 4.6097815e-40
6.4569731 -3.7521443 -0.54678011 4.6097815e-40
6.4325304 -3.7584691 -0.54678011 2.7658689e-40
6.4141984 -3.7632127 -0.54678011 3.6878252e-40
6.3917446 -3.7333119 -0.55234319 4.6097815e-40
6.3724937 -3.7044737 -0.56739175 3.6878252e-40
6.3567533 -3.7079165 -0.56422997 4.6097815e-40
6.3395991 -3.6756368 -0.57001698 4.6097815e-40
6.3270011 -3.6788964 -0.57001698 4.6097815e-40
6.3029613 -3.6473792 -0.57596463 3.6878252e-40
6.2832427 -3.6499066 -0.5630545 2.7658689e-40
6.2707901 -3.6174657 -0.58468252 1.8439126e-40
6.2476344 -3.6234574 -0.58468252 1.8439126e-40
6.2212195 -3.5923285 -0.59477365 1.8439126e-40
6.5572 -3.6855047 -0.52730113 4.6097815e-40
6.5386815 -3.6902966 -0.52730113 5.5317378e-40
6.5127487 -3.7638364 -0.49842232 6.4536941e-40
6.5147443 -3.7318399 -0.51992434 4.6097815e-40
6.5204659 -3.6962585 -0.53356165 4.6097815e-40
6.500648 -3.7669675 -0.49842232 4.6097815e-40
6.4863276 -3.7396045 -0.5219903 5.5317378e-40
6.4522457 -3.7794919 -0.49842232 2.7658689e-40
6.4557743 -3.7475107 -0.52199024 4.6097815e-40
6.440145 -3.7826231 -0.49842232 5.5317378e-40
6.4334683 -3.7536948 -0.52405596 4.6097815e-40
6.4130664 -3.7223845 -0.52521425 3.6878252e-40
6.3924899 -3.7277088 -0.52521425 4.6097815e-40
6.3804698 -3.6967349 -0.53893566 6.4536941e-40
6.372015 -3.7334228 -0.52730113 4.6097815e-40
6.348989 -3.7036195 -0.53261209 5.5317378e-40
6.3175082 -3.7105043 -0.52628851 3.6878252e-40
6.3213596 -3.6744103 -0.54020429 3.6878252e-40
6.2950354 -3.642993 -0.54368919 2.7658689e-40
6.2823062 -3.6462867 -0.54368919 2.7658689e-40
6.2639408 -3.6122124 -0.5494554 2.7658689e-40
6.2468934 -3.6170571 -0.5516299 1.8439126e-40
6.2332621 -3.5852683 -0.5749976 2.7658689e-40
6.5942216 -3.7030344 -0.47860795 3.6878252e-40
6.579772 -3.6709244 -0.48347747 3.6878252e-40
6.5825996 -3.7085135 -0.49100286 7.3756504e-40
6.5618591 -3.6780562 -0.49599856 4.6097815e-40
6.5371675 -3.6844454 -0.49599856 5.5317378e-40
6.5164843 -3.725127 -0.48852387 4.6097815e-40
6.4830828 -3.7342639 -0.49100292 4.6097815e-40
6.4810066 -3.6964805 -0.48347747 6.4536941e-40
6.457181 -3.7403486 -0.48790413 4.6097815e-40
6.4550366 -3.8100991 -0.48143974 4.6097815e-40
6.4395514 -3.780329 -0.48614988 5.5317378e-40
6.4266276 -3.7482545 -0.48790416 3.6878252e-40
6.4075379 -3.7179885 -0.4959985 4.6097815e-40
6.3890195 -3.7227798 -0.49599856 3.6878252e-40
6.3654413 -3.7283816 -0.4934943 3.6878252e-40
6.3477654 -3.6988914 -0.50731778 3.6878252e-40
6.3371272 -3.6660841 -0.51890951 4.6097815e-40
6.3199182 -3.668838 -0.51039159 3.6878252e-40
6.2981339 -3.637471 -0.52002054 3.6878252e-40
6.2810574 -3.6414607 -0.51786882 1.8439126e-40
6.2626786 -3.6073351 -0.52336115 1.8439126e-40
6.249814 -3.6106637 -0.52336115 2.7658689e-40
6.5936217 -3.7007174 -0.46621299 4.6097815e-40
6.5850363 -3.6658163 -0.46469587 4.6097815e-40
6.5763202 -3.6309233 -0.46305269 3.6878252e-40
6.560648 -3.6733756 -0.47095641 5.5317378e-40
6.5576153 -3.6357634 -0.46305269 4.6097815e-40
6.5356536 -3.6785946 -0.46469587 4.6097815e-40
6.5117469 -3.7202556 -0.45794964 4.6097815e-40
6.5007753 -3.688036 -0.46678272 4.6097815e-40
6.4772196 -3.7296014 -0.46001551 4.6097815e-40
6.4498715 -3.7703161 -0.44933262 3.6878252e-40
6.4549136 -3.7357855 -0.46208128 6.4536941e-40
6.4283342 -3.7422509 -0.46001551 4.6097815e-40
6.406024 -3.7121372 -0.46469587 3.6878252e-40
6.3875055 -3.716929 -0.46469587 4.6097815e-40
6.3628139 -3.7233181 -0.46469587 4.6097815e-40
6.3400016 -3.6945949 -0.47569984 4.6097815e-40
6.3212962 -3.699435 -0.47569984 3.6878252e-40
6.2968616 -3.6663105 -0.46780199 3.6878252e-40
6.2925377 -3.6333404 -0.49204844 2.7658689e-40
6.2798085 -3.6366341 -0.49204844 1.8439126e-40
6.2614164 -3.6024575 -0.49726695 2.7658689e-40
6.2485518 -3.6057861 -0.49726695 1.8439126e-40
6.5816379 -3.6257641 -0.44408199 3.6878252e-40
6.5526581 -3.6679516 -0.43339327 4.6097815e-40
6.5588779 -3.6320739 -0.44618982 4.6097815e-40
6.530117 -3.707262 -0.41663328 5.5317378e-40
6.5344424 -3.6739137 -0.43965378 4.6097815e-40
6.5134869 -3.7135427 -0.42654923 4.6097815e-40
6.4977083 -3.6846676 -0.44591433 5.5317378e-40
6.4802284 -3.7223337 -0.42747888 6.4536941e-40
6.4527178 -3.7646844 -0.42478776 6.4536941e-40
6.4533148 -3.7296071 -0.42902812 4.6097815e-40
6.4329462 -3.7348778 -0.42902812 5.5317378e-40
6.4109855 -3.7058589 -0.43965378 3.6878252e-40
6.3862944 -3.7122481 -0.43965378 3.6878252e-40
6.363718 -3.6834137 -0.45040554 4.6097815e-40
6.3674726 -3.7158697 -0.43339327 3.6878252e-40
6.344707 -3.6870716 -0.44408199 4.6097815e-40
6.3200731 -3.6947072 -0.45040554 5.5317378e-40
6.3145223 -3.6566443 -0.44224826 6.4536941e-40
6.2906647 -3.626101 -0.45331788 2.7658689e-40
6.2782474 -3.6306012 -0.45977294 1.8439126e-40
6.2598386 -3.5963604 -0.46464917 1.8439126e-40
6.2417979 -3.5646539 -0.48270938 1.8439126e-40
6.2466588 -3.5984697 -0.45812559 1.8439126e-40
6.5823112 -3.6552839 -0.40835124 3.6878252e-40
6.5576196 -3.6616731 -0.40835124 5.5317378e-40
6.5340419 -3.667275 -0.40584698 4.6097815e-40
6.5108857 -3.7085302 -0.39804083 4.6097815e-40
6.4874368 -3.7491739 -0.39206129 4.6097815e-40
6.4763589 -3.7178767 -0.40010661 4.6097815e-40
6.4519162 -3.7242012 -0.40010661 4.6097815e-40
6.4397302 -3.6896813 -0.39583012 3.6878252e-40
6.4272738 -3.7297537 -0.39597496 3.6878252e-40
6.4097743 -3.7011781 -0.4146117 4.6097815e-40
6.4005942 -3.7358332 -0.39184338 3.6878252e-40
6.3836665 -3.7071846 -0.41085538 4.6097815e-40
6.3630238 -3.7114022 -0.40522093 3.6878252e-40
6.3434839 -3.6823435 -0.41878766 3.6878252e-40
6.3244729 -3.6860015 -0.41246408 5.5317378e-40
6.3115988 -3.6540029 -0.42521244 4.6097815e-40
6.2894158 -3.6212745 -0.42749751 2.7658689e-40
6.2766862 -3.6245682 -0.42749751 2.7658689e-40
6.2582612 -3.5902636 -0.43203139 1.8439126e-40
6.2453966 -3.5935922 -0.43203139 1.8439126e-40
6.5869699 -3.6478362 -0.37704855 5.5317378e-40
6.5723443 -3.6155574 -0.38084617 4.6097815e-40
6.5496302 -3.6562493 -0.37078804 4.6097815e-40
6.5558195 -3.6202536 -0.382954 4.6097815e-40
6.5314145 -3.6622117 -0.37704855 4.6097815e-40
6.5035763 -3.7054777 -0.37325099 4.6097815e-40
6.5128956 -3.6670034 -0.37704855 3.6878252e-40
6.4791336 -3.7118022 -0.37325105 4.6097815e-40
6.4388218 -3.6861703 -0.37704861 5.5317378e-40
6.4079576 -3.6941569 -0.37704855 4.6097815e-40
6.383266 -3.700546 -0.37704855 3.6878252e-40
6.3548107 -3.7076592 -0.37579644 4.6097815e-40
6.3360252 -3.6792288 -0.39349332 7.3756504e-40
6.3153648 -3.718116 -0.37704855 3.6878252e-40
6.3202848 -3.6826713 -0.39033154 3.6878252e-40
6.2931538 -3.6519806 -0.39114076 2.7658689e-40
6.2710905 -3.6204379 -0.3995254 2.7658689e-40
6.2573147 -3.5866053 -0.41246071 2.7658689e-40
6.2441349 -3.5887146 -0.40593717 2.7658689e-40
6.5919313 -3.6415577 -0.35200647 4.6097815e-40
6.5711207 -3.6108294 -0.35555184 3.6878252e-40
6.5487218 -3.6527386 -0.35200647 3.6878252e-40
6.558651 -3.6140561 -0.35555184 3.6878252e-40
6.5262203 -3.6922026 -0.33606616 6.4536941e-40
6.5323615 -3.6573882 -0.35409331 3.6878252e-40
6.506846 -3.6979573 -0.33978465 4.6097815e-40
6.5119872 -3.6634927 -0.35826698 7.3756504e-40
6.4776349 -3.7060101 -0.3422637 4.6097815e-40
6.4457393 -3.7137692 -0.33978465 4.6097815e-40
6.4379134 -3.6826599 -0.35826698 8.2976067e-40
6.4229383 -3.7213993 -0.34846109 3.6878252e-40
6.4045877 -3.6896183 -0.34991962 3.6878252e-40
6.3820548 -3.6958649 -0.35200647 4.6097815e-40
6.3511906 -3.703851 -0.35200652 3.6878252e-40
6.3181577 -3.7448041 -0.3298687 4.6097815e-40
6.3141537 -3.7134349 -0.35200647 2.7658689e-40
6.3217201 -3.6753635 -0.35555184 8.2976067e-40
6.2987289 -3.7849498 -0.32660833 2.7658689e-40
6.3059363 -3.7479665 -0.3298687 3.6878252e-40
6.3015051 -3.7154591 -0.34574592 2.7658689e-40
6.290545 -3.6834304 -0.35555184 2.7658689e-40
6.2793198 -3.6504641 -0.36558703 2.7658689e-40
6.2658062 -3.6175137 -0.3780084 2.7658689e-40
6.284575 -3.8557498 -0.32037538 3.6878252e-40
6.2916121 -3.8208766 -0.32344395 2.7658689e-40
6.2698722 -3.7597706 -0.34226364 2.7658689e-40
6.2768135 -3.7218482 -0.34574592 2.7658689e-40
6.2484179 -3.6202965 -0.36940163 2.7658689e-40
6.2431879 -3.5850565 -0.38636649 3.6878252e-40
6.2727056 -3.8588212 -0.32037538 2.7658689e-40
6.2619476 -3.8297644 -0.3295207 2.7658689e-40
6.238523 -3.8017523 -0.33274454 2.7658689e-40
6.2206869 -3.7712615 -0.33606616 1.8439126e-40
6.2027397 -3.7410154 -0.34574592 2.7658689e-40
6.1848555 -3.7120395 -0.36187544 2.7658689e-40
6.1758213 -3.7489798 -0.35075435 1.8439126e-40
6.153357 -3.7537937 -0.34574592 1.8439126e-40
6.5842447 -3.6373041 -0.32070389 3.6878252e-40
6.5702033 -3.6072834 -0.33658114 4.6097815e-40
6.5533805 -3.6452904 -0.32070389 5.5317378e-40
6.5308323 -3.6848292 -0.30507883 3.6878252e-40
6.5309486 -3.6519275 -0.32487753 4.6097815e-40
6.5066895 -3.6923122 -0.31127629 4.6097815e-40
6.4761357 -3.7002177 -0.31127638 5.5317378e-40
6.4516935 -3.7065427 -0.31127632 4.6097815e-40
6.4285679 -3.6770871 -0.31819963 4.6097815e-40
6.4052324 -3.6836247 -0.32070389 3.6878252e-40
6.3841763 -3.7227776 -0.30507883 2.7658689e-40
6.3808436 -3.6911843 -0.32696435 4.6097815e-40
6.3597336 -3.7291021 -0.30507883 2.7658689e-40
6.352509 -3.6987658 -0.32821646 4.6097815e-40
6.3437734 -3.800108 -0.28698337 3.6878252e-40
6.3398938 -3.7694032 -0.30206347 3.6878252e-40
6.342001 -3.7361624 -0.31747377 2.7658689e-40
6.3252883 -3.7055597 -0.32696435 3.6878252e-40
6.322588 -3.8395114 -0.28827351 1.8439126e-40
6.3263865 -3.8070309 -0.29913691 2.7658689e-40
6.3162861 -3.7779591 -0.31433591 2.7658689e-40
6.2937241 -3.8482811 -0.29479411 2.7658689e-40
6.3030076 -3.8155043 -0.31129044 2.7658689e-40
6.2666769 -3.8550992 -0.29389131 2.7658689e-40
6.2550745 -3.8279073 -0.31129044 2.7658689e-40
6.2359238 -3.8280149 -0.28698337 2.7658689e-40
6.2373362 -3.7971644 -0.3081997 1.8439126e-40
6.2153144 -3.7672961 -0.30921042 2.7658689e-40
6.2018313 -3.737505 -0.32696435 2.7658689e-40
6.1908717 -3.7736206 -0.30921042 1.8439126e-40
6.1747313 -3.7447672 -0.32821646 1.8439126e-40
6.1623554 -3.7809994 -0.30921042 1.8439126e-40
6.1527514 -3.7514534 -0.33322489 2.7658689e-40
6.5765576 -3.6330502 -0.2894012 4.6097815e-40
6.5518665 -3.6394393 -0.2894012 4.6097815e-40
6.5403223 -3.7444017 -0.26267633 5.5317378e-40
6.5383658 -3.7131519 -0.27751863 7.3756504e-40
6.5279961 -3.6822672 -0.28855219 4.6097815e-40
6.5137691 -3.7178848 -0.269337 4.6097815e-40
6.5076275 -3.6875379 -0.28855219 5.5317378e-40
6.4923892 -3.7568049 -0.26267633 4.6097815e-40
6.4820943 -3.7285283 -0.28160945 4.6097815e-40
6.4874582 -3.6935804 -0.29268387 6.4536941e-40
6.462431 -3.7645569 -0.26267633 4.6097815e-40
6.4563193 -3.7353613 -0.28242761 4.6097815e-40
6.4385729 -3.7062299 -0.29268387 5.5317378e-40
6.4303112 -3.7738376 -0.26753771 4.6097815e-40
6.4202409 -3.7109735 -0.29268387 3.6878252e-40
6.4028082 -3.7811964 -0.26875308 3.6878252e-40
6.3937526 -3.7530191 -0.28979105 4.6097815e-40
6.4019089 -3.7157171 -0.29268387 4.6097815e-40
6.3884907 -3.8168571 -0.26018426 3.6878252e-40
6.370512 -3.7897959 -0.26996845 3.6878252e-40
6.3695517 -3.7592814 -0.28979105 4.6097815e-40
6.3428917 -3.7967002 -0.26875308 2.7658689e-40
6.3234987 -3.8348744 -0.26620337 2.7658689e-40
6.3045602 -3.8729308 -0.26365373 1.8439126e-40
6.2819548 -3.845624 -0.26620337 2.7658689e-40
6.2641506 -3.8502309 -0.26620337 2.7658689e-40
6.2466373 -3.8559635 -0.27222249 2.7658689e-40
6.2329469 -3.8247454 -0.26672748 1.8439126e-40
6.2116508 -3.7976916 -0.27751863 2.7658689e-40
6.1877356 -3.7698998 -0.28648642 1.8439126e-40
6.1629772 -3.7400672 -0.2894012 2.7658689e-40
6.1506319 -3.7432618 -0.2894012 1.8439126e-40
6.600688 -3.7559471 -0.23008873 3.6878252e-40
6.5855808 -3.6960394 -0.25297379 3.6878252e-40
6.5840297 -3.6636479 -0.26789403 5.5317378e-40
6.5694766 -3.6311371 -0.27061963 4.6097815e-40
6.5825925 -3.759429 -0.22406961 3.6878252e-40
6.5750966 -3.7305562 -0.23836929 4.6097815e-40
6.5613799 -3.7023017 -0.25297379 4.6097815e-40
6.5593872 -3.6692007 -0.26376233 4.6097815e-40
6.5588531 -3.7655716 -0.22406961 4.6097815e-40
6.5433373 -3.7395821 -0.24242045 4.6097815e-40
6.5492792 -3.7054329 -0.25297379 6.4536941e-40
6.5235357 -3.7759109 -0.23008873 4.6097815e-40
6.5217595 -3.7467813 -0.25052282 5.5317378e-40
6.5000877 -3.7831788 -0.2361078 4.6097815e-40
6.4763484 -3.7893214 -0.23610775 4.6097815e-40
6.4555578 -3.7626996 -0.24444605 4.6097815e-40
6.431591 -3.7689011 -0.24444605 4.6097815e-40
6.4016328 -3.7766531 -0.24444605 3.6878252e-40
6.3741298 -3.7840118 -0.24566141 3.6878252e-40
6.3550768 -3.7532365 -0.24070135 2.7658689e-40
6.34201 -3.7932928 -0.25052282 2.7658689e-40
6.336926 -3.7579331 -0.24070135 3.6878252e-40
6.3226252 -3.8314993 -0.24814606 1.8439126e-40
6.3234472 -3.7956724 -0.23836929 2.7658689e-40
6.3066745 -3.7657609 -0.24070135 1.8439126e-40
6.2929511 -3.8391774 -0.24814609 1.8439126e-40
6.2874975 -3.8049746 -0.23836929 2.7658689e-40
6.2692122 -3.8453202 -0.24814606 2.7658689e-40
6.257833 -3.8138623 -0.24444605 2.7658689e-40
6.246172 -3.7814164 -0.24070135 2.7658689e-40
6.2284122 -3.7507224 -0.24310413 2.7658689e-40
6.2346649 -3.7868416 -0.25297379 2.7658689e-40
6.2103796 -3.7566245 -0.2493016 2.7658689e-40
6.1916308 -3.8297808 -0.23836929 1.8439126e-40
6.1862626 -3.799366 -0.25297379 1.8439126e-40
6.1894417 -3.7638962 -0.25859782 1.8439126e-40
6.1617661 -3.7353864 -0.26435912 1.8439126e-40
6.6134977 -3.7822907 -0.21000059 3.6878252e-40
6.6111021 -3.7472503 -0.19999318 3.6878252e-40
6.6014533 -3.7842183 -0.20403913 3.6878252e-40
6.5817189 -3.7560537 -0.20601229 3.6878252e-40
6.5520453 -3.7637322 -0.20601223 4.6097815e-40
6.538559 -3.7375865 -0.22621576 5.5317378e-40
6.5223708 -3.7714102 -0.20601229 4.6097815e-40
6.4989228 -3.7786784 -0.21203141 3.6878252e-40
6.48945 -3.7454462 -0.20190874 6.4536941e-40
6.4751835 -3.784821 -0.21203141 4.6097815e-40
6.4569368 -3.7556772 -0.21102387 4.6097815e-40
6.4301214 -3.763222 -0.21406223 3.6878252e-40
6.4001632 -3.7709737 -0.21406223 4.6097815e-40
6.3821883 -3.775625 -0.21406226 4.6097815e-40
6.3659902 -3.7455175 -0.21615647 3.6878252e-40
6.3497262 -3.7156236 -0.22451174 3.6878252e-40
6.3253436 -3.7221801 -0.22575125 3.6878252e-40
6.3201404 -3.6856661 -0.22053549 3.6878252e-40
6.2950296 -3.7310128 -0.23070921 1.8439126e-40
6.2892761 -3.6936524 -0.22053549 2.7658689e-40
6.2766976 -3.7357564 -0.23070921 2.7658689e-40
6.2648878 -3.7012117 -0.226796 2.7658689e-40
6.257679 -3.7759914 -0.22842893 2.7658689e-40
6.2397342 -3.7440848 -0.22451171 1.8439126e-40
6.2094803 -3.7531493 -0.23070921 1.8439126e-40
6.604003 -3.7442858 -0.17591667 3.6878252e-40
6.5802636 -3.7504287 -0.1759167 4.6097815e-40
6.5505896 -3.7581069 -0.17591664 4.6097815e-40
6.5232821 -3.766773 -0.18394227 4.6097815e-40
6.5122409 -3.7347014 -0.17760167 4.6097815e-40
6.4973154 -3.7041936 -0.17933923 4.6097815e-40
6.4888625 -3.7431746 -0.18975522 6.4536941e-40
6.4791646 -3.7088902 -0.17933923 6.4536941e-40
6.4589043 -3.7509265 -0.18975522 5.5317378e-40
6.4489131 -3.716718 -0.17933923 4.6097815e-40
6.4289455 -3.7586782 -0.18975522 3.6878252e-40
6.4208765 -3.7247884 -0.18343005 5.5317378e-40
6.3986936 -3.7652943 -0.18367846 4.6097815e-40
6.3810124 -3.7710814 -0.18975522 3.6878252e-40
6.3763099 -3.7355046 -0.17933923 3.6878252e-40
6.3563752 -3.7077236 -0.19352433 4.6097815e-40
6.3355923 -3.6775062 -0.1996671 3.6878252e-40
6.3121629 -3.7216353 -0.20591934 2.7658689e-40
6.3150158 -3.6828303 -0.1996671 1.8439126e-40
6.2945409 -3.6885443 -0.20175391 2.7658689e-40
6.2769694 -3.6566758 -0.20378597 1.8439126e-40
6.259306 -3.6250651 -0.21226455 2.7658689e-40
6.2529473 -3.6666751 -0.22275668 2.7658689e-40
6.2409244 -3.5913386 -0.21447934 3.6878252e-40
6.6106143 -3.7711475 -0.15038601 4.6097815e-40
6.600472 -3.7387969 -0.14381488 3.6878252e-40
6.5747695 -3.7780447 -0.13846307 4.6097815e-40
6.580883 -3.7446659 -0.14782763 4.6097815e-40
6.5630136 -3.7810867 -0.13846307 6.4536941e-40
6.5468183 -3.7533207 -0.14702502 4.6097815e-40
6.5251036 -3.7574987 -0.13980208 5.5317378e-40
6.5159764 -3.7293718 -0.15572533 4.6097815e-40
6.4916568 -3.7342103 -0.14843321 4.6097815e-40
6.4761586 -3.7055888 -0.15888517 5.5317378e-40
6.481463 -3.6704116 -0.16873455 4.6097815e-40
6.4565525 -3.7418396 -0.14114115 4.6097815e-40
6.4505024 -3.7128804 -0.16215782 6.4536941e-40
6.4269862 -3.7511058 -0.14924344 5.5317378e-40
6.4177713 -3.7211046 -0.16093057 7.3756504e-40
6.3994169 -3.7598557 -0.15734582 4.6097815e-40
6.3932734 -3.7262199 -0.15479438 8.2976067e-40
6.3754196 -3.7320635 -0.16093057 3.6878252e-40
6.3528395 -3.7024581 -0.16253707 3.6878252e-40
6.3345828 -3.6736054 -0.17879868 2.7658689e-40
6.3118482 -3.6790717 -0.17671181 2.7658689e-40
6.2933297 -3.6838634 -0.17671181 1.8439126e-40
6.2757463 -3.651948 -0.17849167 2.7658689e-40
6.25807 -3.6202884 -0.18671083 1.8439126e-40
6.2399879 -3.587719 -0.19511406 2.7658689e-40
6.221489 -3.5542426 -0.20370694 2.7658689e-40
6.6013827 -3.7341597 -0.12174468 4.6097815e-40
6.5804391 -3.7708709 -0.10984804 4.6097815e-40
6.5835781 -3.7387669 -0.12174468 3.6878252e-40
6.5559826 -3.7781503 -0.1146172 6.4536941e-40
6.5360999 -3.7510521 -0.12174468 1.3829344e-39
6.5377717 -3.7804847 -0.10269427 4.6097815e-40
6.5190749 -3.753777 -0.11331795 6.4536941e-40
6.5098896 -3.7256145 -0.12898757 3.6878252e-40
6.4996176 -3.7568913 -0.1036874 4.6097815e-40
6.4856291 -3.73068 -0.12291081 6.4536941e-40
6.4556708 -3.7384319 -0.12291081 5.5317378e-40
6.4257126 -3.7461836 -0.12291081 4.6097815e-40
6.3938551 -3.7548313 -0.12493643 6.4536941e-40
6.3920865 -3.721632 -0.13024947 4.6097815e-40
6.3777795 -3.7585869 -0.12291081 4.6097815e-40
6.3650088 -3.7292507 -0.13331759 3.6878252e-40
6.3455296 -3.6994057 -0.1377472 6.4536941e-40
6.3291554 -3.6695991 -0.15166971 2.7658689e-40
6.3169131 -3.7063985 -0.13568132 2.7658689e-40
6.3135719 -3.673007 -0.14853945 2.7658689e-40
6.2912102 -3.6756718 -0.13288814 1.8439126e-40
6.2827344 -3.6446745 -0.15108944 2.7658689e-40
6.2608275 -3.6136291 -0.15689814 2.7658689e-40
6.2384267 -3.581686 -0.16283856 2.7658689e-40
6.2195959 -3.5469263 -0.16456561 2.7658689e-40
6.2144508 -3.5125699 -0.18606867 2.7658689e-40
6.5898085 -3.763453 -0.084809922 3.6878252e-40
6.5743876 -3.8009441 -0.083989672 3.6878252e-40
6.5545406 -3.7725787 -0.084809922 7.3756504e-40
6.5369067 -3.7771416 -0.084809922 7.3756504e-40
6.5165486 -3.7489085 -0.085630052 3.6878252e-40
6.498744 -3.7535157 -0.085630052 3.6878252e-40
6.478168 -3.7265508 -0.09252701 3.6878252e-40
6.4542012 -3.7327526 -0.09252701 5.5317378e-40
6.4256678 -3.7398334 -0.091007724 5.5317378e-40
6.40905 -3.7123475 -0.1057046 5.5317378e-40
6.3942847 -3.7482562 -0.09252701 5.5317378e-40
6.3713989 -3.7536936 -0.09009628 5.5317378e-40
6.354301 -3.7252903 -0.099568382 4.6097815e-40
6.3443308 -3.694772 -0.11295734 4.6097815e-40
6.3195024 -3.6996069 -0.10498922 4.6097815e-40
6.3149929 -3.6657722 -0.11410657 2.7658689e-40
6.2945461 -3.7039464 -0.094364919 3.6878252e-40
6.2841287 -3.6737585 -0.11410657 3.6878252e-40
6.2646804 -3.6434608 -0.12157941 1.8439126e-40
6.2555981 -3.6107357 -0.13560326 1.8439126e-40
6.2325187 -3.5763488 -0.12841137 2.7658689e-40
6.2122173 -3.5449326 -0.14499496 2.7658689e-40
6.1862202 -3.5106716 -0.13992453 2.7658689e-40
6.582489 -3.7594023 -0.055002581 4.6097815e-40
6.580667 -3.7275162 -0.061553601 3.6878252e-40
6.5530992 -3.7670071 -0.055002581 4.6097815e-40
6.5270681 -3.7737429 -0.055002641 4.6097815e-40
6.5097404 -3.7470691 -0.067572713 4.6097815e-40
6.493526 -3.7496638 -0.05954729 4.6097815e-40
6.4747992 -3.7217672 -0.064168833 6.4536941e-40
6.44981 -3.7601757 -0.055534486 4.6097815e-40
6.4548268 -3.7269351 -0.064168833 4.6097815e-40
6.4302211 -3.7660444 -0.05954729 3.6878252e-40
6.4230676 -3.735961 -0.068219967 3.6878252e-40
6.4142013 -3.7693899 -0.055534486 4.6097815e-40
6.3928151 -3.7425771 -0.06214321 3.6878252e-40
6.370748 -3.7478831 -0.060117643 4.6097815e-40
6.3508 -3.7200775 -0.068887338 5.5317378e-40
6.3422322 -3.6866629 -0.069575004 4.6097815e-40
6.3181496 -3.6943779 -0.077011973 3.6878252e-40
6.3128734 -3.6575809 -0.070282899 6.4536941e-40
6.2939463 -3.7016294 -0.081969932 5.5317378e-40
6.279377 -3.6681211 -0.079673685 3.6878252e-40
6.2589941 -3.6386263 -0.089961521 3.6878252e-40
6.2356167 -3.5708265 -0.1047427 2.7658689e-40
6.2104816 -3.5382259 -0.10911537 3.6878252e-40
6.1979446 -3.5023794 -0.11355646 3.6878252e-40
6.1919742 -3.5462677 -0.12542425 2.7658689e-40
6.1849451 -3.505743 -0.11355646 2.7658689e-40
6.5910811 -3.7188191 -0.031458091 4.6097815e-40
6.5751691 -3.7553518 -0.025195362 3.6878252e-40
6.5797935 -3.7241409 -0.043496259 3.6878252e-40
6.5516572 -3.7614357 -0.025195362 3.6878252e-40
6.530201 -3.7673838 -0.027182478 5.5317378e-40
6.5108156 -3.7389882 -0.028448565 3.6878252e-40
6.4901891 -3.744926 -0.031457972 3.6878252e-40
6.4698248 -3.7190144 -0.043912932 6.4536941e-40
6.460515 -3.7526042 -0.031458031 4.6097815e-40
6.4311323 -3.7614074 -0.037477206 5.5317378e-40
6.4096146 -3.7333825 -0.037836172 5.5317378e-40
6.3916397 -3.7380335 -0.037836172 3.6878252e-40
6.3676729 -3.7442353 -0.037836172 3.6878252e-40
6.3410335 -3.6820292 -0.044785146 3.6878252e-40
6.3168902 -3.6895125 -0.05098258 5.5317378e-40
6.311965 -3.6540704 -0.05150133 4.6097815e-40
6.2872734 -3.6604593 -0.05150133 3.6878252e-40
6.2699351 -3.6294897 -0.058343634 4.6097815e-40
6.2521992 -3.5976002 -0.065330535 3.6878252e-40
6.2343678 -3.5660002 -0.078922354 2.7658689e-40
6.2154942 -3.5310743 -0.079759315 2.7658689e-40
6.1966691 -3.4974508 -0.087188385 2.7658689e-40
6.1839886 -3.5020466 -0.093780451 2.7658689e-40
6.5801821 -3.750488 -0.00731096 3.6878252e-40
6.565886 -3.7193365 -0.0013625242 4.6097815e-40
6.5502157 -3.7558639 0.0046119168 3.6878252e-40
6.5305681 -3.7296753 -0.0073816376 4.6097815e-40
6.522593 -3.762219 0.0085862679 3.6878252e-40
6.5065379 -3.7346933 -0.0013625242 4.6097815e-40
6.4887333 -3.7393003 -0.0013625242 3.6878252e-40
6.4613752 -3.7461393 -0.00015868986 2.7658689e-40
6.4443889 -3.7195365 -0.013529134 4.6097815e-40
6.4231596 -3.7550676 0.0046565891 2.7658689e-40
6.422008 -3.7248087 -0.010924707 5.5317378e-40
6.4112897 -3.7581389 0.0046565891 3.6878252e-40
6.3901701 -3.7323542 -0.0074523743 6.4536941e-40
6.3693461 -3.7383487 -0.010490754 5.5317378e-40
6.3558993 -3.7065203 -0.0075252019 4.6097815e-40
6.3398342 -3.6773958 -0.019995227 3.6878252e-40
6.3230991 -3.6461947 -0.026459232 3.6878252e-40
6.3270135 -3.678241 -0.0076003568 2.7658689e-40
6.3045807 -3.6509864 -0.026459232 2.7658689e-40
6.286365 -3.6569486 -0.032719757 2.7658689e-40
6.2749467 -3.6231484 -0.0330493 2.7658689e-40
6.2632523 -3.5883696 -0.033388305 3.6878252e-40
6.245224 -3.5554671 -0.040191777 2.7658689e-40
6.2334313 -3.5623806 -0.059557065 2.7658689e-40
6.2140741 -3.5255871 -0.050403368 2.7658689e-40
6.1957126 -3.4937544 -0.067412317 2.7658689e-40
6.183032 -3.4983501 -0.074004382 2.7658689e-40
6.5666962 -3.7468441 0.028457787 4.6097815e-40
6.5650129 -3.7159612 0.016694816 3.6878252e-40
6.5700259 -3.8077018 0.051307853 3.6878252e-40
6.5625701 -3.7792761 0.039990235 6.4536941e-40
6.5469108 -3.7511709 0.032432139 8.2976067e-40
6.5193844 -3.7578974 0.034419253 4.6097815e-40
6.4918575 -3.7646236 0.036406431 3.6878252e-40
6.4856877 -3.7356865 0.020707499 5.5317378e-40
6.4590149 -3.7406883 0.030237809 3.6878252e-40
6.4429193 -3.7138574 0.016854664 3.6878252e-40
6.4332824 -3.7452457 0.040771268 3.6878252e-40
6.4186587 -3.7189231 0.022931423 2.7658689e-40
6.3907957 -3.7265368 0.020905798 3.6878252e-40
6.3783197 -3.6933763 0.029292056 3.6878252e-40
6.3607626 -3.7003667 0.017019618 3.6878252e-40
6.3383355 -3.6716032 0.010992067 2.7658689e-40
6.3212824 -3.6391735 0.011103912 2.7658689e-40
6.3033695 -3.6463056 -0.0014171359 3.6878252e-40
6.2739964 -3.5779452 0.0049422607 2.7658689e-40
6.2799582 -3.6168072 -0.007755023 2.7658689e-40
6.2623253 -3.5847874 -0.014222994 2.7658689e-40
6.2439752 -3.5506408 -0.014371431 2.7658689e-40
6.2309337 -3.5527277 -0.0079163155 2.7658689e-40
6.2154799 -3.5204101 -0.026266165 2.7658689e-40
6.1941185 -3.4875934 -0.034452304 2.7658689e-40
6.5643897 -3.7379296 0.076149531 1.1063476e-39
6.5614276 -3.7748621 0.063605517 3.6878252e-40
6.5461569 -3.7450252 0.06422659 6.4536941e-40
6.5212188 -3.7511384 0.065929867 5.5317378e-40
6.5036268 -3.7234423 0.058828611 5.5317378e-40
6.4858222 -3.7280493 0.058828551 4.6097815e-40
6.4561481 -3.7357278 0.058828611 4.6097815e-40
6.4171891 -3.7132437 0.053315278 3.6878252e-40
6.3834796 -3.6883698 0.047700658 3.6878252e-40
6.3609796 -3.6583283 0.048176795 3.6878252e-40
6.3496575 -3.6649656 0.029584432 3.6878252e-40
6.3298874 -3.6317029 0.037398066 2.7658689e-40
6.2971339 -3.6060569 0.023862924 3.6878252e-40
6.2730694 -3.574363 0.024107631 1.8439126e-40
6.2490911 -3.5441675 0.011449032 1.8439126e-40
6.2199688 -3.5130033 0.0050467546 2.7658689e-40
6.1990237 -3.4797506 -0.0014921739 2.7658689e-40
6.5638127 -3.7357008 0.088072404 4.6097815e-40
6.5458908 -3.7391493 0.094033875 4.6097815e-40
6.5189667 -3.7787845 0.099028394 4.6097815e-40
6.5165586 -3.7469771 0.092841566 4.6097815e-40
6.4843669 -3.722424 0.088924237 4.6097815e-40
6.4633589 -3.6940255 0.089775838 3.6878252e-40
6.4612098 -3.7308166 0.076885954 4.6097815e-40
6.4435825 -3.6999507 0.085724644 3.6878252e-40
6.4217114 -3.7060142 0.083699077 3.6878252e-40
6.4001465 -3.6779382 0.078381754 4.6097815e-40
6.3880458 -3.6810691 0.078381754 9.219563e-40
6.3720021 -3.650532 0.072966769 7.3756504e-40
6.3555942 -3.6190579 0.067448631 2.7658689e-40
6.3312058 -3.6266172 0.061187986 3.6878252e-40
6.2967296 -3.5993519 0.058010209 3.6878252e-40
6.2781324 -3.5679562 0.049661342 2.7658689e-40
6.2666245 -3.5331941 0.043724436 2.7658689e-40
6.2508683 -3.5379143 0.040496904 1.8439126e-40
6.2229948 -3.5070162 0.03114105 2.7658689e-40
6.50388 -3.7464533 0.11191827 4.6097815e-40
6.5004244 -3.7110665 0.1250388 3.6878252e-40
6.4891372 -3.716388 0.11300063 3.6878252e-40
6.4711709 -3.6871562 0.11408287 4.6097815e-40
6.4442081 -3.694133 0.11408287 5.5317378e-40
6.4183426 -3.70123 0.11205725 6.4536941e-40
6.3989592 -3.6733503 0.10292663 2.7658689e-40
6.3865619 -3.6753342 0.10906285 3.6878252e-40
6.3666296 -3.6465666 0.099822521 3.6878252e-40
6.3546858 -3.6155472 0.086230204 6.4536941e-40
6.3296919 -3.6207659 0.092490606 4.6097815e-40
6.3177958 -3.7244194 0.12623639 3.6878252e-40
6.3136621 -3.6929739 0.11519907 3.6878252e-40
6.2971754 -3.6637142 0.10395407 3.6878252e-40
6.2967701 -3.6292851 0.092490725 2.7658689e-40
6.3003106 -3.5926235 0.087098703 2.7658689e-40
6.2709064 -3.566004 0.068826713 9.219563e-40
6.3105106 -3.7602079 0.1250388 3.6878252e-40
6.2982154 -3.731102 0.11813407 2.7658689e-40
6.2821398 -3.7348576 0.12015963 3.6878252e-40
6.4786968 -3.609328 0.14113891 7.3756504e-40
6.464325 -3.6515412 0.12747151 4.6097815e-40
6.4334803 -3.6570752 0.13974389 3.6878252e-40
6.4155903 -3.7258151 0.16115348 2.7658689e-40
6.4126825 -3.695827 0.14649224 4.6097815e-40
6.4035258 -3.6660497 0.13360773 3.6878252e-40
6.385375 -3.6707463 0.13360773 4.6097815e-40
6.3631935 -3.6416874 0.12874381 3.6878252e-40
6.3405867 -3.7136745 0.15054344 5.5317378e-40
6.3409071 -3.6818447 0.13565314 5.5317378e-40
6.3390508 -3.6491706 0.12254649 3.6878252e-40
6.3408265 -3.6128907 0.11753282 2.7658689e-40
6.3229055 -3.7194614 0.14446667 3.6878252e-40
6.3251691 -3.6875489 0.12747151 3.6878252e-40
6.3210182 -3.6550725 0.116349 5.5317378e-40
6.3093457 -3.755707 0.14911519 2.7658689e-40
6.2929473 -3.7272134 0.14446667 2.7658689e-40
6.2802539 -3.765636 0.13707703 2.7658689e-40
6.2746787 -3.7307286 0.15054344 1.8439126e-40
6.4630718 -3.5762646 0.14257492 4.6097815e-40
6.3996215 -3.6947629 0.16877371 3.6878252e-40
6.3813524 -3.6982782 0.17485046 3.6878252e-40
6.3781376 -3.6677241 0.15815255 2.7658689e-40
6.3492327 -3.7075591 0.16998906 3.6878252e-40
6.3560519 -3.6738467 0.15610714 3.6878252e-40
6.3217301 -3.7149179 0.16877371 5.5317378e-40
6.3078904 -3.7500818 0.17921083 2.7658689e-40
6.2917719 -3.7226698 0.16877371 2.7658689e-40
6.2743926 -3.6908975 0.17656121 3.6878252e-40
6.2800822 -3.7269068 0.16269694 3.6878252e-40
6.2625885 -3.6951754 0.170425 2.7658689e-40
6.248251 -3.7643137 0.18522994 2.7658689e-40
6.3981519 -3.6890836 0.19915751 3.6878252e-40
6.380177 -3.6937346 0.19915751 4.6097815e-40
6.3502188 -3.7014868 0.19915763 3.6878252e-40
6.330174 -3.7383139 0.20930633 2.7658689e-40
6.3191795 -3.7100031 0.19672683 3.6878252e-40
6.310595 -3.7750664 0.21922457 4.6097815e-40
6.3007908 -3.7471175 0.20328727 5.5317378e-40
6.2908902 -3.7192624 0.18700399 2.7658689e-40
6.2710586 -3.7545707 0.20449105 3.6878252e-40
6.2667766 -3.724896 0.19004236 2.7658689e-40
6.2446928 -3.6624625 0.1783237 2.7658689e-40
6.2473779 -3.7609384 0.20328721 2.7658689e-40
6.3968592 -3.6486025 0.22974178 2.7658689e-40
6.3787074 -3.6880555 0.22954136 3.6878252e-40
6.3583922 -3.7250102 0.23940195 3.6878252e-40
6.3550348 -3.6953931 0.22346461 3.6878252e-40
6.3290095 -3.7338138 0.23338285 2.7658689e-40
6.3065023 -3.7713697 0.24307032 2.7658689e-40
6.2936916 -3.7441528 0.22736368 2.7658689e-40
6.2712736 -3.7484105 0.23510274 2.7658689e-40
6.2588744 -3.7190633 0.2295413 2.7658689e-40
6.2459221 -3.7553127 0.23338273 2.7658689e-40
6.3941622 -3.6101902 0.24649584 2.7658689e-40
6.3759217 -3.6822319 0.26235583 3.6878252e-40
6.3797359 -3.6489537 0.2501958 3.6878252e-40
6.3512931 -3.7220454 0.26347834 2.7658689e-40
6.3589687 -3.6858916 0.26600185 2.7658689e-40
6.3275537 -3.7281883 0.26347846 2.7658689e-40
6.3041773 -3.766423 0.27089047 2.7658689e-40
6.2922359 -3.7385273 0.25745925 2.7658689e-40
6.270638 -3.7431557 0.26227456 1.8439126e-40
6.2508254 -3.7126625 0.27207866 1.8439126e-40
6.2391357 -3.7168992 0.26600185 2.7658689e-40
6.4232168 -3.5964921 0.2774832 4.6097815e-40
6.4104657 -3.5664036 0.26027277 4.6097815e-40
6.3906493 -3.6412349 0.27474067 4.6097815e-40
6.3932629 -3.606715 0.2650882 3.6878252e-40
6.373673 -3.6768351 0.29233459 6.4536941e-40
6.377955 -3.6420717 0.28701299 1.1985432e-39
6.3544688 -3.7147415 0.29598153 2.7658689e-40
6.3580871 -3.6824839 0.2842322 2.7658689e-40
6.3294935 -3.7511537 0.31460789 2.7658689e-40
6.326098 -3.7225628 0.29357392 1.8439126e-40
6.3034749 -3.7596693 0.30566573 1.8439126e-40
6.2904892 -3.7317765 0.29357386 2.7658689e-40
6.2726851 -3.7363839 0.29357398 1.8439126e-40
6.2499437 -3.709255 0.29030895 2.7658689e-40
6.2327485 -3.6796451 0.28701299 2.7658689e-40
6.2148547 -3.6479352 0.28987807 2.7658689e-40
6.389462 -3.636647 0.29928547 3.6878252e-40
