# .PCD v0.7 - Point Cloud Data file format
VERSION 0.7
FIELDS x y z rgb
SIZE 4 4 4 4
TYPE F F F F
COUNT 1 1 1 1
WIDTH 992
HEIGHT 1
VIEWPOINT 0 0 0 1 0 0 0
POINTS 992
DATA ascii
1.4589533 0.14677064 -1.1492139 1.4834487e-38
1.4231799 0.16545258 -1.1186593 7.7463064e-39
1.4575649 0.15450935 -1.1379091 1.1429051e-38
1.4827677 0.15177247 -1.1421244 1.4375307e-38
1.4135219 0.19061835 -1.1134275 7.5608278e-39
1.4135219 0.29349175 -1.1134275 5.9898601e-39
1.4203794 0.30403668 -1.1188293 7.6414697e-39
1.4928242 0.14580734 -1.1204369 1.5386924e-38
1.4306136 0.16978844 -1.1038519 8.0232535e-39
1.4619761 0.16324724 -1.1089491 9.0352474e-39
1.486429 0.15665954 -1.1159637 1.2166236e-38
1.4140198 0.19484971 -1.0974896 7.8377776e-39
1.4280621 0.18242201 -1.0894122 8.1168854e-39
1.3891993 0.23750459 -1.0838785 7.746654e-39
1.4006667 0.22373079 -1.0941232 8.0225234e-39
1.3893064 0.25107628 -1.0834682 6.9132765e-39
1.3945603 0.26030919 -1.0950111 6.1753402e-39
1.4056118 0.28440684 -1.0936812 5.8987463e-39
1.4219159 0.29795596 -1.1129459 5.6232608e-39
1.4188738 0.30256882 -1.0929351 6.9078283e-39
1.4226842 0.30403668 -1.1100042 7.4559966e-39
1.4345918 0.17523944 -1.0802398 9.6835035e-39
1.4710182 0.17113316 -1.0798385 1.0142303e-38
1.4887068 0.15976149 -1.0924904 1.198258e-38
1.4160532 0.19912094 -1.0697668 8.2080007e-39
1.4353106 0.18441102 -1.0707028 9.5001996e-39
1.4588782 0.18506423 -1.0663953 1.115791e-38
1.3927709 0.23452313 -1.0609688 7.2853101e-39
1.4028529 0.22077797 -1.0632577 7.286036e-39
1.3907319 0.25516716 -1.0615202 6.8221627e-39
1.3969512 0.2751095 -1.0541964 5.7143648e-39
1.4066762 0.28685018 -1.0670865 5.8987477e-39
1.4226966 0.30408168 -1.0782975 7.2769864e-39
1.2960855 0.56595963 -1.0209233 8.2058272e-39
1.4503962 0.14664219 -1.0355539 1.7417393e-38
1.4706068 0.14884405 -1.0571034 1.612233e-38
1.4473021 0.16401054 -1.0394864 1.0233045e-38
1.4612163 0.1696422 -1.0574424 8.2087027e-39
1.4207428 0.20093416 -1.0400485 8.947016e-39
1.4470472 0.18737614 -1.048377 9.8689667e-39
1.3975304 0.22723348 -1.0308722 7.1938431e-39
1.4081303 0.21779451 -1.043051 7.7466694e-39
1.3885273 0.25250259 -1.0293515 6.7310447e-39
1.400212 0.27991089 -1.0318167 5.623244e-39
1.4103152 0.29554865 -1.0386425 5.6232398e-39
1.2567022 0.41754493 -0.98572284 1.7964807e-38
1.2576773 0.43588623 -0.98752916 1.3737208e-38
1.2588718 0.46567157 -0.98532993 9.3147224e-39
1.2653 0.46704647 -0.99085283 9.4054747e-39
1.2585317 0.48989725 -0.98663211 7.6533933e-39
1.2644877 0.49610329 -0.99152935 8.575707e-39
1.272517 0.52214646 -0.99283904 8.4820596e-39
1.2852939 0.54707521 -1.000409 8.5738993e-39
1.2947251 0.56052846 -1.0076648 8.4820484e-39
1.4319829 0.14739449 -1.0051445 1.6865667e-38
1.4449638 0.14593761 -1.0246948 1.7969869e-38
1.4257926 0.16621122 -1.0073013 1.0971692e-38
1.4048718 0.19809818 -0.99839157 8.5764118e-39
1.4227971 0.18883486 -1.0175612 8.2065531e-39
1.3935677 0.22405025 -1.0005643 7.0087302e-39
1.3902724 0.25396603 -0.99864334 6.5462961e-39
1.4017043 0.28285632 -1.0019183 5.4381325e-39
1.4164231 0.29834864 -1.0112977 5.2555363e-39
1.4186847 0.3043156 -1.0026377 6.538006e-39
1.261655 0.41414919 -0.96939623 1.5574613e-38
1.2735811 0.40827417 -0.96352422 1.4930318e-38
1.2611861 0.4348703 -0.97251016 1.1803286e-38
1.2747197 0.43653929 -0.96151334 1.1895837e-38
1.2628592 0.46793026 -0.96478516 8.9445105e-39
1.2721301 0.46532568 -0.97077316 1.0052287e-38
1.2620479 0.49294594 -0.96038371 7.7459449e-39
1.2677767 0.49190095 -0.97497714 8.2994956e-39
1.2769336 0.52682036 -0.9699257 8.4824253e-39
1.2883645 0.55443496 -0.97113061 9.4018523e-39
1.4214572 0.14547157 -0.96036267 1.7233714e-38
1.4255909 0.1462789 -0.98015213 1.6220653e-38
1.4196566 0.16981578 -0.96725661 1.1340474e-38
1.4255629 0.16484699 -0.98263371 1.1616697e-38
1.410259 0.19425784 -0.97416162 1.0514326e-38
1.3911382 0.23491374 -0.96168756 6.732495e-39
1.3964409 0.22069722 -0.97172511 7.1012832e-39
1.3897547 0.25586167 -0.96382093 7.3760638e-39
1.3935456 0.25770274 -0.98017198 6.4537347e-39
1.4055802 0.28641161 -0.97124881 5.2541041e-39
1.4165809 0.30281836 -0.97903365 5.6200252e-39
1.4291115 0.30768073 -0.97062814 5.6214531e-39
1.2705505 0.38681835 -0.92873985 1.6033751e-38
1.275631 0.38919634 -0.94490415 1.6029773e-38
1.2674242 0.40354955 -0.93032277 1.2169174e-38
1.2761598 0.40579814 -0.94841975 1.3181877e-38
1.2583535 0.43537501 -0.92943794 1.0419621e-38
1.2749479 0.42703485 -0.94751918 1.1065365e-38
1.2552958 0.46515441 -0.93118173 8.8522953e-39
1.2601067 0.49588445 -0.935013 8.0221675e-39
1.2667041 0.51962477 -0.9315955 8.3902241e-39
1.2844239 0.53654796 -0.94619232 8.7586395e-39
1.2960334 0.55194795 -0.94527149 9.1270563e-39
1.3063039 0.56371379 -0.95805222 9.0381257e-39
1.42518 0.14635842 -0.94149035 1.7045372e-38
1.4299932 0.14619082 -0.95933777 1.8245705e-38
1.4210036 0.1654706 -0.94248378 1.2632662e-38
1.3986809 0.2079792 -0.93280607 8.391666e-39
1.4057214 0.19323267 -0.94206029 9.2217826e-39
1.3917211 0.2265801 -0.93697101 6.7328552e-39
1.4006494 0.21084769 -0.95297128 8.0203822e-39
1.3910128 0.25529349 -0.93729234 7.1005503e-39
1.3978214 0.27843946 -0.9360972 5.1633406e-39
1.4048865 0.28879541 -0.94416732 5.533219e-39
1.4192439 0.30539083 -0.93981546 5.7129243e-39
1.430747 0.31028259 -0.95645106 4.981829e-39
1.2614424 0.38481688 -0.90187818 1.6035937e-38
1.2486705 0.40617731 -0.89379579 1.1802555e-38
1.2562989 0.40189654 -0.90732664 1.2356084e-38
1.2427011 0.4346841 -0.89747339 1.0695489e-38
1.2473384 0.46528164 -0.89889628 9.0356061e-39
1.2529957 0.47393942 -0.91285074 8.6661019e-39
1.2513558 0.48833025 -0.89142925 7.9306879e-39
1.2579178 0.49745905 -0.90666884 7.468265e-39
1.2694941 0.52377635 -0.90547901 8.665725e-39
1.2924803 0.55005002 -0.9095735 9.5873156e-39
1.4311578 0.14827983 -0.91629291 1.556985e-38
1.4205592 0.16564307 -0.91166663 1.3278393e-38
1.404526 0.203703 -0.91042644 9.8689695e-39
1.4113053 0.18781061 -0.91217029 1.1159338e-38
1.3939162 0.22555114 -0.90675819 8.1165239e-39
1.3827934 0.25286826 -0.90296268 6.7317734e-39
1.3913859 0.28327447 -0.90643454 5.2548314e-39
1.4080493 0.2987009 -0.92463732 5.9891833e-39
1.3968494 0.30392843 -0.89430928 5.9009113e-39
1.4158369 0.30919486 -0.91777176 5.5321302e-39
1.2439984 0.3853431 -0.85232311 1.5027183e-38
1.2713592 0.38719633 -0.87815398 1.6678039e-38
1.2321737 0.4079009 -0.85011095 1.1710728e-38
1.243498 0.40217894 -0.86918926 1.2264265e-38
1.2610244 0.39186051 -0.88210934 1.3372038e-38
1.2316518 0.42752147 -0.85210919 1.0788034e-38
1.2370975 0.43527159 -0.86786348 1.0511454e-38
1.2404144 0.46407458 -0.86604601 8.7593724e-39
1.2502484 0.4945111 -0.86940461 7.7448575e-39
1.2586683 0.51327705 -0.86738664 8.4824085e-39
1.2723964 0.52860212 -0.87692183 9.0345033e-39
1.2853986 0.54373211 -0.88375866 9.404355e-39
1.2906559 0.5513615 -0.88737327 1.0409513e-38
1.4243275 0.14711009 -0.89198834 1.5750295e-38
1.4112041 0.17448807 -0.86902517 1.1617445e-38
1.4218507 0.16325068 -0.88589054 1.3738643e-38
1.4009163 0.19701515 -0.87613326 1.0052278e-38
1.4166331 0.18390605 -0.89176983 1.2541195e-38
1.3794738 0.23651192 -0.8638835 7.8381349e-39
1.3894759 0.22371152 -0.87483251 8.2998362e-39
1.3789138 0.25139287 -0.86602783 7.2845996e-39
1.3828785 0.25793275 -0.87854749 7.2856744e-39
1.3799058 0.28039485 -0.86222923 7.190948e-39
1.3847864 0.28781971 -0.87613076 5.901291e-39
1.3901215 0.30785781 -0.86812931 6.2675582e-39
1.4080102 0.33070457 -0.86542511 1.6212673e-38
1.2370338 0.38387448 -0.82754326 1.4568043e-38
1.2441831 0.38315073 -0.84143984 1.4653737e-38
1.2293297 0.40276399 -0.8314724 1.2265348e-38
1.2387384 0.39408439 -0.84871912 1.3186953e-38
1.2325698 0.43348119 -0.83276421 1.0419974e-38
1.2387384 0.44593763 -0.84871912 9.7742488e-39
1.234834 0.46236873 -0.83014745 9.0366851e-39
1.2393208 0.46783119 -0.84648937 8.4842274e-39
1.2393495 0.48535043 -0.8226344 7.8370475e-39
1.2485698 0.49734417 -0.83934104 8.0214374e-39
1.2585909 0.52281022 -0.83760548 8.4824029e-39
1.4133644 0.16849051 -0.85349959 1.4470792e-38
1.4287688 0.17277797 -0.84530187 1.6593465e-38
1.4042583 0.19520839 -0.84898108 1.3556076e-38
1.4287688 0.18449174 -0.84530193 1.5582924e-38
1.3809345 0.22495843 -0.8410967 1.0052278e-38
1.389308 0.2118165 -0.85392994 9.0403159e-39
1.3755224 0.25479415 -0.83912307 7.9314124e-39
1.3792694 0.28285843 -0.84057724 6.5484695e-39
1.389308 0.29768807 -0.85392994 5.4410373e-39
1.3883543 0.30775046 -0.8298797 4.7956693e-39
1.3974588 0.31701574 -0.8476516 5.6236335e-39
1.4157048 0.34070826 -0.84189892 8.106761e-39
1.2305237 0.38443938 -0.80282402 1.5028307e-38
1.2204404 0.40990457 -0.78423011 1.2448647e-38
1.2248651 0.40377772 -0.80175418 1.2357184e-38
1.2248642 0.435137 -0.79933137 1.0235226e-38
1.228963 0.46523476 -0.80106395 9.0370425e-39
1.2340231 0.49455342 -0.80167395 7.8374063e-39
1.2406709 0.51326358 -0.80306405 7.5611725e-39
1.2472552 0.51593947 -0.81610835 7.8370307e-39
1.4239757 0.16327339 -0.83595252 1.6213068e-38
1.4436902 0.17184541 -0.83516264 1.6681297e-38
1.4636669 0.17702019 -0.83040005 1.6774205e-38
1.4063092 0.20022383 -0.81875956 1.3281667e-38
1.4430418 0.18764354 -0.82521194 1.5216319e-38
1.3830453 0.22413817 -0.81104392 1.1713615e-38
1.3994341 0.2118165 -0.81515694 1.2542667e-38
1.3776988 0.25508979 -0.80809468 9.1314101e-39
1.3788821 0.28568742 -0.80971986 7.1942089e-39
1.3831964 0.31345937 -0.80807567 5.8098269e-39
1.3996742 0.32418162 -0.8280887 4.8849937e-39
1.3945947 0.34004524 -0.80598509 8.296169e-39
1.4078116 0.34420228 -0.82166493 6.8189187e-39
1.2224522 0.38470796 -0.76708919 1.3464983e-38
1.2331833 0.37886468 -0.77154869 1.5854079e-38
1.216949 0.40446782 -0.76457399 1.2264627e-38
1.2172254 0.43457431 -0.76474351 1.0420341e-38
1.2270346 0.42693579 -0.78272468 1.0972437e-38
1.2181593 0.46445391 -0.76467615 9.1292381e-39
1.2270346 0.46505505 -0.78272468 9.5884296e-39
1.2201369 0.48517707 -0.7641201 8.3887906e-39
1.2310361 0.49847823 -0.77531928 8.2065433e-39
1.2407631 0.51259941 -0.77698791 8.297297e-39
1.2724017 0.52939403 -0.77324778 8.849382e-39
1.4123797 0.20075551 -0.78840095 1.3834839e-38
1.4478505 0.18854654 -0.79654866 1.53989e-38
1.3904705 0.22422118 -0.78299475 1.2082407e-38
1.4073902 0.2118165 -0.78469259 1.3374229e-38
1.3761171 0.25982961 -0.7659269 8.4857002e-39
1.380078 0.25436044 -0.7820763 9.7767851e-39
1.3765213 0.29100919 -0.76437992 7.7473896e-39
1.3796108 0.28595626 -0.78025109 7.6555598e-39
1.3765213 0.30500001 -0.76437992 7.3796959e-39
1.3802985 0.31569478 -0.78002739 6.5484863e-39
1.3881943 0.3441878 -0.78231478 6.1782479e-39
1.2216233 0.3804591 -0.7353766 1.3373516e-38
1.2451385 0.3751002 -0.74348038 1.4472623e-38
1.2783293 0.37651375 -0.7446146 1.6402175e-38
1.3941493 0.36926466 -0.77652574 9.672642e-39
1.2046103 0.40533575 -0.71820486 1.1619986e-38
1.2124311 0.40247428 -0.73589545 1.1712174e-38
1.2043328 0.43774065 -0.71926767 9.4980346e-39
1.2123762 0.4333249 -0.73716199 1.0143761e-38
1.203702 0.46330509 -0.72168314 8.9448594e-39
1.211954 0.46449625 -0.73933357 9.0366893e-39
1.2211834 0.49259412 -0.73577064 7.9285187e-39
1.2462426 0.52222383 -0.73588961 8.9390581e-39
1.2643185 0.5242734 -0.75670892 8.1103862e-39
1.4240572 0.20063831 -0.75956953 1.4940828e-38
1.4491366 0.18964648 -0.77654767 1.6316852e-38
1.3962458 0.22443546 -0.75285703 1.2636307e-38
1.4148643 0.2118165 -0.75607443 1.3742657e-38
1.3801105 0.25835663 -0.74923909 1.0331767e-38
1.3875384 0.25082853 -0.74989605 1.0607637e-38
1.3762878 0.2856788 -0.74504787 7.9332383e-39
1.3749324 0.31328332 -0.74294972 7.010196e-39
1.3846154 0.32186055 -0.76108909 6.7321489e-39
1.3796968 0.33928624 -0.73985386 5.8105541e-39
1.3884218 0.34816188 -0.75574756 5.8130807e-39
1.2099816 0.38352844 -0.6951648 1.5125945e-38
1.2218245 0.37588483 -0.70803934 1.4018887e-38
1.2537339 0.37198097 -0.70977849 1.39227e-38
1.2714952 0.37334311 -0.72329301 1.539016e-38
1.3931746 0.37339646 -0.75337934 6.2715351e-39
1.2052046 0.40422884 -0.7015028 1.2634855e-38
1.2103355 0.39195597 -0.71607029 1.5771307e-38
1.2015188 0.43446746 -0.70006114 1.1066081e-38
1.2008544 0.46423152 -0.69951272 9.1303297e-39
1.2049654 0.48503304 -0.69639921 8.760436e-39
1.2194997 0.49784711 -0.70802271 7.9274327e-39
1.2396214 0.51364589 -0.71078521 8.1111037e-39
1.2503716 0.5264135 -0.71658427 8.8493806e-39
1.4291284 0.20277001 -0.73146838 1.576949e-38
1.4020802 0.22610722 -0.72290957 1.2821786e-38
1.4225794 0.2118165 -0.72653317 1.4297272e-38
1.3869462 0.26056004 -0.71786642 1.0239941e-38
1.3942991 0.24661922 -0.72400928 1.1253015e-38
1.3766094 0.28585753 -0.71523386 8.3960255e-39
1.3661585 0.3159098 -0.70116526 7.1960348e-39
1.3698784 0.31379253 -0.71602249 7.5633781e-39
1.3295908 0.35921833 -0.6908012 5.1677169e-39
1.3669529 0.33005506 -0.69812387 5.6323034e-39
1.3753074 0.34496659 -0.71457416 6.1807814e-39
1.2129942 0.3819761 -0.6735698 1.5126304e-38
1.23519 0.37338647 -0.67882383 1.3928498e-38
1.2623172 0.37044123 -0.68568003 1.2820708e-38
1.2867112 0.36524895 -0.69141346 1.0882784e-38
1.3239542 0.36579555 -0.69542313 7.3818651e-39
1.3864679 0.36480275 -0.72035831 5.2602783e-39
1.3923105 0.37105322 -0.73162472 5.7226927e-39
1.2024145 0.4043493 -0.66985554 1.355718e-38
1.1982427 0.43401432 -0.6693756 1.1528515e-38
1.1976516 0.46510667 -0.66792738 9.129978e-39
1.1177504 0.50935656 -0.63921839 1.252603e-38
1.2108357 0.48826173 -0.67326188 8.2061986e-39
1.228592 0.50291747 -0.68065131 7.7423155e-39
1.0955001 0.53342479 -0.6343835 1.1786286e-38
1.1105589 0.5247789 -0.64538562 1.3720581e-38
1.2402964 0.51821721 -0.6795671 7.8348811e-39
1.2603413 0.53636694 -0.6828956 8.8486659e-39
1.0865805 0.5417248 -0.62797296 1.6861289e-38
1.2611101 0.54069722 -0.67203659 9.4918451e-39
1.4340771 0.2046289 -0.70328593 1.6409415e-38
1.3977332 0.23504588 -0.68315917 1.3189489e-38
1.4105674 0.2248676 -0.69403827 1.3467155e-38
1.4298123 0.2118165 -0.69883823 1.5401814e-38
1.3870322 0.2536419 -0.68724561 1.1161541e-38
1.3998871 0.24174678 -0.70261371 1.1620722e-38
1.3707693 0.2875672 -0.67913783 9.225789e-39
1.3773792 0.27703086 -0.69022149 9.5949288e-39
1.3644145 0.3135938 -0.68090343 8.026164e-39
1.2575238 0.35929909 -0.64223671 1.2085679e-38
1.314412 0.35331741 -0.65394205 7.381519e-39
1.3261236 0.35384724 -0.6714285 6.3651993e-39
1.3638878 0.34156114 -0.68057531 6.1822458e-39
1.3747329 0.35093945 -0.69603676 6.2726225e-39
1.2134433 0.3803702 -0.64072841 1.5679109e-38
1.2404315 0.36899683 -0.64796138 1.3835946e-38
1.2654387 0.36662751 -0.66139948 1.2822877e-38
1.3030288 0.36592513 -0.66428649 9.6864238e-39
1.3213543 0.36572111 -0.67484939 8.6722635e-39
1.2036979 0.40589198 -0.63912725 1.3464986e-38
1.1958023 0.44430089 -0.62925017 1.1158999e-38
1.1991235 0.43344083 -0.63806456 1.2265718e-38
1.1958023 0.45395964 -0.62925017 1.0882774e-38
1.2007852 0.46508527 -0.6415565 9.4998395e-39
1.1003628 0.50811499 -0.61213672 1.3907894e-38
1.1097639 0.50636327 -0.62626749 1.3447984e-38
1.2164109 0.49410102 -0.6402297 7.5608208e-39
1.2287287 0.50471199 -0.65751505 7.8356014e-39
1.0919161 0.52650058 -0.61075914 1.2799379e-38
1.226469 0.5140844 -0.63450754 8.1129282e-39
1.2391369 0.52387208 -0.64932013 7.8363245e-39
1.2578579 0.53875226 -0.66470158 8.752499e-39
1.0815663 0.5600642 -0.59572554 1.3629127e-38
1.0871334 0.55434984 -0.61002612 1.2892277e-38
1.256245 0.54147887 -0.64713299 8.019271e-39
1.2632291 0.54788375 -0.65073085 8.568842e-39
1.0907458 0.57870162 -0.60569251 1.2151826e-38
1.4445349 0.2074789 -0.68401879 1.6220309e-38
1.4006276 0.23737065 -0.66020435 1.3558996e-38
1.4205689 0.22671928 -0.66570419 1.5126662e-38
1.4373667 0.21436083 -0.6699124 1.6139351e-38
1.3913254 0.25513309 -0.65862364 1.2269694e-38
1.3704922 0.29068801 -0.65325683 9.2265134e-39
1.385368 0.27505493 -0.6553154 1.0702006e-38
1.3100427 0.32944953 -0.62318289 6.7357825e-39
1.3453256 0.32299817 -0.63530129 7.3800575e-39
1.3574913 0.31435594 -0.65141809 8.396387e-39
1.3083916 0.34696177 -0.63315892 7.4729902e-39
1.3431386 0.33241102 -0.63892645 6.5524604e-39
1.3589804 0.33700672 -0.65829617 7.1953145e-39
1.2167963 0.37704447 -0.61167598 1.5034109e-38
1.2509208 0.36448142 -0.62182885 1.3468244e-38
1.2756878 0.36193579 -0.62848639 1.1254471e-38
1.3022954 0.36229652 -0.64334977 8.2098434e-39
1.2045479 0.40244648 -0.59576297 1.4018528e-38
1.2062602 0.40527499 -0.61192334 1.3926316e-38
1.2011421 0.43965894 -0.60385799 1.2264994e-38
1.2048906 0.431701 -0.61423701 1.3372412e-38
1.2003125 0.46394148 -0.60687572 1.0698391e-38
1.204283 0.46884245 -0.61656469 1.1250829e-38
1.0882262 0.50954866 -0.57022488 1.501568e-38
1.1000074 0.50675637 -0.58183759 1.4830893e-38
1.2143885 0.49571595 -0.61018986 8.9441238e-39
1.0837755 0.52705795 -0.57529926 1.4274873e-38
1.095066 0.51411915 -0.58387375 1.3815694e-38
1.2291392 0.52253741 -0.61203402 7.6526549e-39
1.237921 0.53231686 -0.62495619 8.204021e-39
1.0809757 0.55440187 -0.57556069 1.3351814e-38
1.2459508 0.54603881 -0.61757678 9.7673642e-39
1.2642795 0.55400002 -0.64011347 1.1326064e-38
1.0825089 0.57799983 -0.57556802 1.2613519e-38
1.0871989 0.57563668 -0.59394604 1.1134797e-38
1.4132886 0.23504588 -0.62359732 1.5036625e-38
1.4267591 0.22814557 -0.63797522 1.5679466e-38
1.4452425 0.21944952 -0.63975567 1.6412661e-38
1.4005128 0.25324011 -0.62912118 1.2914346e-38
1.4162242 0.24174678 -0.64005864 1.3745175e-38
1.3235205 0.29932842 -0.59532106 7.5590579e-39
1.3451335 0.29437798 -0.61018217 9.5031059e-39
1.3765352 0.28356591 -0.62482822 1.033359e-38
1.3934858 0.27238271 -0.62423074 1.1625403e-38
1.299366 0.32528806 -0.59283024 8.1234141e-39
1.3152645 0.31580368 -0.60318875 7.9317893e-39
1.3416806 0.31087047 -0.62313932 7.1971124e-39
1.2603503 0.35796392 -0.58590263 1.2363337e-38
1.2934923 0.34655312 -0.59571266 7.8424958e-39
1.3014364 0.34278622 -0.6106264 7.2900339e-39
1.2122767 0.38634861 -0.56616962 1.3004026e-38
1.2211207 0.37508368 -0.58307642 1.4389466e-38
1.2509815 0.36227012 -0.59130388 1.3284209e-38
1.2780511 0.36062384 -0.60980737 1.0888577e-38
1.2054029 0.40648165 -0.57690084 1.3465703e-38
1.2128577 0.39543432 -0.58373195 1.4850078e-38
1.2008632 0.43447226 -0.57909197 1.2358252e-38
1.2042459 0.46469954 -0.57953167 1.0514698e-38
1.11362 0.50860792 -0.56137455 1.3726363e-38
1.2084061 0.4846724 -0.57659239 1.0145551e-38
1.2183948 0.50033587 -0.58330733 7.653022e-39
1.0891564 0.53026712 -0.5474419 1.6303172e-38
1.105707 0.51607126 -0.55233496 1.5843644e-38
1.1311709 0.51252842 -0.55287361 1.4186614e-38
1.2328022 0.52631134 -0.58377373 7.007647e-39
1.2404245 0.53583854 -0.60085934 7.5590089e-39
1.0861853 0.5560202 -0.54723501 1.491841e-38
1.2515137 0.55607551 -0.59049809 9.1245157e-39
1.089951 0.57998639 -0.54845178 1.3996804e-38
1.4346501 0.23290898 -0.60999298 1.6877628e-38
1.4074421 0.25585672 -0.60054165 1.3929567e-38
1.4291918 0.24323608 -0.60425735 1.6323748e-38
1.3074117 0.29775044 -0.56202316 1.2922955e-38
1.3265775 0.29063323 -0.57471097 9.8690032e-39
1.3435256 0.28979269 -0.58995432 1.0238158e-38
1.3865374 0.28145921 -0.59543264 1.1441016e-38
1.4000694 0.27159318 -0.59902221 1.2731029e-38
1.300035 0.31814787 -0.56906819 8.3027607e-39
1.3110878 0.30766118 -0.58224565 8.5786063e-39
1.2443162 0.35950828 -0.54638314 1.1902364e-38
1.268944 0.35590217 -0.55992311 1.1718322e-38
1.2888637 0.34348583 -0.57028997 8.3949521e-39
1.2126279 0.38768584 -0.55690908 1.3005451e-38
1.2279269 0.37256113 -0.55318207 1.2545206e-38
1.257771 0.36064586 -0.56708795 1.2176785e-38
1.2092758 0.40501249 -0.5475083 1.2173514e-38
1.2230073 0.39266422 -0.54486877 1.5218097e-38
1.2057816 0.43411797 -0.54696673 1.2264621e-38
1.2060207 0.46469069 -0.54834992 1.0420337e-38
1.2132009 0.48994356 -0.5440799 7.1931299e-39
1.2206242 0.5025664 -0.55540699 8.2991047e-39
1.0998275 0.53396386 -0.5197736 1.5383377e-38
1.115868 0.52412641 -0.52626425 1.5199712e-38
1.13147 0.51540548 -0.54315424 1.391253e-38
1.2347687 0.52546853 -0.55540246 7.2835136e-39
1.093486 0.55332118 -0.5184266 1.4828381e-38
1.2495768 0.54374313 -0.54602754 8.2058216e-39
1.2603981 0.55439806 -0.5627898 8.2054531e-39
1.0959179 0.57866818 -0.52268201 1.4643249e-38
1.4373946 0.23494458 -0.58669966 1.6504856e-38
1.3990812 0.26904148 -0.56402332 1.328313e-38
1.4162254 0.25895861 -0.56925958 1.4574933e-38
1.433604 0.24670796 -0.58043587 1.6324468e-38
1.3121163 0.29712459 -0.5440082 1.2914318e-38
1.3321422 0.29097587 -0.54952258 9.8718758e-39
1.3557924 0.28323781 -0.55189002 1.0242825e-38
1.3928431 0.27709624 -0.56840974 1.2454809e-38
1.3024721 0.31499845 -0.54100293 8.5807853e-39
1.2525705 0.35709324 -0.52557129 9.3205125e-39
1.2752738 0.34592521 -0.53279209 9.6889391e-39
1.2902861 0.33485109 -0.54357904 1.0149563e-38
1.2219549 0.38603559 -0.51997828 1.2542651e-38
1.234707 0.37090689 -0.52392793 1.1346654e-38
1.2133594 0.40497681 -0.51762295 1.1528512e-38
1.2061746 0.43422562 -0.51444483 1.226715e-38
1.2088844 0.46511009 -0.51540005 1.0880955e-38
1.2165035 0.49205539 -0.51987362 8.0228821e-39
1.2294822 0.50762409 -0.52007669 6.8265025e-39
1.1059667 0.53083593 -0.48764038 1.3172479e-38
1.1182297 0.52652991 -0.5020383 1.2895528e-38
1.2388499 0.5251177 -0.52488947 7.1002056e-39
1.0965365 0.5542469 -0.48739767 1.3078838e-38
1.2515335 0.54504097 -0.52974141 7.6533681e-39
1.2722323 0.55321741 -0.52754515 8.3912849e-39
1.0941278 0.57437909 -0.486743 1.353727e-38
1.4073404 0.26929322 -0.53793901 1.2271854e-38
1.4247855 0.25803953 -0.54489964 1.4666766e-38
1.4368232 0.24736881 -0.56118482 1.5956413e-38
1.317632 0.29947156 -0.52288985 1.1619281e-38
1.3426332 0.29511556 -0.5221383 9.2250785e-39
1.3655051 0.28482109 -0.52657223 9.3208783e-39
1.3952205 0.27681911 -0.53448319 1.1256982e-38
1.2898494 0.32685137 -0.51186472 8.2123573e-39
1.3090062 0.31623188 -0.51487684 8.8570092e-39
1.3318428 0.31001753 -0.50865966 9.9644162e-39
1.2588224 0.35685176 -0.50271106 8.6744243e-39
1.278438 0.34357357 -0.50345409 8.8584512e-39
1.3042288 0.33286238 -0.50033879 9.5942296e-39
1.2259871 0.38551241 -0.49388495 9.4044391e-39
1.2426015 0.3717289 -0.49236932 9.7786026e-39
1.2217076 0.40491509 -0.48993367 1.1346639e-38
1.2046572 0.44553027 -0.48057854 1.1529215e-38
1.211718 0.43180403 -0.48619232 1.1899091e-38
1.2108928 0.46345013 -0.48553574 1.005192e-38
1.2248851 0.49095121 -0.49019006 7.0080071e-39
1.235992 0.50707012 -0.49515066 6.3611958e-39
1.1112846 0.53518295 -0.46059874 1.2621106e-38
1.1225008 0.52956194 -0.46453017 9.4878948e-39
1.2482611 0.5210858 -0.49829954 6.7321335e-39
1.2673725 0.53663117 -0.50558996 6.0860452e-39
1.1013155 0.55423802 -0.4583376 1.3630928e-38
1.2787094 0.54462856 -0.50627774 6.7274476e-39
1.3001323 0.56324863 -0.51866198 9.8631584e-39
1.1023049 0.57745337 -0.45659518 1.2801859e-38
1.4072468 0.26567864 -0.51048207 1.0978939e-38
1.4304948 0.26416972 -0.52011913 1.1898735e-38
1.4472411 0.26423487 -0.52129465 1.3468905e-38
1.3502306 0.29731923 -0.50492018 8.8562946e-39
1.3765042 0.28872886 -0.50028634 9.0432068e-39
1.3971355 0.27485636 -0.50412416 1.0239941e-38
1.4379314 0.27493089 -0.50417626 1.3188377e-38
1.2617478 0.32427961 -0.45984983 8.0283304e-39
1.2888051 0.31356111 -0.46705651 8.5818363e-39
1.3173877 0.32660109 -0.49374855 8.9466699e-39
1.3449416 0.31584466 -0.49615052 8.7647982e-39
1.3743496 0.30752435 -0.49384871 6.090755e-39
1.2325423 0.34995687 -0.45518062 8.4878666e-39
1.2491319 0.34132376 -0.46490774 8.7676905e-39
1.2818513 0.35097003 -0.48642668 8.1212393e-39
1.3075286 0.33649233 -0.49166107 1.1073304e-38
1.208854 0.38004884 -0.44784674 8.6729739e-39
1.2246301 0.37164554 -0.46066943 7.1056426e-39
1.2413818 0.37084952 -0.47451293 8.7655157e-39
1.1974307 0.40406492 -0.44522271 8.3953052e-39
1.2238353 0.40528643 -0.4701598 9.6874692e-39
1.197422 0.43540013 -0.44892126 8.4867666e-39
1.2153215 0.42668137 -0.46876583 9.1343038e-39
1.1987348 0.46440277 -0.44948176 7.9321494e-39
1.2143397 0.47231007 -0.46922749 8.115812e-39
1.2007954 0.49504292 -0.44438452 6.5484807e-39
1.2225926 0.49742046 -0.46589464 5.8105471e-39
1.1197941 0.53600228 -0.43528011 1.142257e-38
1.1281788 0.53272349 -0.43929499 8.106761e-39
1.1996599 0.51502377 -0.44035161 7.0976762e-39
1.2302384 0.51379633 -0.46771321 5.7204857e-39
1.1098611 0.5531441 -0.42809442 1.3448696e-38
1.1084483 0.57875532 -0.42783776 1.1972831e-38
1.3021903 0.29723734 -0.44680318 1.0888194e-38
1.3243983 0.2909908 -0.44864422 9.5949344e-39
1.3435601 0.28000733 -0.44735548 6.902579e-39
1.3854065 0.29238716 -0.48103929 7.7506603e-39
1.4097618 0.28658593 -0.48276073 1.0150977e-38
1.440111 0.28306851 -0.49121279 1.2083111e-38
1.2653135 0.32089987 -0.43932962 1.0888205e-38
1.2911829 0.30537289 -0.44566217 1.0980037e-38
1.383782 0.3029229 -0.48330218 2.677028e-39
1.2402498 0.34677094 -0.43282118 1.134846e-38
1.257231 0.33269173 -0.42371905 1.1903078e-38
1.2132138 0.37922907 -0.43509504 1.1717239e-38
1.2336868 0.37428918 -0.42773783 1.1717236e-38
1.2083845 0.40738672 -0.42631641 1.1716874e-38
1.2313936 0.40194976 -0.41876855 1.2362242e-38
1.200501 0.43505353 -0.42109445 1.1162252e-38
1.1993084 0.46413869 -0.42107904 9.9626239e-39
1.2066292 0.49552575 -0.42508715 9.1332192e-39
1.1322002 0.53554344 -0.3986823 1.0042153e-38
1.1372738 0.53565133 -0.41276112 8.7539227e-39
1.2091154 0.52323329 -0.42416734 8.0250681e-39
1.1178774 0.55201292 -0.39975503 1.3080639e-38
1.2175757 0.54795361 -0.42369318 8.2065671e-39
1.2263585 0.56614494 -0.41331419 8.2962236e-39
1.1129938 0.58053356 -0.39749166 1.2525635e-38
1.3376082 0.29588518 -0.43452781 1.1902007e-38
1.3585393 0.28826526 -0.43209231 1.1993118e-38
1.3818733 0.28005576 -0.42887449 1.3373149e-38
1.2794559 0.32053253 -0.41908827 1.1995626e-38
1.3008964 0.31189018 -0.41244808 1.236369e-38
1.3309708 0.30282465 -0.42545685 1.2456606e-38
1.3507665 0.30074865 -0.41976172 1.1810166e-38
1.2513269 0.35254312 -0.41664529 1.125519e-38
1.2718854 0.34447929 -0.41015041 1.263991e-38
1.2918264 0.33489907 -0.40404063 1.2178217e-38
1.2432811 0.37896395 -0.40253118 1.1164791e-38
1.2631831 0.36539656 -0.4023422 1.2455165e-38
1.2297193 0.40617245 -0.38461557 9.0428438e-39
1.2328128 0.40510088 -0.40034989 9.8725947e-39
1.2204854 0.43744668 -0.3973814 1.1255173e-38
1.2298002 0.42401654 -0.40013558 1.0794199e-38
1.2082468 0.46508738 -0.39148325 1.0978945e-38
1.199463 0.48049906 -0.38965863 9.8689962e-39
1.2086647 0.49321705 -0.39251745 8.8559064e-39
1.1339093 0.53616005 -0.3735373 1.0872631e-38
1.1454372 0.53704041 -0.37095028 9.674828e-39
1.2228628 0.5208391 -0.40295452 7.0105533e-39
1.2370477 0.53120816 -0.39737955 6.6432085e-39
1.1114194 0.56497121 -0.36005604 1.261785e-38
1.121951 0.55210108 -0.37030664 1.2435993e-38
1.2236526 0.55061561 -0.40784466 7.8406685e-39
1.2362194 0.55498785 -0.39605111 7.0112665e-39
1.1108112 0.57954848 -0.36423239 1.2893344e-38
1.115604 0.5863899 -0.3728523 1.2432726e-38
1.2341126 0.57071561 -0.40341088 7.5622711e-39
1.3392525 0.29521558 -0.39294499 1.227222e-38
1.3683186 0.29500547 -0.40795887 1.1716879e-38
1.396004 0.28898567 -0.41909137 1.1807632e-38
1.4251354 0.28478274 -0.41621348 1.2634862e-38
1.4516338 0.28518164 -0.4134542 1.4941544e-38
1.2897381 0.32995963 -0.37246245 1.0428669e-38
1.3138911 0.31911355 -0.38920555 1.1164796e-38
1.3332794 0.30565646 -0.38869771 1.1256268e-38
1.3735025 0.30258167 -0.41581172 1.1719772e-38
1.2798595 0.34652978 -0.38162243 9.966612e-39
1.2993435 0.33283302 -0.39207706 1.0980772e-38
1.2576362 0.38064393 -0.37406552 1.0427582e-38
1.2677978 0.36695513 -0.38325858 1.0334304e-38
1.2306604 0.40781066 -0.36800778 1.0334669e-38
1.243826 0.39340425 -0.36951491 1.1165873e-38
1.2249327 0.434517 -0.36545303 8.488577e-39
1.2241707 0.46659809 -0.36620012 9.687479e-39
1.2079272 0.49936482 -0.35724932 9.4105375e-39
1.2123629 0.49228951 -0.3628791 1.0055904e-38
1.1371098 0.53559512 -0.34200823 1.0964474e-38
1.2203774 0.5167737 -0.36300254 6.9183535e-39
1.2444257 0.53292412 -0.37471431 6.4566452e-39
1.1157579 0.55795807 -0.33779106 1.3079193e-38
1.1270182 0.54487228 -0.34160987 1.2252689e-38
1.2504356 0.55590695 -0.37355706 5.9967559e-39
1.1141196 0.57999504 -0.33863619 1.317028e-38
1.1213369 0.59403306 -0.34846464 1.2341957e-38
1.2475232 0.57334316 -0.3685509 6.7346698e-39
1.1290935 0.6016022 -0.34409302 1.2432359e-38
1.354214 0.29474095 -0.36698654 1.1533217e-38
1.3628865 0.2897298 -0.37335405 1.1717967e-38
1.4623148 0.28961921 -0.4004904 1.3283449e-38
1.4808624 0.29796696 -0.39255816 1.2826453e-38
1.2965583 0.32748652 -0.35548061 1.042759e-38
1.3164629 0.31564313 -0.35933995 1.0519784e-38
1.3398323 0.30496073 -0.36942163 1.1442822e-38
1.4654793 0.30101284 -0.40001389 9.8729702e-39
1.4808624 0.30358899 -0.39255816 1.0889279e-38
1.2660148 0.35241541 -0.34374234 9.4134298e-39
1.2794321 0.34020174 -0.35408354 1.0058802e-38
1.2440405 0.3872807 -0.3297796 8.6729851e-39
1.2564447 0.37574053 -0.34597018 8.951723e-39
1.2338179 0.40693781 -0.33758396 9.5041835e-39
1.2474797 0.39573672 -0.34975466 9.6892894e-39
1.2219127 0.43360046 -0.33613226 9.5945645e-39
1.2272937 0.46632966 -0.33756152 8.3960129e-39
1.212036 0.50538617 -0.3343209 8.8577281e-39
1.2210685 0.4917165 -0.33556488 9.1350283e-39
1.1391687 0.53606737 -0.3140043 1.1516929e-38
1.2146401 0.51515043 -0.33154541 7.7502903e-39
1.2251574 0.52632296 -0.33656612 6.7353957e-39
1.2527474 0.53949726 -0.35184443 6.5506191e-39
1.1209204 0.55497581 -0.30903098 1.3448338e-38
1.12993 0.54323888 -0.31556198 1.2806213e-38
1.2582448 0.5586018 -0.34650916 5.4421388e-39
1.1201668 0.58169562 -0.31087044 1.3354316e-38
1.1322142 0.59833759 -0.30681571 1.2894769e-38
1.2565684 0.57622808 -0.34545806 6.6410407e-39
1.1390979 0.60572481 -0.30420244 1.2432717e-38
1.3380846 0.29857248 -0.33376828 1.1626124e-38
1.3549278 0.29449722 -0.34248769 1.2178941e-38
1.3766686 0.29000732 -0.34696528 1.2639915e-38
1.4769244 0.29380733 -0.37993506 1.3829735e-38
1.4829934 0.29796696 -0.38439879 1.3006864e-38
1.2976325 0.32256129 -0.32257122 9.9658805e-39
1.3213794 0.30825683 -0.33258715 1.0611254e-38
1.4837036 0.30358899 -0.381679 1.1992021e-38
1.2523944 0.3589431 -0.29779193 1.0703397e-38
1.2678959 0.34723052 -0.3163887 9.4119781e-39
1.283832 0.33329174 -0.31856617 9.0421278e-39
1.2483091 0.37780565 -0.30683905 8.2130635e-39
1.2557735 0.36920425 -0.32047087 9.4119725e-39
1.2336788 0.4038634 -0.30800754 8.6725956e-39
1.2269127 0.43616498 -0.30603904 8.8569798e-39
1.2244523 0.4663659 -0.29114789 7.7506112e-39
1.227228 0.46668041 -0.30852112 7.4718888e-39
1.221469 0.49922481 -0.30083209 7.3804232e-39
1.225569 0.49076584 -0.31092557 7.8424776e-39
1.1448464 0.53706878 -0.28535703 1.1426168e-38
1.1735724 0.53993392 -0.27904981 6.3626798e-39
1.2180688 0.51866198 -0.30145589 6.8272424e-39
1.225163 0.53104347 -0.3103812 6.9183422e-39
1.1271565 0.55601865 -0.28027427 1.4000789e-38
1.1419903 0.54358166 -0.27993602 1.2529276e-38
1.1763428 0.5417248 -0.2842716 6.2697526e-39
1.2675123 0.56090307 -0.3185387 4.796398e-39
1.1272761 0.58374786 -0.27859432 1.3722379e-38
1.2660974 0.57583666 -0.31674471 5.6268888e-39
1.3363351 0.29662386 -0.30485016 1.0147029e-38
1.3611606 0.29417047 -0.30980796 1.2269315e-38
1.3777778 0.29327887 -0.32227111 1.35615e-38
1.2879367 0.32839632 -0.27646628 9.9669399e-39
1.3021613 0.31842771 -0.29141498 8.1197987e-39
1.3267407 0.30349383 -0.30201286 9.1336003e-39
1.2574664 0.35717201 -0.27837083 7.3797212e-39
1.2705618 0.34305501 -0.28519517 8.3048976e-39
1.2891402 0.33269173 -0.3015382 1.0795605e-38
1.2479209 0.37519974 -0.27987066 7.380426e-39
1.2586813 0.3600587 -0.28954974 8.2094846e-39
1.2309276 0.40846878 -0.2642335 5.7219935e-39
1.235371 0.40377045 -0.27784035 7.7484827e-39
1.2265375 0.4372856 -0.26911426 7.379333e-39
1.2317483 0.42930412 -0.28186849 7.4715272e-39
1.2227014 0.4642266 -0.27177328 6.7336077e-39
1.2247962 0.49483639 -0.27142411 5.8120031e-39
1.2306014 0.49438533 -0.28625944 5.9038358e-39
1.1430708 0.53672665 -0.24624935 8.5804223e-39
1.1574489 0.53537029 -0.25768083 8.6700802e-39
1.1789827 0.53421897 -0.26009285 5.349583e-39
1.2242485 0.52462775 -0.27249557 5.904919e-39
1.1340723 0.55347288 -0.24869353 9.7742474e-39
1.2270286 0.54470825 -0.2692695 4.7027759e-39
1.2678276 0.5633688 -0.29410225 4.9800634e-39
1.1340559 0.58324379 -0.24854951 1.014302e-38
1.2773701 0.57411379 -0.29713866 4.2428711e-39
1.1410363 0.60058719 -0.25720635 1.1337233e-38
1.1529922 0.60469729 -0.243086 1.2443945e-38
1.3414881 0.29507151 -0.27178878 1.0148453e-38
1.3570064 0.29072294 -0.28506073 1.309507e-38
1.2848984 0.32684121 -0.25512084 9.0438976e-39
1.3094697 0.31280288 -0.26389748 8.4893015e-39
1.3339344 0.3001101 -0.28634009 1.1254788e-38
1.2619035 0.35244113 -0.24950905 7.6573772e-39
1.2749377 0.33858392 -0.25850615 8.1194358e-39
1.2488374 0.37518069 -0.24884124 7.9357564e-39
1.2348803 0.40832725 -0.24341741 7.8421104e-39
1.2396094 0.39849469 -0.25440696 7.658808e-39
1.2242036 0.43423265 -0.24178544 7.103102e-39
1.2222524 0.46513107 -0.2411066 6.6424868e-39
1.1677859 0.50635356 -0.21810016 8.5807713e-39
1.1891471 0.5068379 -0.22732888 5.4414185e-39
1.2239106 0.4954305 -0.24203597 5.627972e-39
1.1425397 0.52989119 -0.21627139 8.2101853e-39
1.1629516 0.52368981 -0.2298958 6.7343307e-39
1.1860167 0.51712847 -0.23535807 4.70315e-39
1.2266864 0.5223344 -0.24601834 5.4435779e-39
1.1352448 0.55443454 -0.21807769 8.9480992e-39
1.2227207 0.54226053 -0.25311545 5.3521095e-39
1.1379727 0.58381307 -0.21874022 9.9589861e-39
1.1501615 0.59833759 -0.23809496 1.1612761e-38
1.1461388 0.60197943 -0.21550651 1.1156417e-38
1.1546075 0.60601395 -0.23373525 1.2902013e-38
1.3496788 0.29296196 -0.2456625 1.1806877e-38
1.2905345 0.32675272 -0.22804469 8.5811356e-39
1.315987 0.31177098 -0.23548104 9.2268652e-39
1.3411347 0.30137983 -0.23700434 6.4563664e-39
1.2635396 0.34725082 -0.21960005 7.9353991e-39
1.2795262 0.33704221 -0.23311816 8.0275975e-39
1.2398217 0.37870574 -0.21033284 7.1049125e-39
1.2492003 0.37170643 -0.22420885 7.0116435e-39
1.2288127 0.40520239 -0.21282902 7.288222e-39
1.2153414 0.43901837 -0.20222212 6.8250858e-39
1.2208071 0.43251219 -0.21368115 7.1945816e-39
1.2157885 0.45895913 -0.20051061 7.2874849e-39
1.219781 0.4674165 -0.21440916 6.08859e-39
1.151407 0.5057382 -0.18478154 8.9495552e-39
1.1738058 0.50278997 -0.19900744 8.1190687e-39
1.2039148 0.5029431 -0.20442231 4.6127242e-39
1.222096 0.49407348 -0.21207431 5.1666309e-39
1.1306167 0.53663486 -0.174422 6.6431959e-39
1.1419338 0.52416652 -0.18970045 8.025787e-39
1.1602933 0.51311922 -0.20721447 8.9477531e-39
1.2266351 0.51361835 -0.22229709 4.3368618e-39
1.1350923 0.55532908 -0.18863955 8.2083622e-39
1.1387612 0.58416468 -0.18718533 9.8657045e-39
1.1466981 0.60142475 -0.1929843 1.1705989e-38
1.3595568 0.29531634 -0.21989082 1.1160447e-38
1.3815279 0.29334271 -0.21711101 1.2635908e-38
1.2970001 0.32384709 -0.1976908 9.3179762e-39
1.3240037 0.31008482 -0.20715432 9.3183405e-39
1.3518819 0.3001101 -0.217619 9.9640729e-39
1.2508898 0.35814586 -0.17790459 8.1208651e-39
1.2685375 0.34530383 -0.19213226 8.304899e-39
1.2850183 0.33163303 -0.18870464 8.5822034e-39
1.2247282 0.38723671 -0.16627993 9.6899761e-39
1.240461 0.37493935 -0.18419853 7.3815008e-39
1.2536345 0.36151925 -0.19806524 9.2268371e-39
1.2192883 0.40730429 -0.17259806 7.2882178e-39
1.2269667 0.40016261 -0.18738997 7.6584366e-39
1.2128812 0.43565741 -0.17728902 7.0109036e-39
1.2234355 0.42272294 -0.1910166 7.934655e-39
1.215274 0.46494892 -0.17892526 5.9953097e-39
1.1605535 0.50484782 -0.16202739 8.0250752e-39
1.1777482 0.49776849 -0.16982357 6.641775e-39
1.2207006 0.49314132 -0.17525162 4.8903915e-39
1.2248976 0.49826974 -0.18640807 4.5223405e-39
1.1308428 0.53360587 -0.1656415 7.842102e-39
1.1485364 0.52332824 -0.15930656 7.8403041e-39
1.1301975 0.55390722 -0.16009173 7.4697111e-39
1.1408583 0.55331719 -0.15209198 7.192411e-39
1.1319354 0.57577169 -0.15868787 7.6544527e-39
1.1430213 0.5874545 -0.15953891 8.6667984e-39
1.1445413 0.60454065 -0.16595571 9.0319614e-39
1.3674155 0.29752138 -0.18923441 1.0699469e-38
1.384288 0.29277065 -0.19049378 1.1069688e-38
1.2885151 0.32702875 -0.15288959 1.0702686e-38
1.3024173 0.32105023 -0.16926947 8.9499125e-39
1.3281261 0.30729461 -0.1784088 9.4101788e-39
1.3590626 0.30053332 -0.1828682 1.1533538e-38
1.2527872 0.35402668 -0.15426037 8.2109041e-39
1.2743694 0.34043929 -0.16281268 7.7506575e-39
1.2874126 0.33163303 -0.17953691 1.1619235e-38
1.2282437 0.38110474 -0.14648589 7.1038321e-39
1.2407229 0.36933959 -0.15648209 7.3818595e-39
1.2022761 0.41400826 -0.13352618 6.457004e-39
1.2172577 0.40338179 -0.14782749 7.1016601e-39
1.2021836 0.42608806 -0.13388036 7.560818e-39
1.2082448 0.43508908 -0.14776236 6.4570026e-39
1.1911747 0.47540462 -0.13506223 5.5346959e-39
1.2126147 0.46453083 -0.14695032 5.2595384e-39
1.1440471 0.50889301 -0.11771992 7.2878688e-39
1.1601123 0.49773079 -0.13005143 6.1815143e-39
1.182623 0.48923087 -0.1438217 5.0755185e-39
1.2131739 0.48886374 -0.15858017 4.1535509e-39
1.1428115 0.52819288 -0.11891365 7.1941963e-39
1.1489877 0.52327543 -0.1346224 6.9169017e-39
1.1418941 0.54866755 -0.12144171 7.746654e-39
1.1457148 0.55693972 -0.13455199 8.7604444e-39
1.1553682 0.58492219 -0.13248466 9.0359438e-39
1.1629993 0.60218513 -0.13089657 1.1518361e-38
1.3756667 0.29506299 -0.15655646 1.0515795e-38
1.3890408 0.29043251 -0.16240108 1.1990555e-38
1.2921802 0.32775816 -0.13465835 8.0283136e-39
1.3104823 0.31885296 -0.14143196 9.3190524e-39
1.3377309 0.30689377 -0.14833045 9.5945561e-39
1.3635151 0.30112585 -0.15566245 1.0609795e-38
1.2568394 0.3496865 -0.12643349 8.3030956e-39
1.2767117 0.33589521 -0.13269362 7.4747867e-39
1.2264016 0.37718031 -0.11771401 7.3804232e-39
1.244072 0.36365917 -0.12651066 7.2903926e-39
1.2024275 0.40733552 -0.11118088 6.8265166e-39
1.2150449 0.3946946 -0.12251283 6.3655524e-39
1.2003201 0.43410927 -0.11308043 6.0878571e-39
1.2086914 0.44992295 -0.12874912 5.3459494e-39
1.1719081 0.47186705 -0.10272049 5.8123562e-39
1.1962807 0.46172348 -0.11057523 4.1528251e-39
1.2125636 0.46238941 -0.12623389 3.87732e-39
1.1516565 0.50498819 -0.090982273 7.2878464e-39
1.1632739 0.49358889 -0.10444152 8.1165323e-39
1.1450514 0.5271855 -0.096435696 8.1158106e-39
1.1533949 0.51520485 -0.10479273 1.0054075e-38
1.1417161 0.55293685 -0.096111968 8.1150735e-39
1.1512696 0.56680918 -0.11117156 7.838844e-39
1.1501557 0.57448316 -0.092571706 9.4961835e-39
1.1586354 0.58311105 -0.10737193 9.8653346e-39
1.1721694 0.60177249 -0.1142518 1.058995e-38
1.3794503 0.29213804 -0.12910701 1.0700538e-38
1.3999128 0.28340262 -0.13000591 1.3829749e-38
1.2995182 0.32773411 -0.10669905 8.3045431e-39
1.3160615 0.31760183 -0.11169669 9.5020045e-39
1.3493581 0.30645373 -0.11995602 9.5949246e-39
1.262477 0.3504158 -0.097867921 8.7644325e-39
1.2853863 0.33565909 -0.1024087 8.1208651e-39
1.2124281 0.38861164 -0.084100023 5.4436185e-39
1.2312701 0.37507391 -0.088371284 7.9350305e-39
1.2474266 0.36168805 -0.099154614 7.3811505e-39
1.1881042 0.41326237 -0.069067031 6.4563019e-39
1.2013983 0.40249696 -0.082574494 7.2885765e-39
1.1847456 0.44157344 -0.071219385 5.6279594e-39
1.1990926 0.4360266 -0.081991337 5.3492033e-39
1.15573 0.47119895 -0.066390626 7.0094575e-39
1.175402 0.46316743 -0.075119369 5.627602e-39
1.1913089 0.45941836 -0.090434417 4.0588358e-39
1.1520619 0.49622536 -0.065630607 7.4704356e-39
1.1605985 0.48958066 -0.08264672 5.810187e-39
1.1452559 0.52469337 -0.066982023 7.6537409e-39
1.1454935 0.55384946 -0.068200581 8.8519155e-39
1.1546947 0.57737392 -0.069366038 9.4043606e-39
1.1650717 0.58949846 -0.063599236 1.0972041e-38
1.3892792 0.29585344 -0.10156006 1.0701269e-38
1.4127473 0.28962356 -0.10262821 1.3003248e-38
1.4448253 0.28761467 -0.10709828 1.4011609e-38
1.3079143 0.32583594 -0.075893633 8.8573371e-39
1.324211 0.31787097 -0.084806047 9.8707786e-39
1.3578585 0.30858743 -0.090415947 9.6867447e-39
1.3816866 0.30171561 -0.087666422 1.0330671e-38
1.2693499 0.35249946 -0.068294197 8.7637066e-39
1.2920903 0.33921722 -0.073606819 8.9484524e-39
1.2183306 0.38861164 -0.061499059 9.7828948e-39
1.2384837 0.37611368 -0.059176654 8.3030942e-39
1.256566 0.36168805 -0.064159587 8.6740375e-39
1.1901865 0.41198939 -0.047721207 7.6569989e-39
1.2114028 0.39908969 -0.052849002 8.3942038e-39
1.229869 0.39257982 -0.047659714 6.091841e-39
1.1686062 0.44684771 -0.028959626 4.7049549e-39
1.185221 0.43584383 -0.045546353 5.8112702e-39
1.2019626 0.43482754 -0.063492559 3.2265612e-39
1.1569852 0.47064766 -0.03718045 7.5637215e-39
1.1750935 0.45827049 -0.046757732 5.8123534e-39
1.1479648 0.49538645 -0.036692847 7.7459323e-39
1.1469758 0.52529776 -0.0366701 8.7597269e-39
1.1536351 0.55430478 -0.038046874 1.0049734e-38
1.161158 0.57374471 -0.046737041 1.0878406e-38
1.1759514 0.58639586 -0.040012851 1.1340821e-38
1.1882169 0.60246015 -0.038558993 7.0112301e-39
1.4005581 0.29665101 -0.077934854 1.0146652e-38
1.4176534 0.29127559 -0.082918376 1.2727375e-38
1.4429544 0.29239109 -0.076949313 1.3369123e-38
1.3133639 0.32725799 -0.056423645 9.8718436e-39
1.3319679 0.32277089 -0.052218609 1.0056256e-38
1.3620188 0.31330615 -0.061112955 9.9618994e-39
1.3896343 0.3033056 -0.068498202 1.060654e-38
1.41965 0.30095413 -0.064984739 1.5033697e-38
1.4540751 0.30330276 -0.07168071 9.2297392e-39
1.2801175 0.35239279 -0.040364761 8.6718711e-39
1.3033686 0.33682379 -0.045160376 9.1335639e-39
1.229193 0.38655415 -0.030461038 1.1438095e-38
1.247157 0.37692317 -0.031564567 9.0395802e-39
1.2676945 0.36338648 -0.033421941 8.671518e-39
1.1970773 0.415786 -0.020705815 9.7785732e-39
1.2210978 0.40347362 -0.024305688 8.9459398e-39
1.2376713 0.39257982 -0.017784692 8.949181e-39
1.1720297 0.44687921 -0.010197786 8.3016564e-39
1.1851914 0.43219164 -0.014718952 7.655194e-39
1.1613661 0.46536362 -0.0097425394 7.8395853e-39
1.1462818 0.49955869 0.00032635749 9.7753264e-39
1.1507269 0.49394515 -0.0065607205 9.0370411e-39
1.1527263 0.52445436 -0.0079773609 9.4969262e-39
1.1663647 0.55494916 -0.0085638352 1.0418157e-38
1.1769496 0.56995225 -0.012842079 1.0325958e-38
1.1828258 0.58218294 -0.015885416 1.0324875e-38
1.4539789 0.29467553 -0.052621495 1.3276925e-38
1.3433951 0.32578495 -0.030476511 1.0791292e-38
1.3708632 0.32186204 -0.031756129 1.0884572e-38
1.3992683 0.31139064 -0.041518833 1.0698734e-38
1.4290206 0.30467442 -0.045374319 1.2452245e-38
1.4515388 0.30181286 -0.053690862 1.2172067e-38
1.2873651 0.35470179 -0.01425992 9.3172475e-39
1.3135525 0.34249315 -0.018247625 9.9622568e-39
1.3411566 0.33447501 -0.017722184 1.0793091e-38
1.2567272 0.38008666 -0.004180945 9.1321304e-39
1.2766533 0.36635023 -0.0044603827 9.2243218e-39
1.2038945 0.41897246 -0.00069128146 1.2636614e-38
1.2305748 0.40860415 0.0032586616 8.6704348e-39
1.2478149 0.3934333 0.0029645765 9.5912994e-39
1.178071 0.44545889 0.013799307 7.9314264e-39
1.1946747 0.43313822 0.014310067 1.0144113e-38
1.2210013 0.42392132 0.015562843 9.5949106e-39
1.1668985 0.46559694 0.020576762 9.0377697e-39
1.1602496 0.49509335 0.022560103 1.1063902e-38
1.1673405 0.52529508 0.019915769 1.1800734e-38
1.1759421 0.55052733 0.016442044 1.1431944e-38
1.1875393 0.55318898 0.027706137 1.0507859e-38
1.1853229 0.57615417 0.0033890195 8.8512065e-39
1.4633249 0.29807338 -0.036263134 1.3553139e-38
1.3335478 0.32588258 0.01294533 1.1894048e-38
1.3388896 0.32689545 0.017569436 1.2733467e-38
1.3749886 0.32777685 -0.011211497 1.2270008e-38
1.4091227 0.32084349 -0.017621147 1.0696583e-38
1.4347948 0.31732762 -0.016230019 1.2452228e-38
1.4636204 0.30972847 -0.025238672 1.171036e-38
1.2981921 0.35663608 0.0081638442 1.0242807e-38
1.3224974 0.35026363 0.010840428 1.0331406e-38
1.3432271 0.33719894 0.0040256507 1.0515798e-38
1.3785733 0.3336477 8.6106293e-06 1.1436654e-38
1.4064348 0.33129051 -0.00082059787 1.0607252e-38
1.2677077 0.38541088 0.020954208 8.9470174e-39
1.2870411 0.37312701 0.020349616 1.0515428e-38
1.3135345 0.36354128 0.024696965 1.2543313e-38
1.2408909 0.41413039 0.026994623 9.5927456e-39
1.2588186 0.40192413 0.030320445 9.3147266e-39
1.2074932 0.44235542 0.037823234 1.0695486e-38
1.2322596 0.42923898 0.038081333 9.959719e-39
1.1813046 0.46977815 0.043816179 1.1064981e-38
1.2000748 0.45866069 0.049321875 1.0694403e-38
1.1809587 0.49437341 0.048928238 1.1523798e-38
1.1829753 0.5203678 0.043436795 1.2446822e-38
1.1989176 0.52932692 0.053069144 1.1892194e-38
1.1954237 0.54039997 0.042066094 8.7522089e-39
1.350467 0.32942754 0.022324879 1.142079e-38
1.4471 0.32482862 -0.0018266755 1.2078772e-38
1.4750351 0.32061604 0.0026387218 1.2357509e-38
1.3162097 0.35113391 0.057366159 1.1977536e-38
1.3312697 0.35164285 0.046600942 1.1703489e-38
1.3516426 0.34633988 0.031127825 8.0228807e-39
1.3820896 0.34527248 0.028642947 9.3179608e-39
1.4195744 0.33840182 0.0089284033 1.0878074e-38
1.4434047 0.33814397 0.014404301 1.1622124e-38
1.4634498 0.33186054 0.011704188 1.4297927e-38
1.3038492 0.37703678 0.048874952 1.1150673e-38
1.3222215 0.36531082 0.040068515 1.0136896e-38
1.2728364 0.40786695 0.050043359 1.0883126e-38
1.2933095 0.39995411 0.056150377 1.225882e-38
1.2205694 0.44752479 0.055242404 1.1154334e-38
1.2464296 0.43810442 0.05867362 1.0512534e-38
1.266396 0.42742366 0.061674081 1.1066075e-38
1.2164347 0.46950877 0.066949047 1.3184035e-38
1.2433249 0.45967925 0.069700524 1.2447195e-38
1.2115433 0.49544305 0.068029694 1.3829036e-38
1.2080977 0.51723671 0.067591213 1.3364801e-38
1.2870343 0.28857017 0.090760097 1.1977896e-38
1.2948374 0.29206312 0.08238218 1.0595687e-38
1.2836318 0.31440738 0.09055189 7.5542935e-39
1.2996962 0.31805474 0.07691177 9.123057e-39
1.3221483 0.32907525 0.064275138 1.4563329e-38
1.4857129 0.32253215 0.017801162 1.3458802e-38
1.2876116 0.34071195 0.095772929 7.4613818e-39
1.3093177 0.34820348 0.077949002 8.9339924e-39
1.3249717 0.33957282 0.062553838 1.2439601e-38
1.4553331 0.35073465 0.034446936 1.1803278e-38
1.4798363 0.34061635 0.033207852 1.2447558e-38
1.2924268 0.38385963 0.092939399 1.3817115e-38
1.2999984 0.37448606 0.077893972 1.2805486e-38
1.458945 0.36296269 0.047221351 1.3095437e-38
1.2888238 0.4112514 0.079143412 1.4835939e-38
1.2973009 0.40371802 0.078010134 1.5752133e-38
1.2569423 0.44805139 0.075791687 1.1703164e-38
1.2802993 0.43735704 0.078987047 1.2079849e-38
1.3005171 0.42929083 0.087062895 1.6398222e-38
1.253006 0.46547961 0.079715177 1.3924818e-38
1.2815956 0.46098763 0.086341888 1.300036e-38
1.2811217 0.26686239 0.10901316 1.2537908e-38
1.2797029 0.28395763 0.10572456 1.086975e-38
1.2766349 0.31482288 0.10653282 1.0222921e-38
1.2813756 0.34446135 0.10668826 9.3031238e-39
1.2988359 0.35716698 0.097692534 7.7379589e-39
1.4847548 0.3551465 0.052576277 1.3833354e-38
1.2925189 0.37439629 0.10563942 1.1422183e-38
1.2993362 0.36735409 0.096442252 9.02726e-39
1.4834051 0.36619541 0.058432244 1.2350704e-38
1.2951357 0.39602935 0.10594932 1.5104599e-38
1.3040782 0.41070086 0.10292477 1.5933994e-38
1.3099196 0.43333188 0.10286631 1.6394612e-38
1.3009454 0.45284402 0.097854681 1.3462766e-38
