# .PCD v0.7 - Point Cloud Data file format
VERSION 0.7
FIELDS x y z rgb
SIZE 4 4 4 4
TYPE F F F F
COUNT 1 1 1 1
WIDTH 1026
HEIGHT 1
VIEWPOINT 0 0 0 1 0 0 0
POINTS 1026
DATA ascii
6.4433565 -3.5638592 -1.073007 4.6097815e-40
6.4203687 -3.5310431 -1.0843869 2.7658689e-40
6.4007812 -3.5347331 -1.0843869 1.8439126e-40
6.3639808 -3.5045187 -1.0957669 1.8439126e-40
6.7119794 -3.5815091 -1.0353366 5.5317378e-40
6.6833858 -3.5862744 -1.0321748 5.5317378e-40
6.6517406 -3.5922358 -1.0321748 3.6878252e-40
6.6275997 -3.5962868 -1.0296454 2.7658689e-40
6.6058316 -3.565655 -1.0427613 2.7658689e-40
6.6069851 -3.5981822 -1.0195277 3.6878252e-40
6.592587 -3.5656397 -1.0299844 3.6878252e-40
6.5805669 -3.4961641 -1.0604672 3.6878252e-40
6.5371943 -3.5051892 -1.0648164 5.5317378e-40
6.5202746 -3.5800989 -1.0342433 3.6878252e-40
6.5266533 -3.5443625 -1.0536417 3.6878252e-40
6.4989614 -3.5841138 -1.0342433 3.6878252e-40
6.4878893 -3.5516653 -1.0536417 3.6878252e-40
6.4682765 -3.5540915 -1.0471866 3.6878252e-40
6.4424338 -3.55896 -1.0471866 2.7658689e-40
6.419436 -3.5260918 -1.0582927 2.7658689e-40
6.3998485 -3.5297818 -1.0582927 1.8439126e-40
6.3737316 -3.5347018 -1.0582927 2.7658689e-40
6.3541441 -3.5383918 -1.0582927 2.7658689e-40
6.707572 -3.5755062 -1.0005569 4.6097815e-40
6.6822557 -3.5802755 -1.0005569 3.6878252e-40
6.6506104 -3.586237 -1.0005569 3.6878252e-40
6.6252942 -3.591006 -1.0005569 2.7658689e-40
6.606307 -3.594583 -1.0005569 1.8439126e-40
6.5855079 -3.5632076 -1.0108191 2.7658689e-40
6.5511117 -3.5321455 -1.0149112 6.4536941e-40
6.535562 -3.496525 -1.0191514 3.6878252e-40
6.5215683 -3.575253 -1.0108191 4.6097815e-40
6.4959927 -3.580071 -1.0108191 3.6878252e-40
6.4765825 -3.5824728 -1.0044307 8.2976067e-40
6.4652767 -3.5500066 -1.023518 2.7658689e-40
6.43505 -3.5552781 -1.0213662 2.7658689e-40
6.408977 -3.5589216 -1.0149112 1.8439126e-40
6.3955345 -3.5248268 -1.0289367 1.8439126e-40
6.3725657 -3.528513 -1.0256751 2.7658689e-40
6.3572917 -3.5686584 -1.0149112 1.8439126e-40
6.3529782 -3.532203 -1.0256749 1.8439126e-40
6.7066679 -3.5707068 -0.97526264 4.6097815e-40
6.6823997 -3.6108716 -0.9717983 3.6878252e-40
6.6897149 -3.5734863 -0.97315472 4.6097815e-40
6.6602449 -3.6138151 -0.96553779 3.6878252e-40
6.6497064 -3.5814376 -0.97526264 4.6097815e-40
6.6243901 -3.5862067 -0.97526264 2.7658689e-40
6.5990739 -3.590976 -0.97526264 3.6878252e-40
6.5782008 -3.5595636 -0.98526537 3.6878252e-40
6.565413 -3.5619729 -0.98526537 4.6097815e-40
6.5458817 -3.5280578 -0.98909074 3.6878252e-40
6.5348625 -3.4928117 -0.99958074 4.6097815e-40
6.5142612 -3.571609 -0.98526537 4.6097815e-40
6.5210004 -3.5321109 -0.98586321 2.7658689e-40
6.4920425 -3.5382004 -0.98909074 4.6097815e-40
6.4661999 -3.5430686 -0.9890908 3.6878252e-40
6.4338965 -3.5491545 -0.98909074 2.7658689e-40
6.4027929 -3.5545065 -0.98650873 1.8439126e-40
6.3817496 -3.5564413 -0.97618055 2.7658689e-40
6.3693008 -3.5231469 -0.99523169 2.7658689e-40
6.3494463 -3.5625267 -0.97618055 1.8439126e-40
6.3455162 -3.528482 -0.99958074 1.8439126e-40
6.7055378 -3.5647075 -0.94364476 1.1063476e-39
6.6802216 -3.5694768 -0.94364476 4.6097815e-40
6.6477876 -3.6108317 -0.93840885 2.7658689e-40
6.6549053 -3.5742459 -0.94364476 5.5317378e-40
6.6227241 -3.6155536 -0.93840885 2.7658689e-40
6.6300411 -3.5814149 -0.95629191 2.7658689e-40
6.6018376 -3.6194882 -0.93840885 2.7658689e-40
6.5857377 -3.589761 -0.95629191 3.6878252e-40
6.580802 -3.6226308 -0.93423516 3.6878252e-40
6.5597434 -3.5909307 -0.93732113 4.6097815e-40
6.5583339 -3.559541 -0.96610004 4.6097815e-40
6.5342016 -3.5945001 -0.93099755 3.6878252e-40
6.5257549 -3.5623312 -0.94906425 3.6878252e-40
6.5105019 -3.5296497 -0.96327037 3.6878252e-40
6.4934807 -3.5667377 -0.94054633 3.6878252e-40
6.4911199 -3.5333011 -0.96327037 6.4536941e-40
6.467905 -3.5715559 -0.94054633 5.5317378e-40
6.4652767 -3.5381694 -0.96327037 5.5317378e-40
6.4327431 -3.5430303 -0.9568153 4.6097815e-40
6.4004397 -3.5491157 -0.9568153 2.7658689e-40
6.3766737 -3.55317 -0.95466357 2.7658689e-40
6.364171 -3.519841 -0.97348654 1.8439126e-40
6.3549843 -3.5564106 -0.95036018 2.7658689e-40
6.3511128 -3.522301 -0.97348654 2.7658689e-40
6.7175336 -3.5907226 -0.90293252 5.5317378e-40
6.7044077 -3.5587084 -0.91202682 1.4751301e-39
6.6816683 -3.5632408 -0.91329151 4.6097815e-40
6.6499062 -3.6037085 -0.90418464 2.7658689e-40
6.6540012 -3.5694466 -0.9183504 2.7658689e-40
6.6237683 -3.6096163 -0.9091931 2.7658689e-40
6.5987048 -3.6143379 -0.9091931 2.7658689e-40
6.5766621 -3.6178758 -0.90606278 3.6878252e-40
6.5568051 -3.5869286 -0.91413468 5.5317378e-40
6.5274205 -3.5932927 -0.9183504 3.6878252e-40
6.5247202 -3.5568364 -0.92010331 4.6097815e-40
6.4927959 -3.5631013 -0.921381 4.6097815e-40
6.4722672 -3.6020262 -0.90991896 3.6878252e-40
6.4610543 -3.5703361 -0.92776942 4.6097815e-40
6.4414158 -3.5715256 -0.91499257 3.6878252e-40
6.4287052 -3.5393522 -0.93422246 2.7658689e-40
6.3995166 -3.5442166 -0.93099487 2.7658689e-40
6.3736739 -3.5490851 -0.93099487 1.8439126e-40
6.7083583 -3.5879409 -0.87997723 4.6097815e-40
6.6831455 -3.5918708 -0.87580359 4.6097815e-40
6.691071 -3.5574934 -0.89305609 3.6878252e-40
6.6539793 -3.5977747 -0.87789053 2.7658689e-40
6.6226497 -3.603677 -0.87789041 2.7658689e-40
6.5975857 -3.6083987 -0.87789041 3.6878252e-40
6.5787878 -3.6119399 -0.87789041 4.6097815e-40
6.5579352 -3.581332 -0.88673252 3.6878252e-40
6.5340371 -3.5125337 -0.89871943 4.6097815e-40
6.5195136 -3.552629 -0.89369774 3.6878252e-40
6.508656 -3.5198517 -0.91162962 7.3756504e-40
6.4883161 -3.5944474 -0.88673252 4.6097815e-40
6.4982762 -3.5570483 -0.89582723 4.6097815e-40
6.4693289 -3.5980244 -0.88673252 3.6878252e-40
6.4440126 -3.6027935 -0.88673252 5.5317378e-40
6.4247994 -3.6051707 -0.88040894 2.7658689e-40
6.4130998 -3.5735126 -0.89795673 2.7658689e-40
6.3921332 -3.5405345 -0.90517449 1.8439126e-40
6.382957 -3.5775175 -0.88943881 3.6878252e-40
6.3706746 -3.5449998 -0.90732622 1.8439126e-40
6.7032113 -3.5835805 -0.85284835 3.6878252e-40
6.6844139 -3.5871217 -0.85284835 5.5317378e-40
6.6639471 -3.5526643 -0.84246749 1.0141519e-39
6.6530838 -3.5930235 -0.85284841 3.6878252e-40
6.6239176 -3.5989287 -0.85493517 1.8439126e-40
6.6043572 -3.6355712 -0.83806103 3.6878252e-40
6.5969143 -3.6048353 -0.85910887 4.6097815e-40
6.5778928 -3.6071887 -0.85284835 3.6878252e-40
6.5633602 -3.5753405 -0.86143821 4.6097815e-40
6.5482864 -3.5413511 -0.86388505 4.6097815e-40
6.5328832 -3.5064094 -0.86644393 4.6097815e-40
6.5176868 -3.5476179 -0.86644047 5.5317378e-40
6.4961629 -3.5864024 -0.8533079 4.6097815e-40
6.4681988 -3.5920255 -0.85511464 3.6878252e-40
6.4428825 -3.5967946 -0.85511464 5.5317378e-40
6.4207311 -3.6009676 -0.85511464 2.7658689e-40
6.3999467 -3.5692964 -0.86388505 1.8439126e-40
6.3756495 -3.5738738 -0.86388499 1.8439126e-40
6.3566961 -3.5786996 -0.87027347 2.7658689e-40
6.3517537 -3.5392637 -0.85998887 2.7658689e-40
6.7025399 -3.5800169 -0.83406675 5.5317378e-40
6.7012429 -3.5419109 -0.8234967 7.3756504e-40
6.6832948 -3.581182 -0.82154578 4.6097815e-40
6.6634946 -3.5502646 -0.82982028 3.6878252e-40
6.6498766 -3.5874774 -0.82154578 6.4536941e-40
6.632122 -3.6238468 -0.80500787 3.6878252e-40
6.6273489 -3.5941818 -0.83406675 2.7658689e-40
6.6050577 -3.6642265 -0.805233 2.7658689e-40
6.6069045 -3.6320472 -0.8225674 3.6878252e-40
6.5927744 -3.6665404 -0.805233 2.7658689e-40
6.5786595 -3.6355419 -0.81327116 3.6878252e-40
6.560997 -3.6036065 -0.81841546 9.219563e-40
6.549572 -3.5717261 -0.82982028 4.6097815e-40
6.5301328 -3.5729034 -0.81717312 3.6878252e-40
6.5281911 -3.5401163 -0.83833134 3.6878252e-40
6.4987135 -3.5800645 -0.8234967 4.6097815e-40
6.4670687 -3.5860262 -0.8234967 5.5317378e-40
6.4417524 -3.5907953 -0.8234967 4.6097815e-40
6.4184704 -3.5947673 -0.82138884 2.7658689e-40
6.3980284 -3.5638001 -0.83407235 1.8439126e-40
6.3806734 -3.5653963 -0.82555443 2.7658689e-40
6.3683672 -3.532752 -0.84277523 1.8439126e-40
6.3510618 -3.5355892 -0.84062356 2.7658689e-40
6.7007499 -3.570514 -0.78398257 3.6878252e-40
6.7005649 -3.5383115 -0.80452597 9.219563e-40
6.6821761 -3.575243 -0.79024309 5.5317378e-40
6.6528735 -3.647985 -0.76841575 4.6097815e-40
6.6522074 -3.6168156 -0.78848135 8.2976067e-40
6.6633782 -3.5787842 -0.79024309 4.6097815e-40
6.6346684 -3.6526203 -0.77455193 9.219563e-40
6.610322 -3.6584125 -0.78068817 2.7658689e-40
6.5899577 -3.6273251 -0.78228384 4.6097815e-40
6.5923357 -3.6642118 -0.79296058 2.7658689e-40
6.5775518 -3.629662 -0.78228384 4.6097815e-40
6.5568571 -3.5988512 -0.79024309 6.4536941e-40
6.5294547 -3.5693038 -0.7982024 7.3756504e-40
6.5041385 -3.5740728 -0.7982024 6.4536941e-40
6.4754 -3.6141963 -0.79024315 4.6097815e-40
6.4462337 -3.6201015 -0.79232997 3.6878252e-40
6.4342933 -3.5859885 -0.79187882 3.6878252e-40
6.4252729 -3.6236401 -0.79024309 2.7658689e-40
6.4049082 -3.5923524 -0.79609454 1.8439126e-40
6.3930044 -3.5605631 -0.81277758 1.8439126e-40
6.3695207 -3.5270391 -0.81480318 1.8439126e-40
6.3457546 -3.5310931 -0.81265146 1.8439126e-40
6.7063446 -3.5657699 -0.76520103 7.3756504e-40
6.6880951 -3.6027491 -0.75129652 3.6878252e-40
6.683444 -3.5704944 -0.76728785 6.4536941e-40
6.6522155 -3.6444921 -0.75000709 4.6097815e-40
6.6635056 -3.6085992 -0.75749397 4.6097815e-40
6.633791 -3.647963 -0.75000709 6.4536941e-40
6.6092253 -3.652591 -0.75000709 2.7658689e-40
6.5866332 -3.6564453 -0.7479617 4.6097815e-40
6.5684695 -3.6269088 -0.75955975 1.0141519e-39
6.5496964 -3.5952802 -0.76520103 5.5317378e-40
6.5246325 -3.6000018 -0.76520103 5.5317378e-40
6.5346537 -3.5621123 -0.76658452 4.6097815e-40
6.5058346 -3.603543 -0.76520103 3.6878252e-40
6.4770565 -3.6092105 -0.76645309 3.6878252e-40
6.4584794 -3.5752199 -0.76026094 4.6097815e-40
6.4397182 -3.5799968 -0.76658452 3.6878252e-40
6.4081297 -3.5862584 -0.76816541 1.8439126e-40
6.3823047 -3.5883279 -0.75393736 2.7658689e-40
6.3790751 -3.5569115 -0.78083539 1.8439126e-40
6.3619065 -3.5221319 -0.78252769 1.8439126e-40
6.3402543 -3.5617144 -0.76805854 1.8439126e-40
6.34587 -3.5257874 -0.78575528 1.8439126e-40
6.7120957 -3.6247725 -0.7070536 6.4536941e-40
6.7120204 -3.5933716 -0.72650665 6.4536941e-40
6.7119393 -3.5610259 -0.74641943 7.3756504e-40
6.6998124 -3.6270866 -0.7070536 1.6595213e-39
6.6894245 -3.5984399 -0.73063838 5.5317378e-40
6.6618118 -3.6363549 -0.71779197 8.2976067e-40
6.6326947 -3.6421418 -0.71932602 3.6878252e-40
6.6035566 -3.6804624 -0.71235669 2.7658689e-40
6.6142697 -3.645613 -0.71932602 2.7658689e-40
6.5853105 -3.6838996 -0.71235669 3.6878252e-40
6.5651379 -3.6548686 -0.71932602 3.6878252e-40
6.5488014 -3.5905287 -0.74015892 3.6878252e-40
6.5503039 -3.6214013 -0.71411175 6.4536941e-40
6.526535 -3.5928786 -0.73076814 5.5317378e-40
6.5337496 -3.557313 -0.74129021 4.6097815e-40
6.5047159 -3.5976036 -0.73389846 5.5317378e-40
6.4748969 -3.6029136 -0.7323333 5.5317378e-40
6.441833 -3.6082201 -0.72763789 3.6878252e-40
6.4156504 -3.6138906 -0.73139417 2.7658689e-40
6.3940587 -3.5811441 -0.72864306 2.7658689e-40
6.3981953 -3.617671 -0.7338984 1.8439126e-40
6.3816266 -3.5847285 -0.73496664 1.8439126e-40
6.3649168 -3.5520477 -0.74250478 1.8439126e-40
6.3438783 -3.593082 -0.74129021 1.8439126e-40
6.3519006 -3.5532448 -0.73611635 1.8439126e-40
6.348062 -3.5196674 -0.75670731 1.8439126e-40
6.7111344 -3.5886681 -0.70171678 3.6878252e-40
6.7117295 -3.6529205 -0.67589611 6.4536941e-40
6.6949873 -3.6239769 -0.68659955 4.6097815e-40
6.6863232 -3.5933421 -0.70171678 4.6097815e-40
6.668447 -3.6293786 -0.68864495 4.6097815e-40
6.6418948 -3.6666734 -0.67893445 4.6097815e-40
6.6318173 -3.6374846 -0.69478118 3.6878252e-40
6.6085525 -3.6735518 -0.68197286 2.7658689e-40
6.5863242 -3.6781371 -0.68399847 3.6878252e-40
6.5680623 -3.6478877 -0.68659955 3.6878252e-40
6.5412955 -3.61904 -0.69345343 3.6878252e-40
6.5308242 -3.5869455 -0.70468259 3.6878252e-40
6.5035973 -3.5916643 -0.70259577 4.6097815e-40
6.4722672 -3.5975661 -0.70259583 5.5317378e-40
6.4409375 -3.6034684 -0.70259577 4.6097815e-40
6.4221401 -3.6070099 -0.70259577 3.6878252e-40
6.3997097 -3.5763524 -0.70967227 2.7658689e-40
6.3767915 -3.54479 -0.71695101 1.8439126e-40
6.3598299 -3.5111089 -0.72443187 1.8439126e-40
6.3469086 -3.5135431 -0.72443187 1.8439126e-40
6.6986966 -3.6506 -0.65158904 1.1985432e-39
6.6901617 -3.6208673 -0.6661455 7.3756504e-40
6.6682868 -3.6563289 -0.65158904 4.6097815e-40
6.667789 -3.6258857 -0.67023629 4.6097815e-40
6.6380939 -3.6632106 -0.65766579 4.6097815e-40
6.6076837 -3.6689396 -0.65766579 2.7658689e-40
6.5853109 -3.6727564 -0.65564024 4.6097815e-40
6.5673313 -3.6440067 -0.6661455 4.6097815e-40
6.5506616 -3.6455398 -0.65796387 3.6878252e-40
6.5332465 -3.6160913 -0.67072946 9.219563e-40
6.5342555 -3.5821989 -0.68381423 5.5317378e-40
6.5113149 -3.6190054 -0.66453201 2.7658689e-40
6.5006881 -3.5877028 -0.67964053 3.6878252e-40
6.4713721 -3.5928149 -0.67755371 3.6878252e-40
6.4420567 -3.597928 -0.67546684 6.4536941e-40
6.4306769 -3.5667913 -0.69070154 4.6097815e-40
6.4169931 -3.6026497 -0.67546684 2.7658689e-40
6.3990316 -3.5727527 -0.69070154 1.8439126e-40
6.3959575 -3.6057923 -0.67129314 1.8439126e-40
6.3734894 -3.5763223 -0.68437797 1.8439126e-40
6.3545022 -3.5798991 -0.68437797 1.8439126e-40
6.6917458 -3.6471341 -0.62728202 6.4536941e-40
6.667418 -3.6517172 -0.62728202 5.5317378e-40
6.6382127 -3.6892135 -0.62133098 5.5317378e-40
6.6491718 -3.6551545 -0.62728202 4.6097815e-40
6.6141152 -3.6937537 -0.62133086 2.7658689e-40
6.5900183 -3.6982927 -0.62133098 3.6878252e-40
6.5701056 -3.6700494 -0.62728202 4.6097815e-40
6.5455604 -3.6734793 -0.62120527 5.5317378e-40
6.5440812 -3.6443682 -0.64569145 8.2976067e-40
6.523056 -3.6131406 -0.64593959 7.3756504e-40
6.5247793 -3.6431818 -0.62114662 4.6097815e-40
6.5072169 -3.6142981 -0.63664335 3.6878252e-40
6.4955411 -3.5833418 -0.6525116 5.5317378e-40
6.4702535 -3.5868754 -0.64625114 6.4536941e-40
6.4389238 -3.5927775 -0.64625114 3.6878252e-40
6.4138598 -3.5974994 -0.64625114 3.6878252e-40
6.3950624 -3.6010411 -0.64625108 1.8439126e-40
6.3786883 -3.5691307 -0.65276009 1.8439126e-40
6.3619485 -3.5362899 -0.65945512 1.8439126e-40
6.3447456 -3.5386937 -0.65519613 1.8439126e-40
6.3448319 -3.5025203 -0.666336 1.8439126e-40
6.7092133 -3.6687429 -0.58521628 3.6878252e-40
6.6943526 -3.6409123 -0.59811354 4.6097815e-40
6.6612339 -3.6789639 -0.5912354 4.6097815e-40
6.6724138 -3.6448061 -0.5968982 5.5317378e-40
6.6431613 -3.6823685 -0.5912354 5.5317378e-40
6.6130395 -3.6880434 -0.59123534 4.6097815e-40
6.5848546 -3.6929584 -0.58922905 5.5317378e-40
6.5670648 -3.6650507 -0.5989238 3.6878252e-40
6.5507736 -3.6677215 -0.5968982 3.6878252e-40
6.5364046 -3.6373751 -0.60273796 9.219563e-40
6.5199542 -3.6400726 -0.60069257 4.6097815e-40
6.5011249 -3.6103723 -0.61082053 4.6097815e-40
6.4780855 -3.6130888 -0.6025573 1.1985432e-39
6.4693584 -3.5821245 -0.62120897 3.6878252e-40
6.4594774 -3.6165943 -0.6025573 4.6097815e-40
6.4378047 -3.5868385 -0.61494845 3.6878252e-40
6.4127412 -3.5915604 -0.61494845 2.7658689e-40
6.3939433 -3.5951016 -0.61494845 1.8439126e-40
6.3732634 -3.5635264 -0.61903435 1.8439126e-40
6.3610349 -3.5314415 -0.63390136 1.8439126e-40
6.3480186 -3.5326385 -0.62751293 1.8439126e-40
6.7023287 -3.6653094 -0.56113982 3.6878252e-40
6.6957283 -3.6348424 -0.56853998 4.6097815e-40
6.6680474 -3.6709795 -0.557127 5.5317378e-40
6.671762 -3.6413472 -0.57866794 2.7658689e-40
6.6420856 -3.6766586 -0.56113976 4.6097815e-40
6.6119637 -3.6823332 -0.56113976 4.6097815e-40
6.5740156 -3.6573737 -0.56651431 4.6097815e-40
6.5436058 -3.6631021 -0.56651437 6.4536941e-40
6.5233207 -3.6974552 -0.55311441 8.2976067e-40
6.51754 -3.6696048 -0.57461673 4.6097815e-40
6.4988976 -3.6408243 -0.58432931 4.6097815e-40
6.4966874 -3.6703494 -0.55841208 6.4536941e-40
6.4788938 -3.642664 -0.57451135 9.219563e-40
6.455379 -3.6118872 -0.57466871 8.2976067e-40
6.4355221 -3.5816104 -0.58615005 3.6878252e-40
6.411622 -3.5856206 -0.58364588 3.6878252e-40
6.3928246 -3.5891623 -0.58364582 1.8439126e-40
6.3723593 -3.5587273 -0.59373999 1.8439126e-40
6.3601217 -3.526593 -0.60834759 2.7658689e-40
6.3552289 -3.5962446 -0.58364582 2.7658689e-40
6.6952286 -3.6607342 -0.53104424 4.6097815e-40
6.6985521 -3.6275451 -0.534105 4.6097815e-40
6.6682267 -3.6664124 -0.5340538 5.5317378e-40
6.6700244 -3.6321235 -0.53005385 4.6097815e-40
6.6360078 -3.7028842 -0.51999646 3.6878252e-40
6.6430893 -3.6709504 -0.53305072 5.5317378e-40
6.610888 -3.6766229 -0.53104419 3.6878252e-40
6.5807667 -3.682297 -0.53104424 4.6097815e-40
6.5609827 -3.6550531 -0.54220736 4.6097815e-40
6.5624785 -3.6845598 -0.52502513 4.6097815e-40
6.5425196 -3.6573374 -0.53613061 8.2976067e-40
6.5205235 -3.693646 -0.53104424 4.6097815e-40
6.5024505 -3.6970508 -0.53104424 4.6097815e-40
6.4877815 -3.6676495 -0.53613061 6.4536941e-40
6.472796 -3.6373022 -0.54137582 6.4536941e-40
6.4480686 -3.6071763 -0.54368132 5.5317378e-40
6.435791 -3.5761478 -0.5586037 3.6878252e-40
6.4105034 -3.5796816 -0.55234319 2.7658689e-40
6.3876028 -3.5844059 -0.55443007 1.8439126e-40
6.367929 -3.5537641 -0.56422997 1.8439126e-40
6.3455067 -3.519305 -0.55724013 1.8439126e-40
6.7178197 -3.6482003 -0.4889105 4.6097815e-40
6.7178116 -3.6183453 -0.50574678 6.4536941e-40
6.7013822 -3.6536617 -0.50094873 3.6878252e-40
6.6855192 -3.6252246 -0.50979793 4.6097815e-40
6.6679039 -3.6591806 -0.4969359 4.6097815e-40
6.6574259 -3.6321087 -0.51790029 1.0141519e-39
6.6410155 -3.6966701 -0.49316993 4.6097815e-40
6.6401491 -3.6663799 -0.50696784 4.6097815e-40
6.6227961 -3.6983454 -0.48422775 5.5317378e-40
6.6083603 -3.6714818 -0.50245345 3.6878252e-40
6.5796909 -3.6765869 -0.50094867 3.6878252e-40
6.5510216 -3.6816924 -0.49944386 4.6097815e-40
6.5357857 -3.6550241 -0.51790029 4.6097815e-40
6.5194478 -3.6879358 -0.50094867 7.3756504e-40
6.5013747 -3.6913402 -0.50094879 5.5317378e-40
6.4806132 -3.6630299 -0.50574678 6.4536941e-40
6.459197 -3.6326303 -0.5045585 3.6878252e-40
6.4441919 -3.6036451 -0.52199024 5.5317378e-40
6.4286299 -3.5725765 -0.53356165 4.6097815e-40
6.4191589 -3.6071432 -0.51579273 2.7658689e-40
6.4075942 -3.5757198 -0.52938795 2.7658689e-40
6.3868256 -3.5427496 -0.52628851 1.8439126e-40
6.3910341 -3.5796592 -0.53356165 1.8439126e-40
6.3658795 -3.547524 -0.53050423 1.8439126e-40
6.370626 -3.5120623 -0.54446328 1.8439126e-40
6.3490777 -3.5511031 -0.53261209 1.8439126e-40
6.7414865 -3.6413765 -0.47687227 4.6097815e-40
6.7408366 -3.6068442 -0.46928623 6.4536941e-40
6.7173896 -3.645916 -0.47687227 4.6097815e-40
6.7247624 -3.6106684 -0.47333741 4.6097815e-40
6.6991014 -3.6481783 -0.47085315 5.5317378e-40
6.6689796 -3.6538532 -0.47085309 6.4536941e-40
6.6338773 -3.6915729 -0.4603819 3.6878252e-40
6.6409378 -3.6595297 -0.47285959 4.6097815e-40
6.621944 -3.693821 -0.4603819 3.6878252e-40
6.60637 -3.6658845 -0.47205698 3.6878252e-40
6.5786152 -3.6708763 -0.47085315 5.5317378e-40
6.5484939 -3.6765511 -0.47085309 6.4536941e-40
6.5266914 -3.7129366 -0.46634334 4.6097815e-40
6.5123477 -3.6833601 -0.47085315 3.6878252e-40
6.4942751 -3.686765 -0.47085315 7.3756504e-40
6.4734454 -3.6584108 -0.47536299 4.6097815e-40
6.4583197 -3.6279733 -0.48001367 6.4536941e-40
6.4368811 -3.5989337 -0.49100295 6.4536941e-40
6.41783 -3.6000876 -0.47860795 3.6878252e-40
6.4073257 -3.5697021 -0.49850273 2.7658689e-40
6.3806129 -3.6070988 -0.47860795 2.7658689e-40
6.3847685 -3.5739515 -0.49850273 1.8439126e-40
6.3725576 -3.6453352 -0.48614988 1.8439126e-40
6.3690934 -3.6141396 -0.50339782 1.8439126e-40
6.7524595 -3.6333964 -0.44677672 5.5317378e-40
6.7401848 -3.6033854 -0.45105594 3.6878252e-40
6.7219391 -3.6068227 -0.45105594 6.4536941e-40
6.6969066 -3.643152 -0.44316527 4.6097815e-40
6.6566782 -3.6814213 -0.4305746 6.4536941e-40
6.6714082 -3.6478209 -0.44247729 4.6097815e-40
6.6389914 -3.6859243 -0.43653604 6.4536941e-40
6.6215177 -3.6915588 -0.44845897 3.6878252e-40
6.606101 -3.6594903 -0.43925279 5.5317378e-40
6.5775394 -3.6651664 -0.44075754 3.6878252e-40
6.5474181 -3.6708412 -0.44075754 4.6097815e-40
6.5226426 -3.7078428 -0.43653604 4.6097815e-40
6.511272 -3.6776502 -0.4407576 4.6097815e-40
6.4905558 -3.6812153 -0.4390378 3.6878252e-40
6.4725766 -3.6537991 -0.45105594 4.6097815e-40
6.4601955 -3.6549375 -0.44497916 7.3756504e-40
6.4576616 -3.6244805 -0.46160504 4.6097815e-40
6.4357738 -3.5930543 -0.46001551 7.3756504e-40
6.409534 -3.5630541 -0.46678272 3.6878252e-40
6.3911204 -3.5307586 -0.46937627 1.8439126e-40
6.3806739 -3.4951081 -0.46780199 1.8439126e-40
6.3723593 -3.5355356 -0.47569984 2.7658689e-40
6.73912 -3.628814 -0.41066206 4.6097815e-40
6.7395334 -3.5999262 -0.43282565 5.5317378e-40
6.7208529 -3.6010575 -0.42067215 4.6097815e-40
6.6909256 -3.6378932 -0.41066206 5.5317378e-40
6.7026067 -3.6044948 -0.42067212 5.5317378e-40
6.6617923 -3.6757727 -0.40672874 5.5317378e-40
6.6788769 -3.6401629 -0.41066206 7.3756504e-40
6.6450539 -3.7113173 -0.4027954 7.3756504e-40
6.6319594 -3.6813929 -0.40672874 6.4536941e-40
6.6200261 -3.683641 -0.40672874 6.4536941e-40
6.6005611 -3.6549165 -0.41066206 5.5317378e-40
6.5764637 -3.659456 -0.41066206 3.6878252e-40
6.5463424 -3.6651309 -0.410662 5.5317378e-40
6.5245605 -3.7016253 -0.40672874 3.6878252e-40
6.5101962 -3.6719398 -0.41066206 3.6878252e-40
6.4860992 -3.6764798 -0.410662 5.5317378e-40
6.4591093 -3.6491723 -0.41459537 4.6097815e-40
6.4567842 -3.6198232 -0.43706021 5.5317378e-40
6.4346662 -3.5871747 -0.42902824 3.6878252e-40
6.408639 -3.5583029 -0.44174066 2.7658689e-40
6.3963194 -3.5235674 -0.43775839 2.7658689e-40
6.3802171 -3.4926836 -0.45502514 2.7658689e-40
6.7380443 -3.6231034 -0.38056657 5.5317378e-40
6.7229834 -3.6259408 -0.38056651 3.6878252e-40
6.713902 -3.5975914 -0.39636508 3.6878252e-40
6.6958742 -3.631048 -0.38056645 4.6097815e-40
6.6652551 -3.6695569 -0.37841183 4.6097815e-40
6.677371 -3.6321685 -0.36852828 3.6878252e-40
6.6321812 -3.707943 -0.37327635 4.6097815e-40
6.6380539 -3.6743882 -0.37692145 3.6878252e-40
6.6123443 -3.710907 -0.36934048 3.6878252e-40
6.6151252 -3.6794889 -0.38089573 4.6097815e-40
6.5925074 -3.7138708 -0.36540461 3.6878252e-40
6.5793252 -3.686233 -0.38089576 3.6878252e-40
6.5452666 -3.6594205 -0.38056645 3.6878252e-40
6.5204053 -3.6959662 -0.37394071 3.6878252e-40
6.5093355 -3.6673715 -0.38658562 6.4536941e-40
6.4885273 -3.6704471 -0.38228619 4.6097815e-40
6.4701872 -3.6411159 -0.38421154 4.6097815e-40
6.4584575 -3.6457133 -0.39636508 3.6878252e-40
6.4550295 -3.6105092 -0.38797048 1.2907388e-39
6.4397612 -3.580127 -0.39804083 8.2976067e-40
6.4239306 -3.5476315 -0.40209064 7.3756504e-40
6.4116225 -3.5511806 -0.40835118 3.6878252e-40
6.3956413 -3.5199678 -0.41878766 1.8439126e-40
6.3790755 -3.486623 -0.42308298 2.7658689e-40
6.7249198 -3.6196632 -0.35047093 3.6878252e-40
6.7125988 -3.5906732 -0.3599045 4.6097815e-40
6.6947985 -3.6253376 -0.35047093 5.5317378e-40
6.6596618 -3.6644616 -0.34711415 4.6097815e-40
6.6767254 -3.6287425 -0.35047093 3.6878252e-40
6.6357951 -3.6689577 -0.34711415 5.5317378e-40
6.6074905 -3.7067947 -0.3437573 3.6878252e-40
6.6178951 -3.6723299 -0.34711415 5.5317378e-40
6.5958834 -3.7101412 -0.34966111 3.6878252e-40
6.5796666 -3.6792972 -0.34592184 4.6097815e-40
6.5502028 -3.6846919 -0.34512699 5.5317378e-40
6.5564547 -3.6525822 -0.35649005 3.6878252e-40
6.5247655 -3.722379 -0.3437573 6.4536941e-40
6.5224295 -3.6903143 -0.34711415 3.6878252e-40
6.4983501 -3.6936791 -0.3411527 4.6097815e-40
6.484055 -3.6656299 -0.35348049 3.6878252e-40
6.4693184 -3.6365037 -0.3599045 3.6878252e-40
6.4541526 -3.6058521 -0.36342558 7.3756504e-40
6.4388752 -3.5754235 -0.37325099 7.3756504e-40
6.4230356 -3.5428801 -0.37704855 4.6097815e-40
6.4042377 -3.5464215 -0.37704855 1.8439126e-40
6.3886342 -3.5175607 -0.3998169 1.8439126e-40
6.3854399 -3.5499628 -0.37704855 1.8439126e-40
6.7199712 -3.6154704 -0.32438821 4.6097815e-40
6.71173 -3.5860615 -0.33559749 4.6097815e-40
6.6939378 -3.6207693 -0.3263945 4.6097815e-40
6.6645627 -3.6576819 -0.31730691 5.5317378e-40
6.6347299 -3.6633019 -0.31730691 5.5317378e-40
6.6108632 -3.667798 -0.31730688 4.6097815e-40
6.5766797 -3.7056394 -0.30833447 6.4536941e-40
6.5859737 -3.673424 -0.32207599 4.6097815e-40
6.5501952 -3.7112086 -0.31128636 3.6878252e-40
6.5573769 -3.6790454 -0.32326832 4.6097815e-40
6.5189834 -3.7176685 -0.31423825 3.6878252e-40
6.5273309 -3.6835344 -0.31730688 3.6878252e-40
6.4944077 -3.6891513 -0.31432614 2.7658689e-40
6.4770627 -3.6616256 -0.3263945 3.6878252e-40
6.4558511 -3.6318774 -0.32344395 3.6878252e-40
6.4532752 -3.6011951 -0.33888078 9.219563e-40
6.4377675 -3.5695443 -0.34226358 4.6097815e-40
6.4221401 -3.5381286 -0.35200647 3.6878252e-40
6.4096084 -3.5404897 -0.35200647 1.8439126e-40
6.3933811 -3.5079696 -0.35555184 2.7658689e-40
6.3888025 -3.8031244 -0.30259499 1.8439126e-40
6.3853025 -3.7732468 -0.30541769 2.7658689e-40
6.369657 -3.7434795 -0.30243066 1.8439126e-40
6.3342037 -3.7501585 -0.30243066 2.7658689e-40
6.3500371 -3.7153723 -0.30935824 1.8439126e-40
6.734602 -3.6048305 -0.28426072 3.6878252e-40
6.7169595 -3.6105196 -0.29629889 3.6878252e-40
6.6871505 -3.6463993 -0.2815381 5.5317378e-40
6.6941528 -3.6152887 -0.29870659 3.6878252e-40
6.664258 -3.6833413 -0.27881539 4.6097815e-40
6.6635399 -3.6522527 -0.28869185 5.5317378e-40
6.6336641 -3.6576464 -0.28749955 5.5317378e-40
6.6062536 -3.7235801 -0.26448196 3.6878252e-40
6.609798 -3.6621425 -0.28749955 5.5317378e-40
6.5886946 -3.7268879 -0.26448196 3.6878252e-40
6.5817442 -3.7000453 -0.28471929 3.6878252e-40
6.5594296 -3.7324009 -0.26448193 4.6097815e-40
6.5540991 -3.7048671 -0.28275129 3.6878252e-40
6.5443783 -3.6756382 -0.29346102 3.6878252e-40
6.5265265 -3.7692106 -0.26203755 2.7658689e-40
6.5303736 -3.7390237 -0.27032989 3.6878252e-40
6.5227261 -3.711551 -0.28668717 3.6878252e-40
6.532445 -3.6778862 -0.29346102 4.6097815e-40
6.5077066 -3.8307233 -0.24585505 2.7658689e-40
6.5115075 -3.8026514 -0.25959319 3.6878252e-40
6.4921474 -3.7779639 -0.27362537 2.7658689e-40
6.5071707 -3.7445438 -0.27617785 3.6878252e-40
6.4933219 -3.7178631 -0.29062304 2.7658689e-40
6.4703932 -3.6593342 -0.30833715 2.7658689e-40
6.4849362 -3.8350127 -0.24585511 3.6878252e-40
6.4827833 -3.8080626 -0.25959319 2.7658689e-40
6.4747505 -3.7812412 -0.27362537 2.7658689e-40
6.475595 -3.7212026 -0.29062304 3.6878252e-40
6.4608459 -3.6913745 -0.29346102 7.3756504e-40
6.452105 -3.661597 -0.30231807 2.7658689e-40
6.4401145 -3.5988519 -0.31433591 1.8439126e-40
6.4244757 -3.5671773 -0.31747377 2.7658689e-40
6.4214692 -3.5345652 -0.33322489 3.6878252e-40
6.4540591 -3.8134737 -0.25959319 1.8439126e-40
6.445756 -3.7867031 -0.27362543 1.8439126e-40
6.425046 -3.6981187 -0.29346102 1.8439126e-40
6.4338169 -3.6638594 -0.29629895 2.7658689e-40
6.4155488 -3.6034799 -0.31433591 1.8439126e-40
6.408937 -3.5369263 -0.33322489 1.8439126e-40
6.4368248 -3.8167205 -0.25959319 1.8439126e-40
6.4165545 -3.7910662 -0.26783147 1.8439126e-40
6.4139404 -3.764405 -0.2878738 1.8439126e-40
6.3875184 -3.7963085 -0.2666727 1.8439126e-40
6.3845706 -3.7693634 -0.28494978 1.8439126e-40
6.3641572 -3.7997987 -0.26203755 1.8439126e-40
6.3549924 -3.773212 -0.27617788 1.8439126e-40
6.3375802 -3.7464297 -0.28668717 1.8439126e-40
6.3172212 -3.7160888 -0.2815381 1.8439126e-40
6.7457166 -3.661036 -0.24339256 4.6097815e-40
6.7341719 -3.6025467 -0.27222249 3.6878252e-40
6.7279902 -3.6643755 -0.24339256 8.2976067e-40
6.7340312 -3.6328824 -0.25769225 3.6878252e-40
6.7158837 -3.604809 -0.26620337 3.6878252e-40
6.6990657 -3.7014999 -0.24109012 5.5317378e-40
6.6986566 -3.6710613 -0.24929638 4.6097815e-40
6.6924782 -3.6418817 -0.26365373 6.4536941e-40
6.6980257 -3.6093559 -0.27222249 3.6878252e-40
6.6839256 -3.7334876 -0.23113677 3.6878252e-40
6.6698008 -3.7070129 -0.24109012 6.4536941e-40
6.6674943 -3.6788652 -0.25913605 5.5317378e-40
6.6747913 -3.6463852 -0.26961517 3.6878252e-40
6.6644583 -3.7363963 -0.2272741 8.2976067e-40
6.6463885 -3.7114234 -0.24109012 3.6878252e-40
6.6429439 -3.6838768 -0.26110399 3.6878252e-40
6.6389914 -3.6531293 -0.26961517 3.6878252e-40
6.6220708 -3.7451401 -0.23113677 6.4536941e-40
6.6203632 -3.7180495 -0.24986205 4.6097815e-40
6.6165648 -3.690006 -0.2670078 4.6097815e-40
6.584959 -3.7820475 -0.22515401 6.4536941e-40
6.5974393 -3.7503877 -0.23422679 4.6097815e-40
6.5882764 -3.7246687 -0.25278604 6.4536941e-40
6.5734696 -3.7842121 -0.22515401 3.6878252e-40
6.5642195 -3.7567973 -0.23499939 3.6878252e-40
6.5590115 -3.7301817 -0.25278604 5.5317378e-40
6.5279212 -3.7950485 -0.23663375 4.6097815e-40
6.5428882 -3.7604368 -0.23306802 3.6878252e-40
6.5355992 -3.7345922 -0.25278604 2.7658689e-40
6.5186849 -3.8264203 -0.23447987 3.6878252e-40
6.512465 -3.7972083 -0.23280717 3.6878252e-40
6.4843264 -3.8317757 -0.22879221 2.7658689e-40
6.455864 -3.8371375 -0.22879218 1.8439126e-40
6.453649 -3.8112955 -0.24811348 1.8439126e-40
6.4350591 -3.841429 -0.23068811 1.8439126e-40
6.420753 -3.8156133 -0.23854706 1.8439126e-40
6.3897343 -3.7921345 -0.2475528 1.8439126e-40
6.3830032 -3.7610416 -0.24109012 2.7658689e-40
6.3675466 -3.7322779 -0.24339256 2.7658689e-40
6.3637428 -3.7976003 -0.25044975 2.7658689e-40
6.3483033 -3.7698762 -0.25278604 2.7658689e-40
6.339437 -3.7389653 -0.25047716 1.8439126e-40
6.3163686 -3.7115641 -0.25769225 2.7658689e-40
6.7679729 -3.7430596 -0.20219457 5.5317378e-40
6.7566195 -3.7156193 -0.20989236 3.6878252e-40
6.7392225 -3.7188966 -0.20989236 4.6097815e-40
6.7337656 -3.6926649 -0.2293942 5.5317378e-40
6.7101865 -3.724139 -0.20873359 4.6097815e-40
6.7063122 -3.6970706 -0.22549558 4.6097815e-40
6.6812334 -3.729821 -0.20989239 3.6878252e-40
6.655035 -3.7341874 -0.20699544 4.6097815e-40
6.6457615 -3.7080944 -0.22354627 5.5317378e-40
6.6232443 -3.7407453 -0.20989236 4.6097815e-40
6.5843434 -3.7787807 -0.20793444 4.6097815e-40
6.6000485 -3.745115 -0.20989236 4.6097815e-40
6.5673141 -3.7831163 -0.21367428 3.6878252e-40
6.5650482 -3.7505703 -0.20409848 3.6878252e-40
6.5271006 -3.7906921 -0.21367428 2.7658689e-40
6.5391603 -3.7565856 -0.20989236 4.6097815e-40
6.533927 -3.7257156 -0.20600235 3.6878252e-40
6.5041213 -3.7950211 -0.21367428 4.6097815e-40
6.5132723 -3.7626009 -0.21568628 3.6878252e-40
6.4988089 -3.7323315 -0.20600235 3.6878252e-40
6.481142 -3.79935 -0.21367431 2.7658689e-40
6.4664664 -3.7691417 -0.20409848 2.7658689e-40
6.4753971 -3.736742 -0.20600235 3.6878252e-40
6.4524179 -3.8047612 -0.21367428 2.7658689e-40
6.4432707 -3.7735112 -0.20409854 1.8439126e-40
6.4294386 -3.8090901 -0.21367428 1.8439126e-40
6.4144835 -3.7800729 -0.20989236 1.8439126e-40
6.4051609 -3.7499735 -0.20600235 2.7658689e-40
6.3905492 -3.7244649 -0.22568116 1.8439126e-40
6.3789425 -3.7278111 -0.23158495 1.8439126e-40
6.3690028 -3.6957924 -0.22788496 1.8439126e-40
6.3589435 -3.6637735 -0.22406961 1.8439126e-40
6.3434892 -3.7344902 -0.23158495 1.8439126e-40
6.3430762 -3.7002864 -0.22589782 1.8439126e-40
6.7675624 -3.7408817 -0.19071484 2.7658689e-40
6.7601404 -3.7088089 -0.17860526 4.6097815e-40
6.7326832 -3.7451968 -0.1792351 7.3756504e-40
6.7439861 -3.7123075 -0.18092288 4.6097815e-40
6.7091928 -3.7188625 -0.18092279 4.6097815e-40
6.6801982 -3.7243247 -0.18092276 5.5317378e-40
6.6514106 -3.7308862 -0.18671671 4.6097815e-40
6.622416 -3.7363482 -0.18671674 4.6097815e-40
6.5973563 -3.7414482 -0.1886481 3.6878252e-40
6.5878587 -3.711726 -0.18650916 6.4536941e-40
6.5597429 -3.7179799 -0.1913825 3.6878252e-40
6.5545216 -3.6854551 -0.18435448 3.6878252e-40
6.5405426 -3.655278 -0.18615475 4.6097815e-40
6.5218029 -3.7257018 -0.19430646 3.6878252e-40
6.5163245 -3.6938107 -0.19025828 3.6878252e-40
6.5286093 -3.657526 -0.18615475 4.6097815e-40
6.4899454 -3.6999402 -0.1961621 2.7658689e-40
6.4868431 -3.6653941 -0.18615475 3.6878252e-40
6.463273 -3.736728 -0.19430646 1.8439126e-40
6.4485831 -3.7077324 -0.1961621 1.8439126e-40
6.4651079 -3.6702695 -0.19012907 2.7658689e-40
6.4398608 -3.7411385 -0.19430646 2.7658689e-40
6.4116006 -3.5825229 -0.20388408 1.8439126e-40
6.3862634 -3.6890271 -0.21000059 2.7658689e-40
6.3705616 -3.6592197 -0.21203141 1.8439126e-40
6.3546295 -3.6294558 -0.21406226 1.8439126e-40
6.3444967 -3.6968951 -0.21000059 1.8439126e-40
6.7657161 -3.7310801 -0.13905606 5.5317378e-40
6.7584834 -3.7042637 -0.15388463 4.6097815e-40
6.7376075 -3.7397583 -0.15627566 3.6878252e-40
6.7369447 -3.706804 -0.14615937 5.5317378e-40
6.7159581 -3.712275 -0.15388463 3.6878252e-40
6.6997623 -3.6837511 -0.15142143 3.6878252e-40
6.6756535 -3.6898246 -0.1592187 5.5317378e-40
6.6600375 -3.6609378 -0.16073926 4.6097815e-40
6.6456919 -3.6970012 -0.167016 6.4536941e-40
6.6304932 -3.6665034 -0.16073926 4.6097815e-40
6.6127338 -3.7016778 -0.15921867 4.6097815e-40
6.5849319 -3.7069154 -0.1592187 4.6097815e-40
6.5626068 -3.7106619 -0.15687947 3.6878252e-40
6.5460801 -3.6839523 -0.16861098 4.6097815e-40
6.520967 -3.7212634 -0.17091462 3.6878252e-40
6.5104861 -3.6898847 -0.16467513 4.6097815e-40
6.5279703 -3.6541326 -0.16827038 3.6878252e-40
6.4862041 -3.6620007 -0.16827038 2.7658689e-40
6.4683042 -3.6653728 -0.16827038 2.7658689e-40
6.449595 -3.6372352 -0.17591682 1.8439126e-40
6.4384742 -3.606497 -0.17760167 1.8439126e-40
6.4267445 -3.6110945 -0.18975522 2.7658689e-40
6.4230065 -3.5755517 -0.17933923 2.7658689e-40
6.4074183 -3.5448205 -0.18732695 2.7658689e-40
6.3739057 -3.4082661 -0.21447934 2.7658689e-40
6.7648954 -3.7267237 -0.11609656 3.6878252e-40
6.7535129 -3.6991293 -0.12298369 7.3756504e-40
6.7536106 -3.7299774 -0.12183643 4.6097815e-40
6.7361164 -3.7024069 -0.1229836 5.5317378e-40
6.7071218 -3.7078691 -0.1229836 7.3756504e-40
6.6745038 -3.683722 -0.12705487 4.6097815e-40
6.6653137 -3.6564641 -0.14302783 4.6097815e-40
6.6422081 -3.6892316 -0.1241309 4.6097815e-40
6.6416779 -3.6609166 -0.14302783 4.6097815e-40
6.613152 -3.6958544 -0.1299789 8.2976067e-40
6.5838866 -3.7013676 -0.1299789 4.6097815e-40
6.5604749 -3.7057781 -0.1299789 7.3756504e-40
6.5410156 -3.6787202 -0.137124 4.6097815e-40
6.5206962 -3.6822164 -0.13543727 4.6097815e-40
6.5032516 -3.6541042 -0.14442454 3.6878252e-40
6.4853516 -3.6574762 -0.14442454 2.7658689e-40
6.4674516 -3.6608484 -0.14442454 1.8439126e-40
6.4484472 -3.6311443 -0.14381488 1.8439126e-40
6.4378223 -3.6030383 -0.15937139 1.8439126e-40
6.4187164 -3.5366039 -0.15633963 2.7658689e-40
6.4225678 -3.5732234 -0.1670668 2.7658689e-40
6.4067535 -3.5412927 -0.16873455 3.6878252e-40
6.3905873 -3.5084026 -0.17045128 2.7658689e-40
6.380723 -3.4755669 -0.17849167 2.7658689e-40
6.3772488 -3.4417818 -0.19309926 2.7658689e-40
6.3669834 -3.4070337 -0.20156914 2.7658689e-40
6.7750525 -3.7479527 -0.08091408 3.6878252e-40
6.7638693 -3.7212782 -0.087397255 2.7658689e-40
6.7758803 -3.6903622 -0.099808 3.6878252e-40
6.740694 -3.7533081 -0.075226501 6.4536941e-40
6.7409415 -3.7258792 -0.088832259 3.6878252e-40
6.7177057 -3.728847 -0.081657417 3.6878252e-40
6.7038078 -3.7030292 -0.095172912 3.6878252e-40
6.6789556 -3.7071037 -0.092082858 3.6878252e-40
6.6668744 -3.6807551 -0.10463769 4.6097815e-40
6.6413717 -3.6847935 -0.10073906 6.4536941e-40
6.6135702 -3.6900311 -0.10073906 5.5317378e-40
6.6019125 -3.7231352 -0.099808 6.4536941e-40
6.5828419 -3.6958199 -0.10073906 4.6097815e-40
6.5535765 -3.7013328 -0.10073906 4.6097815e-40
6.5205207 -3.73733 -0.094014145 4.6097815e-40
6.5273428 -3.7068493 -0.10366303 3.6878252e-40
6.5087161 -3.7384157 -0.088220231 4.6097815e-40
6.5069618 -3.7112632 -0.10658705 5.5317378e-40
6.4926891 -3.6820245 -0.10760496 3.6878252e-40
6.4814095 -3.6529484 -0.11759794 3.6878252e-40
6.4663863 -3.6551926 -0.1146172 2.7658689e-40
6.4467263 -3.6264229 -0.11813329 2.7658689e-40
6.4180517 -3.5330763 -0.1377472 2.7658689e-40
6.4208131 -3.5639091 -0.11797704 2.7658689e-40
6.4022241 -3.5012906 -0.1454092 2.7658689e-40
6.3798189 -3.4707675 -0.1531973 2.7658689e-40
6.3650761 -3.5107486 -0.15793024 3.6878252e-40
6.3564682 -3.4369104 -0.14838019 3.6878252e-40
6.7742391 -3.7436364 -0.058163658 3.6878252e-40
6.7628436 -3.7158329 -0.05869795 3.6878252e-40
6.7398806 -3.7489915 -0.052476022 7.3756504e-40
6.7428393 -3.7201653 -0.061567839 3.6878252e-40
6.7282925 -3.7500572 -0.046788387 2.7658689e-40
6.7111402 -3.7255733 -0.05869795 8.2976067e-40
6.696456 -3.6990638 -0.067941561 4.6097815e-40
6.6760559 -3.702338 -0.065044515 4.6097815e-40
6.6580949 -3.677047 -0.077347226 3.6878252e-40
6.644659 -3.7077971 -0.062727034 5.5317378e-40
6.6461797 -3.678143 -0.071499236 3.6878252e-40
6.6178598 -3.7121627 -0.05925066 4.6097815e-40
6.6112704 -3.685868 -0.077347226 3.6878252e-40
6.587297 -3.7184083 -0.061733708 4.6097815e-40
6.5878587 -3.6902785 -0.077347226 3.6878252e-40
6.5628738 -3.7230906 -0.062147647 3.6878252e-40
6.5466785 -3.6968875 -0.071499288 4.6097815e-40
6.5194855 -3.7318332 -0.065044634 4.6097815e-40
6.5291195 -3.7001953 -0.071499236 8.2976067e-40
6.5057073 -3.7046058 -0.071499236 4.6097815e-40
6.4916339 -3.6764235 -0.078085907 9.219563e-40
6.4772539 -3.6472893 -0.084809922 7.3756504e-40
6.4653211 -3.6495373 -0.084809922 6.4536941e-40
6.4503837 -3.6193478 -0.085630052 2.7658689e-40
6.4356503 -3.5915082 -0.098603763 6.4536941e-40
6.420155 -3.5604162 -0.099568382 2.7658689e-40
6.4045386 -3.5295339 -0.10675979 2.7658689e-40
6.3883495 -3.4965241 -0.10784604 1.8439126e-40
6.3807983 -3.464371 -0.12157941 2.7658689e-40
6.3685713 -3.4308648 -0.12921487 1.8439126e-40
6.349618 -3.4356906 -0.13560326 4.6097815e-40
6.3512931 -3.3947706 -0.12410799 3.6878252e-40
6.7614312 -3.7382269 -0.018350331 6.4536941e-40
6.7677679 -3.7103944 -0.035738479 4.6097815e-40
6.7402234 -3.7141733 -0.028563756 3.6878252e-40
6.7162971 -3.7489645 -0.029725542 2.7658689e-40
6.7089653 -3.7203441 -0.029998584 4.6097815e-40
6.6928802 -3.7233744 -0.029998643 3.6878252e-40
6.6750207 -3.6968412 -0.036075003 5.5317378e-40
6.6460261 -3.7023036 -0.036074944 2.7658689e-40
6.6455526 -3.674814 -0.05395538 3.6878252e-40
6.6170316 -3.7077656 -0.036075003 3.6878252e-40
6.588037 -3.713228 -0.036075003 4.6097815e-40
6.5610442 -3.7186921 -0.03800635 5.5317378e-40
6.5426025 -3.6913362 -0.039335493 3.6878252e-40
6.5233083 -3.6950858 -0.039920263 4.6097815e-40
6.5021853 -3.6674759 -0.042663034 7.3756504e-40
6.5046625 -3.6990578 -0.042259458 4.6097815e-40
6.4808769 -3.6402817 -0.05261803 5.5317378e-40
6.4642553 -3.6438816 -0.055002581 2.7658689e-40
6.4434991 -3.6159146 -0.061553601 4.6097815e-40
6.4317799 -3.5546095 -0.081159778 2.7658689e-40
6.4219661 -3.5857289 -0.05606645 3.6878252e-40
6.4192777 -3.555759 -0.075023562 2.7658689e-40
6.3972282 -3.524823 -0.075772502 2.7658689e-40
6.3879018 -3.4941483 -0.095325001 2.7658689e-40
6.3749223 -3.4941335 -0.08280395 2.7658689e-40
6.7492328 -3.7360547 0.0044000889 3.6878252e-40
6.7320676 -3.7103534 -0.0012993356 3.6878252e-40
6.711072 -3.7146845 -0.0032125956 2.7658689e-40
6.7025652 -3.6836836 0.0044823936 5.5317378e-40
6.6880927 -3.7190135 -0.0032125956 3.6878252e-40
6.6728253 -3.6915629 -0.0071053756 4.6097815e-40
6.6449904 -3.6968069 -0.0071053747 4.6097815e-40
6.6159959 -3.7022691 -0.0071053747 3.6878252e-40
6.5870013 -3.7077312 -0.0071054334 2.7658689e-40
6.5638056 -3.7121005 -0.0071054939 3.6878252e-40
6.5445881 -3.6857915 -0.013019685 5.5317378e-40
6.5192947 -3.6909394 -0.014969054 2.7658689e-40
6.5089388 -3.6600177 -0.011176122 3.6878252e-40
6.4891014 -3.662981 -0.0072402223 3.6878252e-40
6.4810901 -3.6348538 -0.025195362 3.6878252e-40
6.4631901 -3.638226 -0.025195362 3.6878252e-40
6.4437141 -3.6104343 -0.033865701 3.6878252e-40
6.4210973 -3.5811167 -0.031759411 2.7658689e-40
6.4181809 -3.5499377 -0.044342518 2.7658689e-40
6.3963418 -3.5201194 -0.050982639 2.7658689e-40
6.3738036 -3.488194 -0.05150133 2.7658689e-40
6.3576674 -3.4575469 -0.064667188 2.7658689e-40
6.7477517 -3.7565002 0.049458478 4.6097815e-40
6.748013 -3.7295802 0.038525838 5.5317378e-40
6.7335038 -3.7044439 0.027399911 5.5317378e-40
6.7080626 -3.7092371 0.02740003 3.6878252e-40
6.6830316 -3.7132008 0.031226607 3.6878252e-40
6.6710854 -3.6865783 0.019932732 4.6097815e-40
6.6559491 -3.7167993 0.038879704 4.6097815e-40
6.6439552 -3.6913104 0.021864077 4.6097815e-40
6.62148 -3.7232926 0.038879704 1.3829344e-39
6.6149602 -3.6967723 0.021864077 4.6097815e-40
6.5883269 -3.7020171 0.020705247 3.6878252e-40
6.5723901 -3.6725116 0.02791601 3.6878252e-40
6.5627704 -3.7066042 0.021864077 6.4536941e-40
6.5435429 -3.6802437 0.016220089 4.6097815e-40
6.5146961 -3.6879759 0.0045241676 3.6878252e-40
6.5120621 -3.6549442 0.011652019 3.6878252e-40
6.4787459 -3.6289706 0.0069965273 3.6878252e-40
6.4592052 -3.5999475 0.0046565891 2.7658689e-40
6.4625506 -3.6348326 -0.00731096 4.6097815e-40
6.4413476 -3.6044941 -0.0013625242 1.8439126e-40
6.4328265 -3.5765193 -0.019605894 1.8439126e-40
6.4170842 -3.5441163 -0.013661422 1.8439126e-40
6.3965635 -3.5144763 -0.022474295 1.8439126e-40
6.3729086 -3.4834425 -0.026459232 2.7658689e-40
6.3565373 -3.4515479 -0.0330493 2.7658689e-40
6.33957 -3.4175012 -0.033388305 1.8439126e-40
6.7360182 -3.7284875 0.055588745 1.1985432e-39
6.7240663 -3.699456 0.061839174 4.6097815e-40
6.7068319 -3.7027028 0.061839174 7.3756504e-40
6.679595 -3.7081153 0.06040423 8.2976067e-40
6.6670976 -3.7381186 0.072651587 7.3756504e-40
6.6506147 -3.7137442 0.059543226 3.6878252e-40
6.6343246 -3.6880019 0.047936719 5.5317378e-40
6.6126823 -3.6910543 0.05315119 3.6878252e-40
6.5967355 -3.6956522 0.045039732 3.6878252e-40
6.5776157 -3.6680801 0.045459863 3.6878252e-40
6.5483508 -3.6735933 0.045459922 5.5317378e-40
6.512526 -3.6492887 0.039990176 2.7658689e-40
6.4966459 -3.6190395 0.040380724 2.7658689e-40
6.481019 -3.6235452 0.032432139 2.7658689e-40
6.4612494 -3.5942407 0.031742629 2.7658689e-40
6.4465113 -3.5987909 0.022713929 3.6878252e-40
6.4280515 -3.5348167 0.023155838 2.7658689e-40
6.412735 -3.5048547 0.010992067 1.8439126e-40
6.4003296 -3.5071917 0.010992067 1.8439126e-40
6.3843212 -3.4751427 0.0048433882 1.8439126e-40
6.3687682 -3.478687 0.0017131262 1.8439126e-40
6.3551812 -3.4443488 0.0048921439 1.8439126e-40
6.3391137 -3.415077 -0.02061145 2.7658689e-40
6.7232456 -3.6950996 0.084798701 3.6878252e-40
6.7058058 -3.6972575 0.090538539 4.6097815e-40
6.687654 -3.6682794 0.097184956 4.6097815e-40
6.6771846 -3.703213 0.08766865 4.6097815e-40
6.6644583 -3.6726491 0.097184956 3.6878252e-40
6.6541023 -3.7069976 0.090538539 4.6097815e-40
6.6358781 -3.6803102 0.085597187 3.6878252e-40
6.613925 -3.6849008 0.083279647 3.6878252e-40
6.5941296 -3.6592243 0.074699812 9.219563e-40
6.576571 -3.6625321 0.074699692 6.4536941e-40
6.5572653 -3.635061 0.069509342 3.6878252e-40
6.5395384 -3.6384006 0.069509342 6.4536941e-40
6.5140038 -3.6435978 0.06754142 3.6878252e-40
6.5034647 -3.6115081 0.072175235 2.7658689e-40
6.4842863 -3.6190255 0.052303657 2.7658689e-40
6.4668651 -3.5876245 0.060032386 3.6878252e-40
6.4423842 -3.5603917 0.053315278 2.7658689e-40
6.416501 -3.49757 0.044458371 1.8439126e-40
6.3925762 -3.5001292 0.054374292 1.8439126e-40
6.3894682 -3.4680226 0.036145952 1.8439126e-40
6.3706708 -3.4715638 0.036145952 1.8439126e-40
6.6996264 -3.7230511 0.11815255 4.6097815e-40
6.6994457 -3.6950724 0.10775811 4.6097815e-40
6.6882415 -3.7251959 0.11815255 5.5317378e-40
6.6801596 -3.6979537 0.11158469 4.6097815e-40
6.663837 -3.6693509 0.1145667 4.6097815e-40
6.6406417 -3.6737208 0.11456676 4.6097815e-40
6.6176529 -3.6791899 0.10877278 5.5317378e-40
6.5989375 -3.6525738 0.10393947 2.7658689e-40
6.5755258 -3.6569843 0.10393953 3.6878252e-40
6.55621 -3.6294603 0.099028394 2.7658689e-40
6.5443921 -3.6316864 0.099028394 5.5317378e-40
6.5344343 -3.6009891 0.096021049 5.5317378e-40
6.516006 -3.5703254 0.10096241 3.6878252e-40
6.5089388 -3.6383655 0.099028394 2.7658689e-40
6.5036778 -3.6071734 0.094033875 3.6878252e-40
6.4742661 -3.580554 0.088924237 4.6097815e-40
6.4534621 -3.5523353 0.083699077 2.7658689e-40
6.4319997 -3.522017 0.084517978 4.6097815e-40
6.4169445 -3.4931033 0.06676928 5.5317378e-40
6.3983359 -3.4966087 0.06676928 1.8439126e-40
6.6284223 -3.6726077 0.13194844 2.7658689e-40
6.6098075 -3.6459301 0.12733138 3.6878252e-40
6.5906081 -3.6171803 0.12854744 2.7658689e-40
6.5669727 -3.6216328 0.12854733 3.6878252e-40
6.5374279 -3.6271987 0.12854744 3.6878252e-40
6.5298882 -3.598722 0.11191827 2.7658689e-40
6.5103064 -3.6646748 0.12733138 2.7658689e-40
6.4962769 -3.636111 0.12264362 2.7658689e-40
6.5116687 -3.6003973 0.12086047 2.7658689e-40
6.4981823 -3.6646607 0.13902724 3.6878252e-40
6.4757628 -3.6065757 0.12384121 4.6097815e-40
6.4528108 -3.5488763 0.10192935 4.6097815e-40
6.4374828 -3.5173671 0.10292663 2.7658689e-40
6.6136107 -3.6093671 0.14625885 3.6878252e-40
6.5943646 -3.6111369 0.15570489 2.7658689e-40
6.567606 -3.6157141 0.15806638 4.6097815e-40
6.5644093 -3.5851912 0.14768702 3.6878252e-40
6.5439615 -3.6502917 0.16826707 5.5317378e-40
6.5422821 -3.6204848 0.15806644 3.6878252e-40
6.5324454 -3.5904319 0.15166131 2.7658689e-40
6.5127392 -3.714457 0.18811625 3.6878252e-40
6.5109944 -3.6867609 0.17250584 2.7658689e-40
6.5149055 -3.6569145 0.16241908 2.7658689e-40
6.5129485 -3.6271708 0.15216261 2.7658689e-40
6.5166764 -3.5941834 0.14768702 4.6097815e-40
6.4897594 -3.718786 0.18811625 2.7658689e-40
6.4877987 -3.6911309 0.1725059 3.6878252e-40
6.4858494 -3.6635375 0.15657115 3.6878252e-40
6.477706 -3.6349697 0.14625885 2.7658689e-40
6.4725251 -3.7220328 0.18811625 4.6097815e-40
6.4606681 -3.6958621 0.17443706 2.7658689e-40
6.4563751 -3.6679409 0.16241908 2.7658689e-40
6.4570107 -3.6054237 0.14768702 4.6097815e-40
6.4412003 -3.6987708 0.17829975 3.6878252e-40
6.5723901 -3.6403406 0.19165891 1.1063476e-39
6.5648623 -3.6104314 0.18758553 3.6878252e-40
6.5431252 -3.6458535 0.19165891 4.6097815e-40
6.5121236 -3.71119 0.20533583 3.6878252e-40
6.5211425 -3.6768808 0.21306324 2.7658689e-40
6.5197129 -3.650264 0.19165891 2.7658689e-40
6.4948893 -3.7144368 0.20533583 2.7658689e-40
6.498775 -3.685648 0.18988758 3.6878252e-40
6.4738932 -3.7187679 0.2034225 3.6878252e-40
6.4547653 -3.6910927 0.20437233 4.6097815e-40
6.440372 -3.6943734 0.20147535 2.7658689e-40
6.5635962 -3.6037104 0.22300835 3.6878252e-40
6.5452752 -3.6388829 0.22507581 5.5317378e-40
6.5110974 -3.7057443 0.23403513 2.7658689e-40
6.52632 -3.6724904 0.23044498 2.7658689e-40
6.4938822 -3.7364812 0.2470718 3.6878252e-40
6.4950123 -3.7087746 0.23403519 3.6878252e-40
6.468832 -3.7129548 0.23786171 2.7658689e-40
6.4548693 -3.6863298 0.22851357 2.7658689e-40
6.4310803 -3.7230742 0.2225554 2.7658689e-40
6.4354014 -3.6892385 0.2323762 2.7658689e-40
6.4223189 -3.7529428 0.23190489 1.8439126e-40
6.5640287 -3.6281283 0.26183444 3.6878252e-40
6.5666213 -3.5981143 0.2485915 3.6878252e-40
6.5424743 -3.6626172 0.26520839 2.7658689e-40
6.5486994 -3.6325479 0.25403714 3.6878252e-40
6.5100718 -3.700299 0.26273444 2.7658689e-40
6.5252848 -3.6669941 0.25941455 4.6097815e-40
6.5005913 -3.7303753 0.27171823 2.7658689e-40
6.4868875 -3.7035389 0.26847428 2.7658689e-40
6.4641132 -3.708957 0.26273444 1.8439126e-40
6.430707 -3.68557 0.25555199 1.8439126e-40
6.5677915 -3.622364 0.28756553 3.6878252e-40
6.5737257 -3.5925224 0.27023882 7.3756504e-40
6.5474448 -3.6571274 0.28838405 2.7658689e-40
6.5519047 -3.6281142 0.2735303 4.6097815e-40
6.5119185 -3.6943126 0.29143375 1.8439126e-40
6.5262513 -3.6614993 0.28645265 3.6878252e-40
6.4966269 -3.7249758 0.30300012 1.8439126e-40
6.4860668 -3.6991827 0.29143381 2.7658689e-40
6.4630876 -3.7035115 0.29143369 1.8439126e-40
6.4396977 -3.7056625 0.30291355 3.6878252e-40
6.4372654 -3.6778836 0.28838405 1.8439126e-40
6.4168677 -3.6512554 0.28522617 2.7658689e-40
6.3990993 -3.6534536 0.29107422 1.8439126e-40
6.3926563 -3.5917792 0.27883908 1.8439126e-40
6.5853505 -3.612622 0.32031399 5.5317378e-40
6.5648527 -3.6753187 0.33735269 3.6878252e-40
6.5749898 -3.64397 0.32894146 2.7658689e-40
6.5680008 -3.6170394 0.31446606 2.7658689e-40
6.5552807 -3.7077804 0.33428198 8.2976067e-40
6.5420785 -3.6807365 0.3316128 3.6878252e-40
6.5476518 -3.6518524 0.31503603 3.6878252e-40
6.520741 -3.685884 0.32587296 2.7658689e-40
6.5236278 -3.6581993 0.30576581 2.7658689e-40
6.5024214 -3.719228 0.32669851 1.8439126e-40
6.4846306 -3.6915591 0.3316128 2.7658689e-40
6.4619079 -3.6972492 0.32443789 1.8439126e-40
6.4264269 -3.6734753 0.32121626 1.8439126e-40
6.4099693 -3.6468103 0.31446606 1.8439126e-40
6.3980541 -3.6479058 0.32031399 2.7658689e-40
6.3949814 -3.6180756 0.31156549 2.7658689e-40
6.5845146 -3.6081836 0.34370583 3.6878252e-40
6.5642376 -3.6720514 0.35457233 3.6878252e-40
6.5745754 -3.6417713 0.34052923 9.219563e-40
