# .PCD v0.7 - Point Cloud Data file format
VERSION 0.7
FIELDS x y z rgb
SIZE 4 4 4 4
TYPE F F F F
COUNT 1 1 1 1
WIDTH 752
HEIGHT 1
VIEWPOINT 0 0 0 1 0 0 0
POINTS 752
DATA ascii
-0.14400899 0.49205312 -1.2612994 5.1572071e-39
-0.14717674 0.47693929 -1.2630384 6.1688297e-39
-0.15637434 0.61330402 -1.2345397 6.1688129e-39
-0.13439 0.58116329 -1.2186373 5.3401621e-39
-0.15014493 0.59371471 -1.2331913 5.3405082e-39
-0.12781143 0.56356168 -1.2238184 4.6040404e-39
-0.13397622 0.5643779 -1.2376668 4.8788322e-39
-0.12496114 0.54905105 -1.2186373 2.7626179e-39
-0.13053501 0.5324316 -1.2312397 3.6809925e-39
-0.13304126 0.50825691 -1.235967 3.9611835e-39
-0.15249288 0.4902164 -1.2380428 4.3267192e-39
-0.19013786 0.47573975 -1.2384615 3.1274431e-39
-0.15581632 0.47497845 -1.247556 4.3270639e-39
-0.17708945 0.46568394 -1.2414747 3.959359e-39
-0.15926731 0.61498392 -1.1993401 6.3499532e-39
-0.13584697 0.59255958 -1.1947985 5.3408669e-39
-0.15463233 0.60154474 -1.2018712 5.3408599e-39
-0.11834657 0.5708316 -1.1960802 5.3408837e-39
-0.12322116 0.54430032 -1.1972915 3.2250506e-39
-0.13516343 0.52421063 -1.2058063 2.9462847e-39
-0.14709485 0.50855875 -1.2084056 3.1310319e-39
-0.16547096 0.49550048 -1.219147 3.1296067e-39
-0.19257462 0.4822337 -1.2226633 3.5862703e-39
-0.20563638 0.47148547 -1.2382718 3.4940719e-39
-0.19615197 0.46675485 -1.2284395 5.4273046e-39
-0.15132201 0.6207096 -1.1644628 4.5107419e-39
-0.16313112 0.61540729 -1.1856004 5.4280249e-39
-0.14121592 0.59483516 -1.1687332 5.4334255e-39
-0.11422062 0.57135844 -1.167395 5.8983749e-39
-0.12327147 0.56929219 -1.1698611 6.2639232e-39
-0.11184752 0.55145955 -1.1546483 5.5281631e-39
-0.12092662 0.53993499 -1.1688306 4.1441328e-39
-0.13872123 0.51888698 -1.1790769 3.7720937e-39
-0.14738548 0.50824392 -1.1773171 3.4047419e-39
-0.17127597 0.49203399 -1.1808883 4.1390811e-39
-0.18674481 0.4836835 -1.1981562 3.4965844e-39
-0.14766943 0.64392006 -1.1227814 2.9459414e-39
-0.13827097 0.62695217 -1.1307873 4.97209e-39
-0.14590156 0.62642896 -1.1460255 4.419275e-39
-0.1228627 0.59900892 -1.1298559 5.2494042e-39
-0.11803544 0.56903934 -1.1346871 6.2624897e-39
-0.11616862 0.54713959 -1.1341118 5.4374066e-39
-0.12919641 0.5277406 -1.1405147 4.1419776e-39
-0.14204443 0.51644027 -1.1563129 4.0490379e-39
-0.15505016 0.501607 -1.1469449 4.1415797e-39
-0.16689181 0.49117637 -1.1564959 4.9663111e-39
-0.1299777 0.64960426 -1.0870601 4.6994492e-39
-0.13930357 0.64833748 -1.104857 4.1423307e-39
-0.12252927 0.63005638 -1.0933375 5.8029381e-39
-0.13399971 0.63159108 -1.1098397 5.3430389e-39
-0.11415517 0.60393304 -1.0959226 5.6196314e-39
-0.1165036 0.59337401 -1.1115222 5.435243e-39
-0.10921216 0.58470076 -1.0933377 5.3444865e-39
-0.11961782 0.56674731 -1.1048801 5.5256337e-39
-0.12320697 0.54583585 -1.1068479 5.1579106e-39
-0.13225865 0.52769846 -1.110752 4.6047452e-39
-0.15264523 0.51332766 -1.1140089 5.4312451e-39
-0.16062474 0.50120676 -1.1199868 4.3259751e-39
-0.12452161 0.65022528 -1.0721581 4.6951514e-39
-0.1175158 0.63208747 -1.0688344 6.1720793e-39
-0.11302471 0.60287964 -1.0692601 5.6189112e-39
-0.11327028 0.57736194 -1.0705103 4.7894994e-39
-0.1199187 0.55941957 -1.0757046 4.6969647e-39
-0.12823999 0.54094803 -1.0766083 4.4217903e-39
-0.141976 0.52142715 -1.0831561 4.3274185e-39
-0.1625824 0.50125372 -1.0908599 5.6145475e-39
-0.11044586 0.65472722 -1.0218775 4.6014844e-39
-0.10427213 0.63583905 -1.0241838 5.9884098e-39
-0.11152959 0.63621551 -1.0424477 6.1724465e-39
-0.098160982 0.61858863 -1.0280273 5.4355905e-39
-0.10654795 0.60224116 -1.0358162 5.0671667e-39
-0.11409473 0.56943935 -1.040354 4.6983856e-39
-0.12873435 0.53923726 -1.0467736 4.0515728e-39
-0.15134931 0.5186733 -1.0572604 4.4160282e-39
-0.10662735 0.6548779 -1.0014411 4.6951304e-39
-0.10668981 0.63506079 -1.0042861 5.9876937e-39
-0.10264909 0.60857642 -1.0007381 5.0653731e-39
-0.10718489 0.59155846 -1.0084555 4.7880743e-39
-0.11749363 0.56880075 -1.0101441 4.5143517e-39
-0.13169622 0.55153298 -1.0105706 3.5045045e-39
-0.13511026 0.53781664 -1.0188482 3.9575723e-39
-0.15947425 0.51851189 -1.0242678 5.3358237e-39
-0.17221582 0.50758135 -1.0359092 9.7551238e-39
-0.093914628 0.66160339 -0.95943338 4.5132727e-39
-0.10718453 0.63477874 -0.97181523 5.8951253e-39
-0.10876024 0.60337996 -0.97267997 5.0660807e-39
-0.11270285 0.5884757 -0.97773433 5.2468916e-39
-0.12244427 0.56856811 -0.98101968 4.5111203e-39
-0.13881099 0.54944396 -0.98217797 4.0533665e-39
-0.14997983 0.54011405 -0.9904421 4.2373682e-39
-0.16001451 0.52712071 -0.99584264 4.9702669e-39
-0.14096642 0.70737123 -0.93091923 8.2933257e-39
-0.11324215 0.68364662 -0.93990642 5.7111264e-39
-0.13049674 0.68616319 -0.93463361 6.8185488e-39
-0.10213554 0.66685128 -0.94676381 4.5125594e-39
-0.12292802 0.66233927 -0.93956614 6.6345036e-39
-0.11921608 0.63229632 -0.94468158 6.4493795e-39
-0.11594856 0.60342944 -0.94632417 5.7121746e-39
-0.12445557 0.59241486 -0.94236702 6.0798907e-39
-0.13176227 0.5671047 -0.95214361 4.329959e-39
-0.1537801 0.54553068 -0.95857763 4.2337879e-39
-0.1682657 0.53267348 -0.97063893 4.967753e-39
-0.14838314 0.71058255 -0.91132355 8.5695441e-39
-0.13978851 0.68836433 -0.913234 7.462828e-39
-0.13380647 0.66026026 -0.91352558 6.9089255e-39
-0.12935305 0.62908256 -0.91620135 6.0798851e-39
-0.12513626 0.6040439 -0.91323298 5.4348632e-39
-0.13250649 0.58831501 -0.92261231 5.6185384e-39
-0.14271986 0.56680107 -0.92421097 5.0660891e-39
-0.1578021 0.5480268 -0.93123025 4.3303177e-39
-0.15550959 0.73143977 -0.87179285 1.1787679e-38
-0.15603507 0.7129733 -0.88555729 9.6737112e-39
-0.14576912 0.68599069 -0.88427359 8.568807e-39
-0.12263799 0.64826363 -0.86721778 7.6471954e-39
-0.13577819 0.65972149 -0.88358235 7.0933182e-39
-0.11911047 0.63624966 -0.86721778 6.0827662e-39
-0.12814963 0.62819541 -0.8844732 5.3423145e-39
-0.12921393 0.59998119 -0.88758379 5.5259785e-39
-0.14349508 0.58189762 -0.88803875 4.5118307e-39
-0.15188944 0.56692034 -0.89793658 4.144116e-39
-0.16915679 0.553617 -0.89745355 4.6900941e-39
-0.19245172 0.54893911 -0.89141321 6.1544748e-39
-0.1500591 0.72340393 -0.84753132 1.0591696e-38
-0.15533793 0.71529847 -0.86028725 8.9372266e-39
-0.13418984 0.68869221 -0.84790301 6.7248972e-39
-0.14639699 0.69475985 -0.86570352 7.093307e-39
-0.12799013 0.66187692 -0.85234624 6.5390542e-39
-0.13754857 0.64881933 -0.84865332 5.618893e-39
-0.12062848 0.63580394 -0.86116046 7.5503335e-39
-0.13327122 0.62653673 -0.85484225 6.0791494e-39
-0.13564742 0.60020167 -0.85775012 5.8036429e-39
-0.15121949 0.58114988 -0.86394143 4.8824083e-39
-0.16505551 0.56830406 -0.87048566 4.7887595e-39
-0.18013632 0.56282675 -0.88040495 4.3292331e-39
-0.15532553 0.73573077 -0.82248402 1.1788039e-38
-0.1725415 0.73299813 -0.8108995 1.1879167e-38
-0.14800453 0.71803045 -0.82142144 1.0410192e-38
-0.13311589 0.68895537 -0.81816465 7.278064e-39
-0.13307583 0.65800405 -0.82222807 5.6181811e-39
-0.12511623 0.63071513 -0.81939489 5.3423145e-39
-0.13402832 0.61312109 -0.8230781 4.9735235e-39
-0.14207709 0.60074377 -0.83318621 4.6040264e-39
-0.16518033 0.58541882 -0.83643389 4.1419524e-39
-0.19375634 0.57749379 -0.83601159 3.4991067e-39
-0.2092824 0.56469619 -0.8465758 6.0640462e-39
-0.1635921 0.73591346 -0.79231083 1.224615e-38
-0.17406738 0.73255008 -0.80481017 1.2246869e-38
-0.1493839 0.71725231 -0.79061097 9.5825918e-39
-0.1382159 0.68721259 -0.79026723 6.8167299e-39
-0.12879562 0.66068804 -0.78948528 5.9873293e-39
-0.12496853 0.63226593 -0.79013139 5.8018507e-39
-0.15417612 0.60855919 -0.8025074 4.1444621e-39
-0.15826094 0.60094213 -0.78818905 3.9575527e-39
-0.1875658 0.59550446 -0.81712681 3.8678724e-39
-0.20230544 0.58591199 -0.82386059 3.5912939e-39
-0.16896105 0.73495287 -0.76240283 1.3077702e-38
-0.15043461 0.71541107 -0.76165044 9.4904017e-39
-0.12658083 0.69068098 -0.75328189 6.4465068e-39
-0.13593185 0.69462848 -0.76945668 6.8170802e-39
-0.11586845 0.66467339 -0.75457168 6.6305338e-39
-0.12730277 0.66662335 -0.77094889 5.9873251e-39
-0.11768758 0.64605695 -0.75242931 5.9855133e-39
-0.13037884 0.63007438 -0.76291901 4.604018e-39
-0.15591443 0.60900021 -0.76691717 3.7742391e-39
-0.15980196 0.60048962 -0.78203934 3.4991039e-39
-0.17718184 0.59232432 -0.77269763 5.1514184e-39
-0.16881669 0.73538584 -0.73086393 1.1791304e-38
-0.14372802 0.71153808 -0.72739559 1.0134336e-38
-0.15843678 0.72157013 -0.73202831 1.1055925e-38
-0.1290468 0.69221222 -0.72750878 8.2922201e-39
-0.11900365 0.66364497 -0.72731072 6.8163698e-39
-0.1240139 0.64419943 -0.7271834 5.1575463e-39
-0.14015901 0.62732303 -0.73166943 3.9590017e-39
-0.15954375 0.60869968 -0.74356312 3.9568269e-39
-0.16606045 0.59453237 -0.73735487 3.9575625e-39
-0.17710602 0.58318305 -0.75067711 4.6904318e-39
-0.1782949 0.73611605 -0.70298463 1.2067542e-38
-0.14430225 0.71378452 -0.69604933 1.0595676e-38
-0.1636287 0.7224744 -0.70486194 1.1608036e-38
-0.12077355 0.68032992 -0.68308544 8.3854891e-39
-0.13109612 0.69240367 -0.6967265 9.1223409e-39
-0.11633658 0.66901904 -0.68718392 7.8301657e-39
-0.12182236 0.65822482 -0.69970864 7.0007582e-39
-0.12685931 0.63920498 -0.69325095 4.421433e-39
-0.13934815 0.62309682 -0.7037341 3.6809742e-39
-0.14951074 0.60411942 -0.70504028 4.0493798e-39
-0.16996753 0.58718979 -0.71253663 3.4990871e-39
-0.18266022 0.5745936 -0.70574158 6.3380884e-39
-0.16521597 0.72808111 -0.66629624 1.1887498e-38
-0.18251872 0.73808968 -0.67387551 1.2068989e-38
-0.14762998 0.71475571 -0.66654158 1.041093e-38
-0.12550843 0.68567538 -0.65788788 8.8453869e-39
-0.13754845 0.69606376 -0.67008621 9.4900472e-39
-0.12189281 0.67106926 -0.66106814 7.6464849e-39
-0.13069594 0.65512198 -0.66785872 5.8965644e-39
-0.13008964 0.63347614 -0.66908449 4.237378e-39
-0.1402334 0.61567903 -0.66848761 4.5139915e-39
-0.15136087 0.60219413 -0.67457998 4.2359445e-39
-0.17526329 0.5797084 -0.68150932 4.6021963e-39
-0.18729293 0.56901217 -0.69457304 6.8934131e-39
-0.17289972 0.73222363 -0.64253539 1.3544517e-38
-0.19268441 0.73688346 -0.64367384 1.2068285e-38
-0.14120913 0.70789701 -0.62507999 1.0781509e-38
-0.15481353 0.71863961 -0.63892353 1.14258e-38
-0.13172245 0.68849945 -0.63188434 8.6613599e-39
-0.12938559 0.66551507 -0.63059336 6.5419353e-39
-0.13356113 0.65131664 -0.63910258 5.3426676e-39
-0.13470709 0.62911183 -0.63852358 4.7894854e-39
-0.14492917 0.61322868 -0.64859223 4.5118279e-39
-0.15800035 0.59661472 -0.64570409 3.8664529e-39
-0.17617822 0.57501733 -0.65416223 4.1412265e-39
-0.18045986 0.56109607 -0.65177548 3.5884213e-39
-0.18835449 0.55960423 -0.66865164 4.6861368e-39
-0.41366124 0.73688501 -0.66023445 1.4463539e-38
-0.21555686 0.74997836 -0.60390514 1.1980377e-38
-0.18034232 0.73003834 -0.61283439 1.3545569e-38
-0.20024312 0.73788095 -0.61501783 1.2067566e-38
-0.14769995 0.70674419 -0.60315531 1.1240328e-38
-0.16530049 0.71965051 -0.6083467 1.2255555e-38
-0.13269556 0.68957633 -0.60308945 9.3985705e-39
-0.12852752 0.65824008 -0.60272169 6.3561049e-39
-0.13910604 0.62582278 -0.60885698 4.6976499e-39
-0.14168382 0.60345924 -0.60248721 4.0490505e-39
-0.15870273 0.58845532 -0.61750466 4.0504672e-39
-0.18594718 0.56566179 -0.6127966 3.317221e-39
-0.16563404 0.56821573 -0.62290347 4.2359305e-39
-0.17340076 0.56657785 -0.62821937 3.6834882e-39
-0.40366638 0.73781824 -0.63181525 1.0681358e-38
-0.41277075 0.73604834 -0.63998944 1.2895498e-38
-0.2170676 0.74953479 -0.59787619 1.253426e-38
-0.18223035 0.72940302 -0.57882959 1.3545575e-38
-0.20708799 0.73846513 -0.58980983 1.2344152e-38
-0.15459096 0.70870948 -0.57218772 1.1424712e-38
-0.17087948 0.7199375 -0.57914084 1.2347398e-38
-0.13736916 0.69077718 -0.57402289 9.9510198e-39
-0.13171995 0.66077083 -0.57569283 7.1855012e-39
-0.13029122 0.62695682 -0.57125115 5.4334101e-39
-0.13886082 0.62176919 -0.5851208 4.8816698e-39
-0.14180672 0.59981835 -0.58016849 4.7894784e-39
-0.16547489 0.57926238 -0.5874207 4.050463e-39
-0.18901324 0.56476152 -0.60056114 3.7717223e-39
-0.17710018 0.56702405 -0.57949221 4.8791503e-39
-0.1887511 0.55925065 -0.59096187 6.2512947e-39
-0.40886629 0.74403065 -0.6062215 8.2838936e-39
-0.23368478 0.7428925 -0.56132007 1.1332521e-38
-0.25534463 0.74440831 -0.55725145 1.0961942e-38
-0.19054151 0.72858256 -0.55400586 1.4006548e-38
-0.21801043 0.73603314 -0.5600608 1.3174267e-38
-0.16006684 0.70981383 -0.54480624 1.1516557e-38
-0.17740285 0.71943372 -0.54887486 1.2715818e-38
-0.14458764 0.68899119 -0.54557604 9.7673446e-39
-0.13624501 0.66128033 -0.54633272 7.2777038e-39
-0.13349545 0.63138151 -0.54518574 6.2635407e-39
-0.14568067 0.61071324 -0.54813945 5.3440899e-39
-0.14641714 0.59740865 -0.54889089 4.3288674e-39
-0.16357827 0.57877028 -0.55873537 4.4199784e-39
-0.17460048 0.56207913 -0.55801421 4.6022089e-39
-0.19056249 0.5487569 -0.56705105 6.2484221e-39
-0.33568633 0.74661505 -0.54280305 1.0408744e-38
-0.36390793 0.74747336 -0.55481076 7.6414235e-39
-0.38055003 0.75084275 -0.56458014 6.4414327e-39
-0.40720797 0.74441111 -0.58634108 7.9147691e-39
-0.24115133 0.73743773 -0.52800447 1.2442813e-38
-0.25458896 0.74127704 -0.53994 1.2254477e-38
-0.28828573 0.74339741 -0.53539282 1.0687496e-38
-0.19585383 0.72729707 -0.52122968 1.2993833e-38
-0.22382116 0.73337692 -0.52951473 1.2716886e-38
-0.16671705 0.7084046 -0.51376581 1.1057367e-38
-0.18447971 0.71792167 -0.52124387 1.2254483e-38
-0.15196085 0.68791318 -0.51732409 9.5822344e-39
-0.14351416 0.65914595 -0.51732409 7.9230718e-39
-0.14002633 0.63112956 -0.51612324 5.8947554e-39
-0.15369439 0.61073679 -0.51872241 5.1575407e-39
-0.15319622 0.59231067 -0.52027547 4.7891267e-39
-0.1669004 0.57463139 -0.52623564 4.5092874e-39
-0.17783642 0.56120026 -0.53093141 3.8660844e-39
-0.19679391 0.54252338 -0.53683299 4.8762832e-39
-0.19850278 0.52902591 -0.52714825 7.0717144e-39
-0.33332932 0.74874455 -0.52323043 7.6428668e-39
-0.35757971 0.75083071 -0.54210776 6.2498388e-39
-0.37791514 0.75564909 -0.54778582 3.8614082e-39
-0.2623204 0.73408598 -0.50835174 1.3083868e-38
-0.29189432 0.73923647 -0.51764649 1.0964806e-38
-0.32194757 0.7403416 -0.51527673 9.3870462e-39
-0.20626557 0.72450566 -0.49403781 1.2441018e-38
-0.23391414 0.72977924 -0.49818319 1.326718e-38
-0.17504716 0.70435113 -0.48354709 1.1332514e-38
-0.19204736 0.71469373 -0.48995909 1.1056279e-38
-0.16036117 0.68579215 -0.48725113 9.7673446e-39
-0.1507833 0.65701163 -0.48831537 7.8315895e-39
-0.14775252 0.62744266 -0.4881646 5.7114445e-39
-0.16042364 0.60638446 -0.48930544 4.8816782e-39
-0.15993297 0.58841276 -0.49018967 4.7887567e-39
-0.17138731 0.57331395 -0.50832975 5.0628227e-39
-0.16737497 0.56748152 -0.48511985 4.2341424e-39
-0.18387616 0.55398327 -0.50118899 4.325622e-39
-0.20342588 0.53518701 -0.51043105 4.143023e-39
-0.20662689 0.52439737 -0.5101158 7.2672291e-39
-0.28955209 0.75449657 -0.47147962 3.590959e-39
-0.3064636 0.75953364 -0.48092762 3.7699497e-39
-0.33605909 0.74702698 -0.50626051 8.5637287e-39
-0.25652432 0.73907399 -0.46537539 4.0515827e-39
-0.27312052 0.74083233 -0.47687346 6.5408563e-39
-0.2995739 0.74040216 -0.49068999 7.73974e-39
-0.32431912 0.73964524 -0.50581253 8.6580711e-39
-0.21330631 0.7228297 -0.45932734 6.9103562e-39
-0.23775148 0.72915983 -0.47072005 8.292583e-39
-0.18390954 0.69851404 -0.46019024 1.0318713e-38
-0.20008469 0.70999515 -0.46023217 9.5800582e-39
-0.16722012 0.68063593 -0.45778796 9.8577437e-39
-0.15805244 0.65487725 -0.45930669 7.461372e-39
-0.15486419 0.62434363 -0.45866099 5.3422963e-39
-0.16644013 0.6077866 -0.46871352 4.7901875e-39
-0.16070735 0.5992294 -0.44888562 4.0529854e-39
-0.16813147 0.58502519 -0.46241167 3.8678836e-39
-0.18185699 0.5702399 -0.46654946 4.0493952e-39
-0.1755619 0.56507766 -0.4524487 2.7611759e-39
-0.1898247 0.55217624 -0.47090262 3.6809756e-39
-0.2065444 0.53288746 -0.47644135 3.5905667e-39
-0.21805799 0.52082193 -0.4820708 4.326331e-39
-0.23735976 0.51236928 -0.47327271 4.3284975e-39
-0.31886804 0.75672066 -0.46007389 3.0381552e-39
-0.25332618 0.73888856 -0.45318073 2.9477658e-39
-0.28074205 0.74036258 -0.45051098 2.4860632e-39
-0.30784726 0.74542636 -0.45384189 2.7626599e-39
-0.21833754 0.72274971 -0.43688735 2.2119777e-39
-0.24156117 0.73141092 -0.43887022 2.2119945e-39
-0.18690515 0.69941932 -0.42984748 2.0257885e-39
-0.2061218 0.71020913 -0.43341309 1.933967e-39
-0.16868591 0.68176383 -0.42945653 2.9473819e-39
-0.15795016 0.65394044 -0.42827776 3.0392244e-39
-0.15485847 0.62237823 -0.4299047 2.0250627e-39
-0.15973186 0.59504372 -0.42816612 8.2796e-40
-0.16996777 0.57721269 -0.4354353 9.2015283e-40
-0.17345631 0.5625428 -0.43483675 1.1960194e-39
-0.19407606 0.54402727 -0.44266918 2.1161681e-39
-0.214149 0.53079224 -0.45574084 3.9586233e-39
-0.22181284 0.52021444 -0.44981158 3.1288837e-39
-0.23757041 0.50993872 -0.45800561 5.9800902e-39
-0.29563224 0.89686978 -0.4008947 1.5630153e-39
-0.22425318 0.81042445 -0.3838841 2.3952885e-39
-0.21464753 0.79324132 -0.38744766 2.9445106e-39
-0.32103455 0.75309139 -0.44334173 3.315105e-39
-0.20469177 0.76333207 -0.38729587 3.6860512e-39
-0.24108899 0.7441951 -0.40492702 5.8883192e-39
-0.26075459 0.74515831 -0.41919816 2.4900233e-39
-0.28562617 0.74067974 -0.4353821 2.0261753e-39
-0.30506682 0.74507242 -0.43993047 3.1278523e-39
-0.18406403 0.72876197 -0.38012516 1.1031442e-39
-0.20307362 0.73151159 -0.39168066 4.4257602e-39
-0.22400486 0.72728908 -0.41251856 3.9640814e-39
-0.24098802 0.73289615 -0.42476916 8.3156975e-40
-0.17988217 0.7145192 -0.38012516 2.4900331e-39
-0.18935442 0.70481116 -0.39871052 3.6867686e-39
-0.21066403 0.71204412 -0.41870463 1.5666026e-39
-0.17555571 0.68006122 -0.39683941 4.5161551e-39
-0.16050828 0.66451329 -0.39735997 7.3652107e-40
-0.16550875 0.65124929 -0.39633837 4.0555441e-39
-0.15985227 0.6219576 -0.39764947 2.0279577e-39
-0.15985584 0.59149015 -0.39794871 1.2921808e-39
-0.17166138 0.57266515 -0.41164455 6.4428621e-40
-0.17665613 0.55778658 -0.40890247 6.4464774e-40
-0.20503557 0.53696328 -0.41729569 9.2015423e-40
-0.21878004 0.529203 -0.42118192 8.2797121e-40
-0.22720408 0.51786876 -0.42549551 1.3800506e-39
-0.24303293 0.50491941 -0.42658511 4.3169872e-39
-0.3006748 0.92073429 -0.37012058 4.2377676e-39
-0.3103044 0.92470789 -0.37702024 3.7721077e-39
-0.2691654 0.89533943 -0.36984318 9.2757677e-39
-0.28223789 0.89354753 -0.37867913 9.8555493e-39
-0.2988658 0.90234959 -0.3949261 4.9627279e-39
-0.27512527 0.87034452 -0.37742117 8.3779249e-39
-0.29319036 0.85706776 -0.39542389 7.1837201e-39
-0.25187933 0.83103979 -0.36398819 2.5811259e-39
-0.26390922 0.8408767 -0.37472552 6.9078143e-39
-0.2819854 0.84301376 -0.39293659 5.6181825e-39
-0.21083319 0.81212211 -0.35507935 5.9859e-39
-0.23085439 0.82009131 -0.36874244 2.0265116e-39
-0.20764518 0.79176563 -0.36145419 6.8214116e-39
-0.21548152 0.79745215 -0.37045801 4.4271923e-39
-0.1952337 0.76401937 -0.36039296 7.741926e-39
-0.20596564 0.77039552 -0.37623134 5.9941873e-39
-0.18229556 0.73695773 -0.36095425 7.0043694e-39
-0.1689204 0.70927107 -0.35980797 6.174959e-39
-0.1616447 0.68083394 -0.35900062 3.9626282e-39
-0.1790688 0.67879105 -0.37623134 1.8406896e-40
-0.1594398 0.65492767 -0.35334843 4.1470069e-39
-0.17369306 0.64704251 -0.3701762 3.314012e-39
-0.17101288 0.61962128 -0.36606079 5.3444613e-39
-0.16077304 0.58985901 -0.36760587 6.4518934e-39
-0.16577268 0.5678308 -0.37134135 3.4983963e-39
-0.18018734 0.55263484 -0.37819648 2.4867737e-39
-0.20725405 0.53384507 -0.38839754 2.3027229e-39
-0.23845899 0.51777589 -0.40383294 1.2878577e-39
-0.2594384 0.5084998 -0.3968879 2.6654028e-39
-0.29722059 0.91626 -0.36057159 1.2708963e-38
-0.27626371 0.88694847 -0.33471322 1.4551792e-38
-0.28458476 0.89571494 -0.35158911 8.3779361e-39
-0.26894569 0.86841637 -0.33896914 1.3441126e-38
-0.27501643 0.87205964 -0.35489231 1.1601159e-38
-0.25484347 0.84290433 -0.3433069 4.5121923e-39
-0.26480842 0.8419072 -0.35987064 5.6213648e-39
-0.21731174 0.81491065 -0.33136716 4.239934e-39
-0.23399734 0.82693428 -0.33819312 1.9357565e-39
-0.2115097 0.79281282 -0.3336868 4.1466509e-39
-0.21992338 0.79117274 -0.34736469 8.8471875e-39
-0.19075954 0.76565337 -0.33016744 7.8330552e-39
-0.18275201 0.7378304 -0.33140934 5.8994511e-39
-0.1564852 0.71323711 -0.32316369 8.7568052e-39
-0.16883671 0.71754819 -0.33690795 9.7734528e-39
-0.14832819 0.68756682 -0.32688463 6.2667973e-39
-0.13849521 0.66047245 -0.32307544 6.5448163e-39
-0.15050364 0.65112853 -0.33876944 2.9474043e-39
-0.1335851 0.63422221 -0.31816077 3.4076426e-39
-0.15662861 0.62346631 -0.33336592 3.0395747e-39
-0.16853726 0.61081052 -0.34159139 1.4740455e-39
-0.17654598 0.58890188 -0.34224138 3.7782075e-39
-0.18883467 0.56952393 -0.34516209 4.0544301e-39
-0.18896973 0.54945731 -0.35036275 5.0678716e-39
-0.20308042 0.53186214 -0.34717718 2.6707992e-39
-0.20936203 0.521258 -0.35399267 4.9713599e-39
-0.27773082 0.8865177 -0.3288582 1.8239587e-38
-0.28759766 0.89225274 -0.33045363 1.8345885e-38
-0.26961994 0.86664438 -0.32138941 1.6297743e-38
-0.28419232 0.86156547 -0.30986172 1.9706805e-38
-0.25432944 0.84386969 -0.31085217 5.7096677e-39
-0.22407639 0.81454456 -0.30675188 4.6991171e-39
-0.2434622 0.82452387 -0.3013857 4.5111007e-39
-0.21255696 0.79238486 -0.30351332 5.0700478e-39
-0.19332039 0.76791251 -0.3012881 8.5716979e-39
-0.16940939 0.73332191 -0.29641572 1.0880889e-38
-0.18762362 0.74502766 -0.30307183 3.6827931e-39
-0.15337956 0.71462321 -0.29682976 7.7415701e-39
-0.1405654 0.68760258 -0.29592225 7.4642629e-39
-0.1319133 0.66008914 -0.29581353 6.1735143e-39
-0.12511718 0.6304003 -0.296812 5.0689688e-39
-0.1271646 0.60659635 -0.29196405 5.6224887e-39
-0.15070224 0.59107625 -0.30045861 4.6075997e-39
-0.18012226 0.58393323 -0.31950274 2.5789441e-39
-0.19624114 0.56741047 -0.31883785 3.0417159e-39
-0.19752085 0.55080628 -0.32076144 3.7760509e-39
-0.21304464 0.53196597 -0.32255334 3.6842154e-39
-0.22255957 0.51813102 -0.32411909 4.6032949e-39
-0.26754463 0.83887714 -0.29272786 5.900163e-39
-0.2835623 0.8385132 -0.28730869 1.0499854e-38
-0.23285079 0.80571425 -0.28389767 7.1941766e-39
-0.24976599 0.81791967 -0.28768525 5.896912e-39
-0.22107887 0.79033744 -0.27815789 7.283473e-39
-0.24017739 0.78522575 -0.26653805 1.1337871e-38
-0.20183051 0.76570928 -0.2731865 8.1985895e-39
-0.17482483 0.73856282 -0.26926965 9.2188581e-39
-0.19334006 0.74959433 -0.28145418 4.9709942e-39
-0.15387547 0.71289903 -0.26540735 7.0047155e-39
-0.13208997 0.68443209 -0.25216821 5.811217e-39
-0.14378119 0.68794453 -0.26840839 5.3434131e-39
-0.12052906 0.66247237 -0.25418586 5.7121858e-39
-0.13462889 0.65894783 -0.2739498 5.0696905e-39
-0.11155462 0.63254613 -0.25640577 4.7012737e-39
-0.12400448 0.63421869 -0.27480108 9.679109e-39
-0.10729122 0.60878021 -0.25520393 6.3600635e-39
-0.12147713 0.59589285 -0.27036801 3.869341e-39
-0.19903553 0.5633601 -0.30103663 8.2761388e-40
-0.12678421 0.57835943 -0.26112014 5.3419207e-39
-0.15052044 0.57042044 -0.27418059 3.2232499e-39
-0.20760655 0.54757631 -0.29262289 3.041011e-39
-0.22246778 0.52931774 -0.29299194 3.5001787e-39
-0.22490323 0.51639783 -0.29543561 5.615286e-39
-0.34422553 0.77466726 -0.26862898 9.8627856e-39
-0.24971569 0.78419977 -0.26204768 6.0770125e-39
-0.30425906 0.75835741 -0.26232472 1.005004e-38
-0.32962322 0.76558703 -0.2689485 1.1049121e-38
-0.20419884 0.75296527 -0.25443053 1.0131113e-38
-0.25186336 0.74195325 -0.25211599 7.1690107e-39
-0.27552783 0.74643952 -0.25368571 4.6051502e-39
-0.18185842 0.73363125 -0.24849468 7.5561194e-39
-0.20825195 0.73095465 -0.24138767 1.2629366e-38
-0.23407507 0.7336306 -0.24385346 1.3736803e-38
-0.1492312 0.70664072 -0.227001 9.3135495e-39
-0.16406643 0.71271718 -0.23709427 9.2174064e-39
-0.13536239 0.69071323 -0.23066108 8.5702405e-39
-0.10832429 0.6592207 -0.21532768 1.1335752e-38
-0.11893845 0.66631925 -0.2305298 6.5437485e-39
-0.099506855 0.64053297 -0.21778575 5.5292295e-39
-0.10591114 0.63347757 -0.23335916 7.096551e-39
-0.093370557 0.61184394 -0.21322393 8.7571247e-39
-0.10334659 0.60570055 -0.23017846 4.6069074e-39
-0.10887885 0.5816468 -0.22887428 4.8831342e-39
-0.1205765 0.5734508 -0.24004665 4.4221518e-39
-0.2132771 0.54357433 -0.26254794 3.4987634e-39
-0.22924387 0.52765286 -0.26432228 3.4987494e-39
-0.23252749 0.51735425 -0.26529023 4.1437629e-39
-0.35126507 0.77625608 -0.24685407 9.766983e-39
-0.36748648 0.78001451 -0.2482992 8.3836422e-39
-0.29203975 0.75802875 -0.23266092 7.7379645e-39
-0.31325066 0.76295269 -0.23975991 8.6606523e-39
-0.33743799 0.7682119 -0.24306878 1.0320933e-38
-0.25029778 0.73886812 -0.22485922 1.1335755e-38
-0.27743137 0.7479189 -0.23110148 8.7564423e-39
-0.22462237 0.72468513 -0.2165132 9.2181365e-39
-0.23515427 0.7260617 -0.22750191 3.7768048e-39
-0.16665661 0.70233512 -0.21374056 1.0967677e-38
-0.21933961 0.70204258 -0.21378779 6.8163683e-39
-0.14044642 0.68524963 -0.20388049 9.1223311e-39
-0.16936278 0.69008958 -0.20444092 1.0237662e-38
-0.1114136 0.65884942 -0.19710129 5.7111124e-39
-0.12640297 0.66959345 -0.19703321 9.7687949e-39
-0.099585772 0.63706374 -0.19490796 5.990579e-39
-0.096720815 0.61047935 -0.19420554 4.4239539e-39
-0.10449111 0.59614325 -0.20138043 4.0537365e-39
-0.10947049 0.57953799 -0.20134065 4.5147076e-39
-0.122293 0.56462753 -0.2050949 4.9763948e-39
-0.21942711 0.53692108 -0.23981106 2.0254102e-39
-0.23343349 0.52657902 -0.23391958 3.6856602e-39
-0.23849869 0.51430213 -0.24005941 3.2250394e-39
-0.35975003 0.77513844 -0.21965525 9.766295e-39
-0.29871547 0.75893134 -0.20277715 8.762196e-39
-0.32719684 0.76452267 -0.20943785 9.4896997e-39
-0.34512949 0.76759338 -0.21414445 1.0800251e-38
-0.23257565 0.74199426 -0.18780971 1.1244991e-38
-0.25603652 0.74479735 -0.19533205 7.8341202e-39
-0.28542197 0.75033355 -0.2026231 9.4943688e-39
-0.21890306 0.72506124 -0.18877625 7.9256026e-39
-0.21137726 0.69673979 -0.1888819 5.8065282e-39
-0.15225744 0.67605382 -0.18288793 1.2914689e-39
-0.18168938 0.67357123 -0.17299435 3.4069405e-39
-0.2022922 0.67832118 -0.18553054 2.5796938e-39
-0.11681509 0.65362859 -0.16453229 6.2661023e-39
-0.13786185 0.66041028 -0.17357041 9.1237716e-39
-0.16349232 0.66248208 -0.17314249 6.1717248e-39
-0.10558307 0.63742369 -0.1655046 8.0188744e-39
-0.09883523 0.60778439 -0.1648552 4.9764102e-39
-0.10284138 0.58734012 -0.15793167 8.4798273e-39
-0.11476779 0.57236838 -0.17254718 4.5157796e-39
-0.24904895 0.52350366 -0.21122546 4.0530008e-39
-0.24919951 0.51263034 -0.21160512 4.1434027e-39
-0.34559381 0.77320743 -0.17496198 1.2619274e-38
-0.3617276 0.77603555 -0.1912922 1.0228698e-38
-0.38630307 0.78183675 -0.19300699 1.3461291e-38
-0.30265355 0.7587378 -0.17181849 7.8334266e-39
-0.32876003 0.76513386 -0.18357807 8.2029153e-39
-0.23715043 0.74423635 -0.15994713 9.6755245e-39
-0.27219474 0.74923217 -0.16696951 7.6447081e-39
-0.28940666 0.75073636 -0.18170263 1.4462814e-38
-0.20891702 0.72494888 -0.1476327 4.9753466e-39
-0.22173905 0.73135787 -0.16070601 7.2834772e-39
-0.2014364 0.70207614 -0.15088819 5.9887629e-39
-0.21045232 0.70251918 -0.16780311 1.5702292e-39
-0.160303 0.67614198 -0.1395724 4.9760515e-39
-0.17941093 0.67911041 -0.15509802 5.9001658e-39
-0.12428796 0.65357149 -0.13871205 6.8142118e-39
-0.14953411 0.66145813 -0.14092217 4.5183187e-39
-0.16159391 0.66239691 -0.16155633 9.4194036e-39
-0.10825419 0.63661927 -0.13500895 6.5437443e-39
-0.10340416 0.60659385 -0.13534465 4.7920148e-39
-0.10759044 0.58594573 -0.13898017 4.9767577e-39
-0.11786616 0.56692868 -0.14251071 4.7905812e-39
-0.25684094 0.51962924 -0.18263903 4.3335477e-39
-0.11948955 0.54866111 -0.13814934 5.6149259e-39
-0.25203443 0.51154101 -0.18101996 6.2451753e-39
-0.34647012 0.77792871 -0.15309064 1.105739e-38
-0.36189282 0.78234911 -0.16847441 1.2999955e-38
-0.30673122 0.76033568 -0.14273025 8.7557374e-39
-0.33017361 0.76909715 -0.15142384 8.567742e-39
-0.22553432 0.74432302 -0.11923298 8.2886664e-39
-0.23953021 0.74721479 -0.13392195 8.4802253e-39
-0.28416467 0.75123495 -0.14108163 8.1968071e-39
-0.20960867 0.72933698 -0.12177662 8.9433432e-39
-0.20159435 0.70126325 -0.12411788 5.1615175e-39
-0.15812278 0.6783601 -0.11303809 6.4508228e-39
-0.18717146 0.68581676 -0.12055242 4.2402969e-39
-0.12967825 0.65045053 -0.10649662 5.161163e-39
-0.15330076 0.66049588 -0.11346243 4.7909372e-39
-0.10447586 0.63376415 -0.099111907 4.3328597e-39
-0.11169291 0.6367234 -0.10849092 9.585819e-39
-0.10858095 0.60527837 -0.10599373 5.2537132e-39
-0.10987186 0.58139759 -0.10669605 4.9756857e-39
-0.12383759 0.56353223 -0.11605449 4.0526547e-39
-0.14252341 0.54866755 -0.10893595 6.6391377e-39
-0.26297987 0.51502025 -0.16038959 6.0892248e-39
-0.25958633 0.50731182 -0.15926556 1.2881047e-38
-0.3229084 0.77913773 -0.11036348 9.6845138e-39
-0.34879255 0.77893567 -0.13218933 1.0883067e-38
-0.29938698 0.7540223 -0.10636836 7.7372695e-39
-0.31570911 0.76399648 -0.11520317 8.1975063e-39
-0.2204771 0.74363351 -0.093801625 1.3456619e-38
-0.24711072 0.74842787 -0.10560042 1.1062413e-38
-0.28013206 0.75021946 -0.1126555 8.1060142e-39
-0.20796502 0.7279138 -0.090596333 7.003991e-39
-0.21024418 0.69887942 -0.093409687 4.9756815e-39
-0.14805377 0.67812598 -0.07697311 7.2838317e-39
-0.16724193 0.67980886 -0.085716762 5.6203153e-39
-0.19235659 0.68401986 -0.092639007 5.1611546e-39
-0.13765728 0.65608072 -0.076126896 5.4370324e-39
-0.15287018 0.66138238 -0.089618236 5.5266889e-39
-0.11034679 0.63177979 -0.075403176 6.2660728e-39
-0.12251854 0.64354229 -0.075824082 7.0965538e-39
-0.11461329 0.60251391 -0.076542161 4.3317597e-39
-0.11797535 0.57863605 -0.081981413 4.1452034e-39
-0.13201034 0.56035268 -0.082598977 4.88313e-39
-0.14668751 0.54744494 -0.092318997 3.8660984e-39
-0.15925157 0.53591108 -0.08912231 6.5354472e-39
-0.3354193 0.77500421 -0.08526893 7.1941991e-39
-0.30336499 0.75537658 -0.081340872 8.2014594e-39
-0.32336366 0.76492399 -0.084723555 8.0138283e-39
-0.234074 0.74310857 -0.066927314 1.2443544e-38
-0.26521826 0.74755538 -0.068605214 8.0178304e-39
-0.28400886 0.75143135 -0.084879346 3.6775817e-40
-0.20346701 0.72437418 -0.046872642 9.0337158e-39
-0.21442151 0.72680116 -0.063389629 5.8072527e-39
-0.16737783 0.69670767 -0.038807914 1.2543577e-38
-0.18426716 0.70213568 -0.054638471 5.9909293e-39
-0.20415795 0.70987165 -0.063318014 4.051933e-39
-0.1527431 0.67724192 -0.048680834 6.2653428e-39
-0.17338371 0.68644106 -0.05553171 3.4105222e-39
-0.1400212 0.65651321 -0.04925663 5.0675184e-39
-0.11462045 0.63043469 -0.046708591 7.5575263e-39
-0.12908614 0.6405071 -0.043671675 7.1034131e-39
-0.11447453 0.6162349 -0.043468654 4.6108661e-39
-0.11959946 0.59971273 -0.048370868 4.9760417e-39
-0.12440264 0.57454681 -0.051560704 3.7778642e-39
-0.13770664 0.55813205 -0.056044199 4.9753172e-39
-0.15466833 0.54510158 -0.060469799 4.8860111e-39
-0.16486216 0.53422213 -0.063609757 6.3474378e-39
-0.33501184 0.7723999 -0.058628082 5.7226577e-39
-0.3097378 0.75565249 -0.054267984 8.1078218e-39
-0.32578528 0.76524258 -0.056310322 6.6309247e-39
-0.24669456 0.73824263 -0.037571747 7.9241719e-39
-0.26397192 0.74547619 -0.043634843 1.0413822e-38
-0.29916632 0.75093174 -0.044482589 1.1975008e-38
-0.20622909 0.7211169 -0.029254459 7.7440798e-39
-0.22516465 0.7297467 -0.032618776 8.8486491e-39
-0.17139113 0.69892222 -0.020516364 5.1615203e-39
-0.191118 0.70874834 -0.027676221 5.5288679e-39
-0.16312814 0.67988998 -0.021058921 3.8689781e-39
-0.17278147 0.68455356 -0.033546466 4.8698401e-39
-0.13205755 0.64914596 -0.0097553022 2.4882324e-39
-0.14327741 0.65693796 -0.022121258 7.1898172e-39
-0.12194955 0.63052475 -0.014374663 6.8199627e-39
-0.13403559 0.64001381 -0.024956267 1.5483448e-38
-0.12129343 0.61232173 -0.014195479 3.0395649e-39
-0.12835264 0.59564304 -0.019889815 5.2529957e-39
-0.1329453 0.57534373 -0.022519354 4.147353e-39
-0.14631379 0.55808198 -0.025522228 4.6983716e-39
-0.16266763 0.54283845 -0.034180291 4.2388466e-39
-0.18106103 0.52966082 -0.037474573 4.7815695e-39
-0.19519818 0.5172658 -0.037857931 1.6747788e-38
-0.34130788 0.77055126 -0.033502907 1.161669e-38
-0.31920338 0.7577709 -0.020458609 8.6635222e-39
-0.33388531 0.76201087 -0.030453883 4.324606e-39
-0.27136528 0.74004912 -0.015855137 1.1614133e-38
-0.30172896 0.74830139 -0.016400579 7.9266676e-39
-0.23542893 0.72255665 -0.0047594528 9.0330404e-39
-0.17755425 0.70186555 0.0071950546 6.451913e-39
-0.20116556 0.70992905 0.0033461305 4.9757194e-39
-0.22097456 0.71059251 0.0046133101 1.6683338e-38
-0.16621721 0.68154216 0.007545887 5.3448214e-39
-0.13877141 0.653108 0.013775651 6.1717178e-39
-0.14856231 0.66044039 0.00044230986 1.1891074e-38
-0.12880588 0.62808168 0.013845 7.0047057e-39
-0.13678443 0.59606159 0.0093209455 5.437024e-39
-0.14264762 0.57475013 0.0052869073 5.2533306e-39
-0.1552403 0.55897295 0.0032572723 3.6838665e-39
-0.17569852 0.54099858 -0.0025259983 4.6054501e-39
-0.18464625 0.52627039 -0.0077550504 7.359059e-39
-0.32108569 0.75668412 0.001348993 6.5329824e-39
-0.28389776 0.73081475 0.013331297 9.7680831e-39
-0.30735469 0.74197775 0.011088996 1.0319081e-38
-0.24646652 0.71428317 0.02147007 1.0505987e-38
-0.26855993 0.72167194 0.019477492 9.4958276e-39
-0.17756355 0.69809103 0.031419326 9.0326676e-39
-0.20600462 0.70250273 0.029575856 8.5702699e-39
-0.23065424 0.70239967 0.035162691 1.0500197e-38
-0.16818488 0.68013656 0.038275201 5.5310357e-39
-0.14473188 0.65248907 0.04441461 6.9103548e-39
-0.15588987 0.66239655 0.031189902 6.0737306e-39
-0.13631976 0.62932211 0.04155796 7.2816611e-39
-0.14678764 0.61553395 0.048301123 4.8841838e-39
-0.13448024 0.61036086 0.036367305 1.0048245e-38
-0.14696479 0.5941503 0.038255546 4.6083438e-39
-0.14948034 0.57352555 0.034254339 3.4065552e-39
-0.16416931 0.55921876 0.031926204 4.9735179e-39
-0.18119454 0.5402503 0.023750024 4.1441132e-39
-0.18758941 0.52744949 0.010266192 6.5314718e-39
-0.32977259 0.74740732 0.028232576 5.62396e-39
-0.34958231 0.7449922 0.040297583 1.0410576e-38
-0.2923305 0.72702265 0.043258548 1.0695415e-38
-0.31261587 0.73599452 0.037366819 9.1180151e-39
-0.25606608 0.70729721 0.049631499 9.3960453e-39
-0.27545834 0.71686208 0.044470284 1.022869e-38
-0.19044435 0.68993485 0.053242251 1.6864931e-38
-0.21753716 0.68896568 0.056867108 7.1005265e-39
-0.23822808 0.69444448 0.055587176 9.8591731e-39
-0.17442989 0.67493725 0.068061605 7.9270347e-39
-0.1547066 0.65137279 0.071253508 6.6370007e-39
-0.16593957 0.65944576 0.071294285 6.1767373e-39
-0.14823687 0.62925422 0.066527657 4.4268504e-39
-0.15746033 0.6155507 0.07215859 5.3426676e-39
-0.15650511 0.59441185 0.064296901 5.7136039e-39
-0.16943955 0.57723498 0.065325528 6.5426513e-39
-0.17385161 0.56147301 0.053907312 4.6050927e-39
-0.36296296 0.74006712 0.053612754 5.7161585e-39
-0.37459052 0.73974401 0.058688689 4.4261259e-39
-0.29328895 0.72496241 0.066414408 7.8330286e-39
-0.31400037 0.7262367 0.068315141 1.1977473e-38
-0.34984362 0.73219472 0.05506289 2.1154786e-39
-0.2630688 0.70463032 0.078235 6.7331817e-39
-0.2847023 0.71334243 0.073521383 8.2918614e-39
-0.25193369 0.68890965 0.08018554 7.5550054e-39
-0.18418574 0.66628408 0.091377839 5.989507e-39
-0.21400833 0.67116535 0.090806469 9.7749074e-39
-0.23489344 0.67070699 0.09877611 9.305534e-39
-0.15969884 0.64691025 0.089591317 1.1242466e-38
-0.17559445 0.64589316 0.097640164 7.7383134e-39
-0.17091417 0.61731005 0.095008373 6.543003e-39
-0.17107439 0.59626961 0.09103284 8.846833e-39
-0.18277013 0.58152252 0.08382231 4.6061816e-39
-0.39330614 0.72781378 0.078317963 3.5924164e-39
-0.25196421 0.7521928 0.12899555 1.650156e-38
-0.32997882 0.72124445 0.10114068 1.4459947e-38
-0.3526324 0.72105891 0.093151167 9.5631291e-39
-0.39062083 0.71927702 0.080299586 7.2622363e-39
-0.30264401 0.70071805 0.10217557 1.2625027e-38
-0.31881297 0.70946771 0.1001282 1.436378e-38
-0.2610594 0.68234688 0.10445229 4.9775004e-39
-0.28224623 0.68991703 0.10955577 1.1053752e-38
-0.22365355 0.65870225 0.10736713 1.1242058e-38
-0.24273264 0.65994352 0.11544306 5.4334395e-39
-0.19196844 0.63991052 0.11280411 4.0602315e-39
-0.22183204 0.63186669 0.12038942 7.8276644e-39
-0.22915566 0.63062656 0.12093207 8.5651888e-39
-0.18436348 0.62148464 0.11265618 9.6772831e-39
-0.20430732 0.59802961 0.1063576 3.4022252e-39
-0.23864985 0.59827882 0.11834244 6.910331e-39
-0.25220048 0.57970852 0.11805603 4.6079724e-39
-0.26589286 0.76148164 0.14244595 1.5393798e-38
-0.27202725 0.76123333 0.13754903 1.7051877e-38
-0.25316131 0.74684489 0.13569939 1.1418943e-38
-0.27086687 0.73350883 0.12856522 1.1877381e-38
-0.31470144 0.71906716 0.12512428 9.7619173e-39
-0.32999921 0.72555172 0.11878655 1.4642903e-38
-0.25407493 0.72634375 0.13693187 6.1663186e-39
-0.27656674 0.71178162 0.13633779 4.2309292e-39
-0.30469441 0.70212454 0.12387201 9.8494368e-39
-0.32053089 0.70566261 0.11450176 1.3258137e-38
-0.27263939 0.67024893 0.12318014 3.9611877e-39
-0.2895329 0.6786617 0.13283563 6.7194517e-39
-0.25511503 0.65275443 0.13109362 5.3441025e-39
-0.28952062 0.64954621 0.14157557 4.7873218e-39
-0.24920273 0.62576926 0.13378423 5.8980148e-39
-0.24729788 0.60508192 0.13045219 3.862888e-39
-0.2637583 0.58790666 0.12872148 5.1650923e-39
-0.30586672 0.65896285 0.14266305 6.5311032e-39
