# .PCD v0.7 - Point Cloud Data file format
VERSION 0.7
FIELDS x y z rgb
SIZE 4 4 4 4
TYPE F F F F
COUNT 1 1 1 1
WIDTH 947
HEIGHT 1
VIEWPOINT 0 0 0 1 0 0 0
POINTS 947
DATA ascii
6.4750667 -3.968576 -1.2598237 2.7658689e-40
6.4571486 -3.9759061 -1.2661473 2.7658689e-40
6.4327374 -3.9841371 -1.2661473 2.7658689e-40
6.4140387 -3.9891531 -1.2598237 2.7658689e-40
6.3914037 -3.9620266 -1.2791334 2.7658689e-40
6.3725133 -3.9670944 -1.272745 2.7658689e-40
6.3546109 -3.9347537 -1.27957 2.7658689e-40
6.4742861 -3.9662621 -1.2471765 2.7658689e-40
6.4731679 -3.9262137 -1.2386734 2.7658689e-40
6.4555879 -3.9712782 -1.240853 2.7658689e-40
6.4311767 -3.9795091 -1.240853 1.8439126e-40
6.4115143 -3.9470017 -1.2386734 3.6878252e-40
6.4132586 -3.9868393 -1.2471765 2.7658689e-40
6.3902216 -3.9585202 -1.2599682 2.7658689e-40
6.3779368 -3.9216278 -1.2537496 3.6878252e-40
6.3717251 -3.9647567 -1.2599682 2.7658689e-40
6.3530178 -3.9300296 -1.2537497 2.7658689e-40
6.3464761 -3.8901141 -1.2474759 2.7658689e-40
6.3288121 -3.8592384 -1.2671593 3.6878252e-40
6.4918804 -3.91383 -1.2088606 6.4536941e-40
6.4754944 -3.9564061 -1.2008036 4.6097815e-40
6.4803376 -3.9203253 -1.2216375 2.7658689e-40
6.4536371 -3.9654934 -1.2092351 3.6878252e-40
6.435329 -3.9716666 -1.2092351 5.5317378e-40
6.4140482 -3.9409406 -1.2131196 5.5317378e-40
6.4016614 -3.9096825 -1.2343844 3.6878252e-40
6.3763442 -3.9169037 -1.2279294 7.3756504e-40
6.3331752 -3.8090994 -1.2340295 2.7658689e-40
6.3085828 -3.7358396 -1.2610594 2.7658689e-40
6.2954307 -3.6965859 -1.268191 2.7658689e-40
6.2819743 -3.6563957 -1.2755014 4.6097815e-40
6.2611318 -3.6172307 -1.275618 6.4536941e-40
6.351027 -3.9241247 -1.2214742 3.6878252e-40
6.338973 -3.8886566 -1.2279052 3.6878252e-40
6.3267789 -3.8532081 -1.2341992 3.6878252e-40
6.262249 -3.664465 -1.2824627 2.7658689e-40
6.2387776 -3.6257238 -1.2803105 5.5317378e-40
6.221242 -3.633549 -1.2896956 5.5317378e-40
6.2041836 -3.5920267 -1.2950568 2.7658689e-40
6.1907773 -3.5462639 -1.2909236 2.7658689e-40
6.5070024 -3.9423463 -1.1839408 6.4536941e-40
6.4822011 -3.9494202 -1.1776171 4.6097815e-40
6.4516869 -3.9597087 -1.1776172 5.5317378e-40
6.4272757 -3.9679396 -1.1776171 1.2907388e-39
6.4047766 -3.9405959 -1.1960838 4.6097815e-40
6.4024744 -3.9750137 -1.1712936 3.6878252e-40
6.3839626 -3.9467459 -1.1918248 9.219563e-40
6.3618937 -3.9151998 -1.1956538 3.6878252e-40
6.3266892 -3.76827 -1.2339089 3.6878252e-40
6.3196235 -3.7251809 -1.2270184 2.7658689e-40
6.3003755 -3.6893079 -1.2406555 6.4536941e-40
6.2802563 -3.6513014 -1.247656 2.7658689e-40
6.2602634 -3.614655 -1.2615403 2.7658689e-40
6.367784 -3.9530687 -1.1960838 5.5317378e-40
6.2659612 -3.6532845 -1.2337333 3.6878252e-40
6.23945 -3.6202385 -1.2545016 1.8439126e-40
6.2186365 -3.6258223 -1.2474627 2.7658689e-40
6.2121739 -3.585464 -1.2760705 2.7658689e-40
6.4806404 -3.9447925 -1.1523228 4.6097815e-40
6.4501266 -3.9550812 -1.1523229 6.4536941e-40
6.4257154 -3.9633119 -1.1523228 4.6097815e-40
6.3952017 -3.9736006 -1.1523229 3.6878252e-40
6.3043828 -3.7233837 -1.1929774 3.6878252e-40
6.2920332 -3.6865103 -1.21312 2.7658689e-40
6.3654194 -3.9460557 -1.1577531 2.7658689e-40
6.2579546 -3.6517286 -1.2128493 3.6878252e-40
6.2309198 -3.6173778 -1.2263464 2.7658689e-40
6.2095385 -3.5776482 -1.2333512 3.6878252e-40
6.4786901 -3.939008 -1.1207049 3.6878252e-40
6.449553 -3.949348 -1.1232344 3.6878252e-40
6.4345031 -3.9905236 -1.1157904 3.6878252e-40
6.4176621 -3.9595852 -1.1207049 4.6097815e-40
6.3932509 -3.9678159 -1.1207049 4.6097815e-40
6.3095369 -3.7603316 -1.1665654 2.7658689e-40
6.2836909 -3.6837125 -1.1855845 4.6097815e-40
6.3642511 -3.9758761 -1.1122735 5.5317378e-40
6.2633843 -3.6456428 -1.1919653 1.0141519e-39
6.2383852 -3.609602 -1.2005374 3.6878252e-40
6.2215242 -3.5678041 -1.2048717 4.6097815e-40
6.2015767 -3.6201007 -1.1911523 3.6878252e-40
6.208221 -3.5737405 -1.2119915 3.6878252e-40
6.4926052 -3.9632795 -1.0782272 4.6097815e-40
6.4706368 -3.935281 -1.089087 4.6097815e-40
6.4523287 -3.9414542 -1.089087 3.6878252e-40
6.4386139 -3.9827592 -1.0844878 4.6097815e-40
6.4157119 -3.9538004 -1.089087 2.7658689e-40
6.3955479 -3.9947288 -1.0719666 4.6097815e-40
6.394547 -3.9615808 -1.0922488 4.6097815e-40
6.2824168 -3.679934 -1.164933 1.1063476e-39
6.3774223 -4.0008402 -1.0719666 6.4536941e-40
6.3588824 -3.9733913 -1.0911949 2.7658689e-40
6.2940454 -3.7573218 -1.1261594 2.7658689e-40
6.2687054 -3.6831551 -1.1580491 3.6878252e-40
6.2410326 -3.6024945 -1.1700358 3.6878252e-40
6.2197676 -3.5625937 -1.1763922 2.7658689e-40
6.2007084 -3.6175253 -1.1770747 3.6878252e-40
6.2003522 -3.5685596 -1.1735443 2.7658689e-40
6.1862535 -3.6195304 -1.162997 2.7658689e-40
6.4824219 -3.8857789 -1.0555382 4.6097815e-40
6.4728165 -3.9296501 -1.0650575 4.6097815e-40
6.4446654 -3.938884 -1.0637927 5.5317378e-40
6.4202542 -3.9471149 -1.0637927 3.6878252e-40
6.4004316 -3.9892557 -1.0531851 4.6097815e-40
6.378149 -3.9963436 -1.0510982 3.6878252e-40
6.3573217 -3.9687634 -1.0659006 3.6878252e-40
6.2734809 -3.718544 -1.1180872 3.6878252e-40
6.2392955 -3.5973432 -1.1418806 1.8439126e-40
6.2175717 -3.5560806 -1.1407927 1.8439126e-40
6.3344526 -3.9356706 -1.0555382 2.7658689e-40
6.1969576 -3.563031 -1.1407927 1.8439126e-40
6.1679883 -3.5245957 -1.1468685 2.7658689e-40
6.4660616 -3.9257431 -1.0347043 4.6097815e-40
6.452878 -3.9651937 -1.0218825 3.6878252e-40
6.4495978 -3.9333556 -1.044822 3.6878252e-40
6.4290962 -3.974488 -1.028143 3.6878252e-40
6.4007721 -3.9836135 -1.0260562 3.6878252e-40
6.3801727 -3.955905 -1.0406063 4.6097815e-40
6.357666 -3.9630644 -1.0384984 4.6097815e-40
6.2785544 -3.7543118 -1.0857533 3.6878252e-40
6.2507472 -3.6737809 -1.0823264 2.7658689e-40
6.2307658 -3.5944827 -1.1137253 1.8439126e-40
6.3343787 -3.9679096 -1.0237434 2.7658689e-40
6.3213339 -3.9374905 -1.0427613 1.8439126e-40
6.2899451 -3.8280189 -1.0496228 1.8439126e-40
6.1956401 -3.559123 -1.1194332 1.8439126e-40
6.1745868 -3.5647712 -1.1123133 2.7658689e-40
6.4762731 -3.9547544 -1.0093614 3.6878252e-40
6.4560122 -3.9585242 -0.99433613 4.6097815e-40
6.427165 -3.9687607 -0.99684042 3.6878252e-40
6.3969555 -3.9789467 -0.99684042 4.6097815e-40
6.3739963 -3.9866881 -0.99684036 2.7658689e-40
6.3557153 -3.9572799 -1.0068805 5.5317378e-40
6.3546619 -3.9932072 -0.99684036 5.5317378e-40
6.3370171 -3.962296 -1.0005569 3.6878252e-40
6.3193631 -3.9316463 -1.0108191 2.7658689e-40
6.2950191 -3.8622713 -1.0256749 2.7658689e-40
6.2694087 -3.7898755 -1.0341612 2.7658689e-40
6.2357616 -3.673223 -1.054791 1.8439126e-40
6.2296405 -3.6343257 -1.0805838 1.8439126e-40
6.2018566 -3.5984936 -1.0855701 2.7658689e-40
6.1810431 -3.6040769 -1.0785314 1.8439126e-40
6.4654598 -3.9851077 -0.95581299 4.6097815e-40
6.4494023 -3.9548852 -0.96553779 2.7658689e-40
6.4252343 -3.9630339 -0.96553785 3.6878252e-40
6.3950248 -3.9732201 -0.96553779 3.6878252e-40
6.3708568 -3.9813688 -0.96553779 5.5317378e-40
6.3527312 -3.9874804 -0.96553779 6.4536941e-40
6.3293538 -3.9597259 -0.97526264 1.8439126e-40
6.2997117 -3.8953924 -0.99554586 2.7658689e-40
6.2800131 -3.8593554 -0.98653364 2.7658689e-40
6.2685866 -3.7874379 -1.0208367 1.8439126e-40
6.2408991 -3.7087214 -1.015964 1.8439126e-40
6.2278438 -3.6716847 -1.0341393 1.8439126e-40
6.2144861 -3.6337619 -1.0527384 1.8439126e-40
6.1920242 -3.5917695 -1.0362985 2.7658689e-40
6.1939015 -3.6392839 -1.0457771 1.8439126e-40
6.1737471 -3.6460795 -1.0457771 9.219563e-41
6.4716387 -3.9410095 -0.93423516 4.6097815e-40
6.4560828 -3.9836392 -0.9330889 4.6097815e-40
6.4595551 -3.9450839 -0.93423516 3.6878252e-40
6.4236894 -3.9584522 -0.94049573 3.6878252e-40
6.3934798 -3.9686384 -0.94049567 2.7658689e-40
6.3693123 -3.9767871 -0.94049567 3.6878252e-40
6.3449316 -3.9454541 -0.93099755 2.7658689e-40
6.3511863 -3.9828987 -0.94049567 2.7658689e-40
6.3274031 -3.9539411 -0.94364476 2.7658689e-40
6.3034859 -3.9252844 -0.95332319 1.8439126e-40
6.2467418 -3.7458282 -0.9914726 2.7658689e-40
6.219502 -3.6688871 -1.0066038 1.8439126e-40
6.1907215 -3.5879059 -1.015182 2.7658689e-40
6.284863 -3.8925078 -0.9568153 1.8439126e-40
6.2524395 -3.7820225 -0.96753842 1.8439126e-40
6.185895 -3.6377282 -1.024893 3.6878252e-40
6.1727514 -3.5944428 -1.0175283 1.8439126e-40
6.1551347 -3.5524707 -1.0197548 1.8439126e-40
6.1724586 -3.6422586 -1.024893 2.7658689e-40
6.469708 -3.9352825 -0.90293252 3.6878252e-40
6.4532213 -3.9037874 -0.90570325 3.6878252e-40
6.4747458 -3.9731371 -0.9124307 3.6878252e-40
6.4509144 -3.9434052 -0.91169727 4.6097815e-40
6.4217587 -3.9527252 -0.9091931 3.6878252e-40
6.3915486 -3.9629111 -0.9091931 3.6878252e-40
6.3673811 -3.9710598 -0.9091931 3.6878252e-40
6.3488693 -3.9760263 -0.90293252 3.6878252e-40
6.3254528 -3.9481564 -0.91202682 2.7658689e-40
6.24508 -3.7409 -0.96453524 2.7658689e-40
6.2173786 -3.66259 -0.97218448 2.7658689e-40
6.2110505 -3.6235728 -0.99704772 2.7658689e-40
6.3071446 -3.9543295 -0.91202682 2.7658689e-40
6.2887902 -3.9224296 -0.91499257 3.6878252e-40
6.2836685 -3.8889647 -0.93744999 1.8439126e-40
6.1896076 -3.6265478 -0.97616369 1.8439126e-40
6.1686053 -3.5896261 -0.98702675 1.8439126e-40
6.1542559 -3.5498652 -1.005515 2.7658689e-40
6.1405134 -3.5544989 -1.005515 2.7658689e-40
6.4562497 -3.8993306 -0.88884038 3.6878252e-40
6.4443817 -3.9399948 -0.88415092 2.7658689e-40
6.4394555 -3.9032753 -0.88040894 3.6878252e-40
6.4198275 -3.9469981 -0.87789053 3.6878252e-40
6.3896179 -3.9571843 -0.87789041 3.6878252e-40
6.3654499 -3.965333 -0.87789041 2.7658689e-40
6.3391399 -3.9737794 -0.87580359 2.7658689e-40
6.3260565 -3.9432282 -0.88884038 1.8439126e-40
6.2994814 -3.9517593 -0.88673252 2.7658689e-40
6.269218 -3.8872607 -0.90517449 1.8439126e-40
6.2555513 -3.8100662 -0.90459841 1.8439126e-40
6.2231383 -3.6994505 -0.94107372 1.8439126e-40
6.196908 -3.6633205 -0.94189543 2.7658689e-40
6.1683259 -3.6707134 -0.9308812 3.6878252e-40
6.1614461 -3.631788 -0.95527965 2.7658689e-40
6.432857 -3.8998311 -0.8525852 5.5317378e-40
6.4159431 -3.9434609 -0.85410047 3.6878252e-40
6.388073 -3.9526029 -0.85284835 4.6097815e-40
6.3639054 -3.9607515 -0.85284835 5.5317378e-40
6.3457794 -3.9668632 -0.85284835 2.7658689e-40
6.3219419 -3.9377439 -0.85511464 1.8439126e-40
6.2409258 -3.728579 -0.89719182 1.8439126e-40
6.3036337 -3.943917 -0.85511464 1.8439126e-40
6.2856374 -3.913079 -0.86388505 2.7658689e-40
6.2483296 -3.7698333 -0.90091562 2.7658689e-40
6.2210383 -3.6932225 -0.90703267 2.7658689e-40
6.1936259 -3.657975 -0.91022962 2.7658689e-40
6.1670518 -3.666935 -0.91022962 1.8439126e-40
6.1475458 -3.6749144 -0.91711348 2.7658689e-40
6.4397469 -3.92625 -0.80902469 3.6878252e-40
6.4279375 -3.895992 -0.82560456 4.6097815e-40
6.4103098 -3.9387267 -0.82154578 4.6097815e-40
6.390492 -3.9800782 -0.80707377 3.6878252e-40
6.3869143 -3.9491665 -0.83406675 5.5317378e-40
6.3686891 -3.9878511 -0.80913949 3.6878252e-40
6.3602176 -3.9564674 -0.82571942 6.4536941e-40
6.335535 -3.9630885 -0.81737208 4.6097815e-40
6.3142791 -3.935174 -0.82982028 2.7658689e-40
6.2955804 -3.9401901 -0.8234967 1.8439126e-40
6.2709422 -3.910224 -0.82555443 1.8439126e-40
6.2656341 -3.8766317 -0.84707868 2.7658689e-40
6.2144179 -3.6880565 -0.87072223 1.8439126e-40
6.1898546 -3.6541038 -0.88498873 1.8439126e-40
6.1653533 -3.6618972 -0.88269407 1.8439126e-40
6.1378555 -3.6283946 -0.89958894 2.7658689e-40
6.4389749 -3.9239595 -0.7965036 4.6097815e-40
6.4204626 -3.9289255 -0.79024309 5.5317378e-40
6.3949437 -3.9735258 -0.78228396 5.5317378e-40
6.3671598 -3.9833155 -0.78434962 3.6878252e-40
6.3536153 -3.9501894 -0.78398257 3.6878252e-40
6.3298335 -3.9594831 -0.79024315 2.7658689e-40
6.305666 -3.9676323 -0.79024309 1.8439126e-40
6.2879171 -3.9376199 -0.7982024 1.8439126e-40
6.2697601 -3.9067175 -0.80638915 1.8439126e-40
6.2106876 -3.6842275 -0.8457588 1.8439126e-40
6.1835852 -3.6501393 -0.85515857 2.7658689e-40
6.1636548 -3.6568594 -0.85515857 1.8439126e-40
6.4233203 -3.9589074 -0.75749397 4.6097815e-40
6.3934145 -3.9689903 -0.75749403 4.6097815e-40
6.3694906 -3.9770572 -0.75749397 4.6097815e-40
6.3524566 -3.946753 -0.76520103 2.7658689e-40
6.3306284 -3.9538579 -0.76394892 4.6097815e-40
6.3111582 -3.9259183 -0.77923167 2.7658689e-40
6.3037348 -3.9619052 -0.75894052 1.8439126e-40
6.2908492 -3.9301894 -0.76658452 1.8439126e-40
6.2620502 -3.8660028 -0.78898281 1.8439126e-40
6.2417536 -3.7503309 -0.79431921 1.8439126e-40
6.2024374 -3.6814604 -0.81852597 1.8439126e-40
6.1685996 -3.6495817 -0.82762313 2.7658689e-40
6.1474271 -3.6124015 -0.83693683 1.8439126e-40
6.1263905 -3.5766103 -0.85328937 2.7658689e-40
6.4389696 -3.946054 -0.7203092 6.4536941e-40
6.4245901 -3.9527965 -0.72960538 3.6878252e-40
6.4105587 -3.9195089 -0.72763789 3.6878252e-40
6.3915033 -3.963321 -0.72650671 4.6097815e-40
6.3716493 -4.0025954 -0.7070536 2.7658689e-40
6.36198 -3.9745386 -0.7327041 2.7658689e-40
6.3538833 -4.0085855 -0.7070536 2.7658689e-40
6.3372912 -3.9803374 -0.7203092 6.4536941e-40
6.322587 -3.9512966 -0.73807216 3.6878252e-40
6.2342787 -3.7088656 -0.78944236 1.8439126e-40
6.3014174 -3.9550328 -0.72137737 4.6097815e-40
6.2966118 -3.9230921 -0.74129021 1.8439126e-40
6.2781496 -3.890872 -0.74250478 1.8439126e-40
6.2401099 -3.7454553 -0.76767009 1.8439126e-40
6.2208652 -3.7120163 -0.78270805 1.8439126e-40
6.1941872 -3.6786938 -0.79129314 1.8439126e-40
6.1740556 -3.6840942 -0.78448498 2.7658689e-40
6.1602573 -3.6467841 -0.80008763 1.8439126e-40
6.1461391 -3.6085808 -0.81605279 1.8439126e-40
6.437058 -3.9403849 -0.68932188 6.4536941e-40
6.419497 -3.9475689 -0.69551933 4.6097815e-40
6.3920608 -3.9570723 -0.69675881 4.6097815e-40
6.3743353 -3.9975219 -0.68659955 4.6097815e-40
6.3586698 -4.003221 -0.68864495 2.7658689e-40
6.335762 -3.9758022 -0.69551933 2.7658689e-40
6.3123426 -3.9475222 -0.70259577 4.6097815e-40
6.3002591 -3.9515967 -0.70259577 2.7658689e-40
6.2824559 -3.921423 -0.70967227 1.8439126e-40
6.2457919 -3.7811213 -0.74638999 1.8439126e-40
6.2384658 -3.7405796 -0.74102098 1.8439126e-40
6.2192035 -3.707088 -0.75577068 1.8439126e-40
6.1925068 -3.6737113 -0.76406032 1.8439126e-40
6.1682754 -3.6814191 -0.76179093 1.8439126e-40
6.1523399 -3.6452458 -0.77943599 1.8439126e-40
6.1469336 -3.6904645 -0.77086854 2.7658689e-40
6.4396844 -3.9696531 -0.65796387 3.6878252e-40
6.4200892 -3.942739 -0.67279524 4.6097815e-40
6.407083 -3.9092002 -0.67129314 3.6878252e-40
6.3903785 -3.9520831 -0.66948998 4.6097815e-40
6.3752999 -3.9938629 -0.67023629 5.5317378e-40
6.3560357 -3.9634943 -0.66866356 3.6878252e-40
6.3402138 -3.96925 -0.67072946 3.6878252e-40
6.3168402 -3.9409037 -0.67755365 2.7658689e-40
6.2987142 -3.9470153 -0.67755365 3.6878252e-40
6.2808957 -3.9167953 -0.68437797 1.8439126e-40
6.2564754 -3.8494687 -0.6986115 1.8439126e-40
6.2239628 -3.7400398 -0.71437186 1.8439126e-40
6.2110424 -3.7043509 -0.72883326 1.8439126e-40
6.188777 -3.6698825 -0.73909694 1.8439126e-40
6.1645451 -3.6775904 -0.73682749 1.8439126e-40
6.1452537 -3.6854823 -0.74363571 1.8439126e-40
6.4500146 -3.9611692 -0.63341904 4.6097815e-40
6.436799 -3.9297388 -0.63664335 3.6878252e-40
6.4137254 -3.9709044 -0.62114662 5.5317378e-40
6.4174056 -3.9374142 -0.64222109 3.6878252e-40
6.3945522 -4.011611 -0.61512846 4.6097815e-40
6.396338 -3.9780171 -0.6272828 4.6097815e-40
6.3897147 -3.9481397 -0.64903831 3.6878252e-40
6.3769584 -4.0175438 -0.61512846 4.6097815e-40
6.3713069 -3.9885406 -0.63750982 3.6878252e-40
6.3510289 -3.9618151 -0.65213704 3.6878252e-40
6.3508101 -3.9929514 -0.62523741 3.6878252e-40
6.3343148 -3.9649253 -0.63974202 3.6878252e-40
6.3152952 -3.936322 -0.6525116 4.6097815e-40
6.3136129 -3.9693797 -0.62734717 3.6878252e-40
6.296783 -3.9412882 -0.64625108 3.6878252e-40
6.278945 -3.9110105 -0.65276009 2.7658689e-40
6.2606959 -3.8798349 -0.65945512 1.8439126e-40
6.2290015 -3.773351 -0.68046981 1.8439126e-40
6.2090483 -3.7382812 -0.68106049 1.8439126e-40
6.2032967 -3.7028463 -0.70863026 2.7658689e-40
6.1957779 -3.7413983 -0.67439818 1.8439126e-40
6.1898828 -3.7059968 -0.70189589 2.7658689e-40
6.1639271 -3.6714177 -0.70550978 1.8439126e-40
6.147244 -3.6301324 -0.6968295 1.8439126e-40
6.1258316 -3.5927331 -0.70467132 1.8439126e-40
6.4463663 -3.9205778 -0.60751528 4.6097815e-40
6.4281611 -3.8918881 -0.62120897 4.6097815e-40
6.41259 -3.9675362 -0.60273796 3.6878252e-40
6.420126 -3.9296777 -0.60875475 4.6097815e-40
6.3972125 -4.006587 -0.59487259 3.6878252e-40
6.4011245 -3.9726527 -0.60887414 3.6878252e-40
6.3758335 -4.0142078 -0.5968982 5.5317378e-40
6.3520007 -4.0210056 -0.59082144 2.7658689e-40
6.3416524 -3.9918714 -0.60478336 4.6097815e-40
6.324811 -3.9630785 -0.61495221 8.2976067e-40
6.3124661 -3.9659779 -0.60875475 5.5317378e-40
6.2888103 -3.9375982 -0.61494845 6.4536941e-40
6.2647891 -3.9093413 -0.62114221 1.8439126e-40
6.2339034 -3.8057835 -0.64730871 1.8439126e-40
6.2078152 -3.7346246 -0.66107363 1.8439126e-40
6.2396355 -3.8406787 -0.62760544 1.8439126e-40
6.2138381 -3.7704046 -0.64091778 1.8439126e-40
6.1873903 -3.6986043 -0.66148984 1.8439126e-40
6.1623955 -3.6639807 -0.66647601 1.8439126e-40
6.1463947 -3.6276135 -0.68306178 1.8439126e-40
6.1168375 -3.5482788 -0.69843554 1.8439126e-40
6.1322584 -3.6295743 -0.669294 1.8439126e-40
6.4528394 -3.8752759 -0.58051556 4.6097815e-40
6.4494495 -3.9807198 -0.55436087 2.7658689e-40
6.446229 -3.9499424 -0.57205689 3.6878252e-40
6.4333582 -3.9195337 -0.58086616 5.5317378e-40
6.4152837 -3.9598768 -0.56960243 5.5317378e-40
6.4189787 -3.9262764 -0.59016234 3.6878252e-40
6.397418 -4.0007401 -0.56651437 4.6097815e-40
6.3739595 -4.0086493 -0.56651437 4.6097815e-40
6.3571153 -4.0168047 -0.57866794 4.6097815e-40
6.342154 -3.9855344 -0.57451141 3.6878252e-40
6.3259945 -3.9534192 -0.56950408 3.6878252e-40
6.3077555 -3.9618838 -0.58086616 4.6097815e-40
6.2855163 -3.9318204 -0.58114165 3.6878252e-40
6.2632289 -3.9047134 -0.59584785 1.8439126e-40
6.2679811 -3.9356921 -0.57112479 1.8439126e-40
6.2448182 -3.8734736 -0.60195917 1.8439126e-40
6.2192998 -3.8040617 -0.61469096 1.8439126e-40
6.1929011 -3.7328658 -0.62776226 1.8439126e-40
6.1607156 -3.6589985 -0.63924319 1.8439126e-40
6.1446962 -3.6225758 -0.65552628 1.8439126e-40
6.1309843 -3.6257961 -0.64864236 1.8439126e-40
6.4718623 -3.861846 -0.54608268 4.6097815e-40
6.4601645 -3.8670657 -0.55234319 4.6097815e-40
6.444715 -3.9454517 -0.54751205 4.6097815e-40
6.4401507 -3.9100459 -0.54554057 4.6097815e-40
6.4147267 -3.954313 -0.54137582 4.6097815e-40
6.3955436 -3.9951808 -0.53613061 6.4536941e-40
6.3720851 -4.0030904 -0.53613061 4.6097815e-40
6.3495851 -3.9762771 -0.54137582 3.6878252e-40
6.3265862 -3.9485893 -0.54678011 3.6878252e-40
6.3086429 -3.9546394 -0.54678011 3.6878252e-40
6.2849483 -3.9261441 -0.55234319 3.6878252e-40
6.2608881 -3.8977721 -0.55790639 1.8439126e-40
6.2428479 -3.8676293 -0.57001698 1.8439126e-40
6.2172875 -3.798094 -0.58207315 2.7658689e-40
6.1982679 -3.7662523 -0.59477365 1.8439126e-40
6.1710687 -3.6931303 -0.60761511 1.8439126e-40
6.1508346 -3.6586306 -0.62108797 2.7658689e-40
6.1421485 -3.6150191 -0.614223 1.8439126e-40
6.5102115 -3.9478505 -0.49359325 3.6878252e-40
6.4710898 -3.8595552 -0.53356165 4.6097815e-40
6.4926176 -3.9537826 -0.49359325 3.6878252e-40
6.4712968 -3.9264872 -0.49842232 4.6097815e-40
6.4664822 -3.8959484 -0.51992434 5.5317378e-40
6.4515657 -3.9676244 -0.49359325 5.5317378e-40
6.4424438 -3.9387159 -0.51069474 5.5317378e-40
6.4418797 -3.9052958 -0.52508897 6.4536941e-40
6.4263577 -4.0095634 -0.4889105 5.5317378e-40
6.4284821 -3.9766457 -0.49967003 5.5317378e-40
6.4192605 -3.9482 -0.51887637 6.4536941e-40
6.397974 -3.9878612 -0.50422752 5.5317378e-40
6.3702106 -3.9975314 -0.50574678 4.6097815e-40
6.3463774 -4.0043292 -0.49967003 3.6878252e-40
6.3330765 -3.9762173 -0.51376283 4.6097815e-40
6.3194585 -3.9472044 -0.52818769 3.6878252e-40
6.3071136 -3.950104 -0.52199024 2.7658689e-40
6.2834034 -3.9215624 -0.52730113 3.6878252e-40
6.2593279 -3.8931441 -0.53261209 1.8439126e-40
6.2404833 -3.8606167 -0.53168637 2.7658689e-40
6.2282295 -3.8274264 -0.54368919 1.8439126e-40
6.207015 -3.7953544 -0.5516299 1.8439126e-40
6.1970477 -3.7626343 -0.5749976 2.7658689e-40
6.177165 -3.7286696 -0.58112627 2.7658689e-40
6.523459 -3.9051483 -0.48001367 3.6878252e-40
6.507257 -3.9455447 -0.47738859 3.6878252e-40
6.5112362 -3.9080193 -0.47387746 3.6878252e-40
6.4856286 -3.9524248 -0.47536299 4.6097815e-40
6.4587264 -3.9617429 -0.47657833 6.4536941e-40
6.4328651 -4.0032811 -0.46884686 5.5317378e-40
6.432847 -3.9702213 -0.47536299 5.5317378e-40
6.3976593 -3.9820857 -0.47536299 5.5317378e-40
6.3683367 -3.9919727 -0.47536299 3.6878252e-40
6.3469582 -3.9995935 -0.47738859 3.6878252e-40
6.3280334 -3.9710407 -0.48001367 4.6097815e-40
6.3164001 -3.9381337 -0.47860795 3.6878252e-40
6.3002644 -3.9455945 -0.48852387 3.6878252e-40
6.2786446 -3.9174268 -0.49912876 2.7658689e-40
6.2633467 -3.9219475 -0.4959985 1.8439126e-40
6.2413635 -3.8936181 -0.50520992 1.8439126e-40
6.2273645 -3.8624368 -0.51890951 1.8439126e-40
6.2150335 -3.8665943 -0.51890951 1.8439126e-40
6.5062656 -3.8690648 -0.45381805 3.6878252e-40
6.5151772 -3.8306582 -0.46469587 2.7658689e-40
6.5017228 -3.9420457 -0.45105594 3.6878252e-40
6.5104795 -3.9057739 -0.46160504 4.6097815e-40
6.4822993 -3.9490073 -0.45308152 3.6878252e-40
6.4860344 -3.9115155 -0.44933262 5.5317378e-40
6.4548063 -3.9578648 -0.45105594 4.6097815e-40
6.4299388 -4.0009975 -0.4527958 3.6878252e-40
6.425108 -3.96664 -0.44497916 4.6097815e-40
6.3961601 -3.9776387 -0.45105594 6.4536941e-40
6.366837 -3.9875257 -0.45105594 3.6878252e-40
6.3492432 -3.9934578 -0.45105594 2.7658689e-40
6.3324413 -3.9645534 -0.45546883 4.6097815e-40
6.3152528 -3.934732 -0.46001551 3.6878252e-40
6.3032908 -3.9387653 -0.46001551 3.6878252e-40
6.2795415 -3.9101086 -0.46469587 2.7658689e-40
6.2550368 -3.8804178 -0.46305269 1.8439126e-40
6.2618017 -3.9173656 -0.47095641 1.8439126e-40
6.2385731 -3.8880308 -0.47317043 1.8439126e-40
6.2257881 -3.8577616 -0.49335575 1.8439126e-40
6.5049634 -3.9322855 -0.40851861 3.6878252e-40
6.5026646 -3.9021573 -0.430924 3.6878252e-40
6.4800501 -3.9423366 -0.41662094 4.6097815e-40
6.4758263 -3.9105814 -0.42785585 4.6097815e-40
6.4514656 -3.9528 -0.42067206 4.6097815e-40
6.4236088 -3.9621925 -0.42067212 3.6878252e-40
6.3942857 -3.9720798 -0.42067206 4.6097815e-40
6.3649626 -3.9819665 -0.42067215 4.6097815e-40
6.3469939 -3.9867868 -0.41459537 3.6878252e-40
6.3336992 -3.9585032 -0.42785588 3.6878252e-40
6.3133416 -3.9290628 -0.42902812 3.6878252e-40
6.3013792 -3.9330962 -0.42902812 4.6097815e-40
6.2779965 -3.9055271 -0.43965378 3.6878252e-40
6.2542567 -3.8781042 -0.45040554 9.219563e-41
6.2594848 -3.9104931 -0.43339327 2.7658689e-40
6.2416611 -3.8810625 -0.44408196 1.8439126e-40
6.2230291 -3.8495798 -0.44863671 1.8439126e-40
6.51649 -3.9570973 -0.38056657 4.6097815e-40
6.5020089 -3.9299798 -0.3923139 4.6097815e-40
6.4803805 -3.9368598 -0.39028829 3.6878252e-40
6.4510574 -3.9467468 -0.39028829 4.6097815e-40
6.4309206 -3.9847226 -0.37454739 5.5317378e-40
6.4238143 -3.9563451 -0.3923139 4.6097815e-40
6.3924112 -3.9665208 -0.39028829 4.6097815e-40
6.3630886 -3.9764078 -0.39028829 3.6878252e-40
6.3454947 -3.9823399 -0.39028829 2.7658689e-40
6.3286562 -3.9533269 -0.39410669 3.6878252e-40
6.31143 -3.9233932 -0.39804083 2.7658689e-40
6.2994676 -3.9274266 -0.39804083 3.6878252e-40
6.2760653 -3.8997996 -0.40835124 3.6878252e-40
6.2523065 -3.8723195 -0.41878766 1.8439126e-40
6.2339978 -3.8784926 -0.41878766 1.8439126e-40
6.5259423 -3.982703 -0.35307562 4.6097815e-40
6.5036697 -3.9219911 -0.35585332 2.7658689e-40
6.4785061 -3.9313009 -0.3599045 5.5317378e-40
6.4525342 -3.9400582 -0.35990444 3.6878252e-40
6.4406819 -3.9752994 -0.34445181 9.219563e-40
6.4198599 -3.9510748 -0.3599045 4.6097815e-40
6.3905373 -3.9609621 -0.35990444 4.6097815e-40
6.3670788 -3.9688714 -0.3599045 3.6878252e-40
6.3504515 -3.9397268 -0.36342558 3.6878252e-40
6.3386078 -3.9437201 -0.36342558 2.7658689e-40
6.3158817 -3.9168413 -0.37325099 2.7658689e-40
6.2979383 -3.9228914 -0.37325099 4.6097815e-40
6.2741346 -3.894073 -0.37704855 4.6097815e-40
6.2503557 -3.8665347 -0.38716975 1.8439126e-40
6.2389302 -3.8729639 -0.3998169 1.8439126e-40
6.2260418 -3.8381507 -0.39752918 1.8439126e-40
6.212841 -3.8023641 -0.39522201 1.8439126e-40
6.193428 -3.7689207 -0.39941362 1.8439126e-40
6.5230002 -3.9739773 -0.30538392 2.7658689e-40
6.5208936 -3.9445748 -0.3263945 3.6878252e-40
6.5000901 -3.9178324 -0.3295207 3.6878252e-40
6.4766316 -3.9257419 -0.3295207 4.6097815e-40
6.4508147 -3.9669774 -0.32037538 1.4751301e-39
6.4552531 -3.933363 -0.33154631 5.5317378e-40
6.4355717 -3.972934 -0.32438821 4.6097815e-40
6.4161558 -3.9465456 -0.33154631 4.6097815e-40
6.3886628 -3.9554029 -0.3295207 4.6097815e-40
6.3593397 -3.9652898 -0.3295207 3.6878252e-40
6.3413711 -3.9701102 -0.32344395 4.6097815e-40
6.3247447 -3.941726 -0.33069915 3.6878252e-40
6.3143525 -3.9123056 -0.34846109 2.7658689e-40
6.2913947 -3.9192889 -0.3447426 2.7658689e-40
6.2665477 -3.8915286 -0.35200647 1.8439126e-40
6.2484055 -3.86075 -0.35555184 1.8439126e-40
6.2361999 -3.8648653 -0.35555184 2.7658689e-40
6.2175121 -3.8332169 -0.35919857 1.8439126e-40
6.2117791 -3.7992148 -0.3780084 1.8439126e-40
6.1926231 -3.7665339 -0.38636649 1.8439126e-40
6.2234893 -3.9391541 -0.3298687 2.7658689e-40
6.5251279 -4.0034428 -0.28471923 5.5317378e-40
6.5070481 -3.9418848 -0.29027984 3.6878252e-40
6.495471 -3.9138181 -0.30217525 5.5317378e-40
6.4747577 -3.9201832 -0.29913691 3.6878252e-40
6.4500723 -3.9647748 -0.30833715 5.5317378e-40
6.4492192 -3.9283812 -0.2971113 3.6878252e-40
6.4340863 -3.9685292 -0.30031174 6.4536941e-40
6.4147887 -3.9399078 -0.2967062 4.6097815e-40
6.4036007 -3.980444 -0.30833715 4.6097815e-40
6.3852286 -3.9500604 -0.29761767 4.6097815e-40
6.3574657 -3.9597311 -0.29913688 4.6097815e-40
6.3391218 -3.9634397 -0.28698337 2.7658689e-40
6.3292789 -3.9356129 -0.3081997 3.6878252e-40
6.3060775 -3.9075191 -0.31127632 2.7658689e-40
6.2922053 -3.9792588 -0.28698337 2.7658689e-40
6.2874465 -3.9484675 -0.30206347 2.7658689e-40
6.2822294 -3.9158127 -0.3125158 1.8439126e-40
6.271431 -3.8860552 -0.33322489 2.7658689e-40
6.2746115 -3.9851911 -0.28698337 2.7658689e-40
6.2519145 -3.960448 -0.30206347 2.7658689e-40
6.2578464 -3.9225187 -0.30507883 2.7658689e-40
6.2438564 -3.8940773 -0.32696435 1.8439126e-40
6.2350292 -3.8613944 -0.33658114 2.7658689e-40
6.2432423 -3.9967582 -0.29184476 1.8439126e-40
6.2287054 -3.9348698 -0.31747377 1.8439126e-40
6.2153921 -4.0071392 -0.2967062 1.8439126e-40
6.2171397 -3.9746737 -0.31433591 2.7658689e-40
6.1947117 -4.0129566 -0.29103452 1.8439126e-40
6.1934519 -3.9826608 -0.31433591 2.7658689e-40
6.1266446 -3.9680192 -0.31127632 1.8439126e-40
6.1071401 -3.937623 -0.31444335 1.8439126e-40
6.5240355 -4.0002027 -0.2670078 3.6878252e-40
6.5196905 -3.9641612 -0.25173077 4.6097815e-40
6.5055628 -3.9374797 -0.26620337 3.6878252e-40
6.4908519 -3.9098039 -0.27482983 4.6097815e-40
6.4792366 -3.9457431 -0.26319382 4.6097815e-40
6.4791226 -3.9137585 -0.27482983 3.6878252e-40
6.4590964 -3.9839845 -0.24875005 4.6097815e-40
6.4553423 -3.9548213 -0.26820982 4.6097815e-40
6.4330225 -3.9921684 -0.24576934 8.2976067e-40
6.4264865 -3.9638968 -0.26499954 4.6097815e-40
6.4087472 -3.9374874 -0.27482983 4.6097815e-40
6.4086246 -4.0343046 -0.24339256 3.6878252e-40
6.4042563 -4.0018678 -0.24576934 4.6097815e-40
6.3948212 -3.9735925 -0.26018426 4.6097815e-40
6.3911533 -3.9434195 -0.27482983 5.5317378e-40
6.3801365 -4.04391 -0.24339256 4.6097815e-40
6.376225 -4.0137482 -0.25769225 4.6097815e-40
6.3634286 -3.9860168 -0.26921293 4.6097815e-40
6.3467231 -4.0212665 -0.24576934 3.6878252e-40
6.3367314 -3.9931788 -0.26018426 2.7658689e-40
6.3325076 -3.9631934 -0.27482983 4.6097815e-40
6.3162994 -3.9362383 -0.28979105 2.7658689e-40
6.3179564 -4.0309658 -0.24576934 3.6878252e-40
6.3134956 -4.0010133 -0.26018426 2.7658689e-40
6.3031845 -3.9730804 -0.27482983 2.7658689e-40
6.2985334 -3.9422286 -0.28979105 3.6878252e-40
6.3006964 -4.0367856 -0.24576934 1.8439126e-40
6.2902598 -4.0088482 -0.26018426 1.8439126e-40
6.271657 -3.9828854 -0.27077869 1.8439126e-40
6.244164 -3.9917426 -0.26875308 1.8439126e-40
6.2151146 -4.0354114 -0.26620337 2.7658689e-40
6.2207055 -3.9996521 -0.26875308 1.8439126e-40
6.2031255 -4.0382271 -0.26018426 2.7658689e-40
6.1857052 -4.0120726 -0.27179146 2.7658689e-40
6.1674929 -3.9839118 -0.27751863 1.8439126e-40
6.1507597 -3.9890535 -0.27506414 1.8439126e-40
6.1374598 -3.9605844 -0.29268387 2.7658689e-40
6.1323395 -3.9970148 -0.28365484 1.8439126e-40
6.1055951 -3.9330413 -0.2894012 1.8439126e-40
6.5295725 -4.0204158 -0.21185032 5.5317378e-40
6.5128336 -3.9628291 -0.23384641 3.6878252e-40
6.5044489 -3.934176 -0.24814606 3.6878252e-40
6.5066366 -4.0269575 -0.20600235 5.5317378e-40
6.4985738 -3.9999664 -0.22371323 3.6878252e-40
6.495574 -3.9686487 -0.23384641 4.6097815e-40
6.4870219 -3.9400518 -0.24814606 3.6878252e-40
6.4770174 -4.0385332 -0.21379963 4.6097815e-40
6.4759045 -4.0080109 -0.22568116 5.5317378e-40
6.4519048 -4.0473185 -0.21535902 3.6878252e-40
6.4342427 -4.022459 -0.22764908 5.5317378e-40
6.4332676 -4.0516958 -0.20600235 4.6097815e-40
6.4112096 -4.0294237 -0.2237132 5.5317378e-40
6.4035206 -3.9996867 -0.23384641 3.6878252e-40
6.3823895 -4.0393009 -0.2245004 3.6878252e-40
6.3534131 -4.0157719 -0.22987211 3.6878252e-40
6.3348751 -3.9876728 -0.23008873 3.6878252e-40
6.3229742 -4.026845 -0.23384641 3.6878252e-40
6.3116393 -3.9955072 -0.23008873 1.8439126e-40
6.2834606 -4.0078697 -0.24413341 2.7658689e-40
6.2716126 -3.9762967 -0.23836929 2.7658689e-40
6.2481294 -3.9492214 -0.24070135 2.7658689e-40
6.2403936 -3.9883087 -0.24566141 1.8439126e-40
6.2133412 -3.9971824 -0.24444605 1.8439126e-40
6.1957474 -4.0031147 -0.24444605 1.8439126e-40
6.1778226 -3.9754276 -0.25297379 2.7658689e-40
6.1646891 -3.942564 -0.2493016 1.8439126e-40
6.1471281 -3.949748 -0.25549906 1.8439126e-40
6.54282 -3.9806368 -0.20206593 4.6097815e-40
6.5281296 -4.0161362 -0.1884585 4.6097815e-40
6.5055542 -4.0237474 -0.1884585 5.5317378e-40
6.4773355 -4.0332623 -0.18845847 4.6097815e-40
6.455121 -4.041944 -0.19430646 3.6878252e-40
6.4396548 -4.0134163 -0.19222623 4.6097815e-40
6.4293451 -3.9812617 -0.18615475 4.6097815e-40
6.4137936 -4.0245423 -0.20403388 3.6878252e-40
6.3988657 -3.9934821 -0.19569308 3.6878252e-40
6.3732829 -4.005023 -0.21000059 3.6878252e-40
6.3593445 -3.9739034 -0.20300274 4.6097815e-40
6.327436 -3.9520264 -0.21163158 3.6878252e-40
6.3050776 -3.922518 -0.20388408 4.6097815e-40
6.29739 -3.9636428 -0.21892364 1.8439126e-40
6.287312 -3.9285083 -0.20388408 1.8439126e-40
6.2767272 -3.9720957 -0.22621576 2.7658689e-40
6.2647595 -3.9398632 -0.22229271 2.7658689e-40
6.2468953 -3.9097953 -0.22451174 2.7658689e-40
6.2282281 -3.8776612 -0.22053549 2.7658689e-40
6.2236843 -3.954963 -0.22842893 1.8439126e-40
6.2293344 -3.9169791 -0.23070921 1.8439126e-40
6.2101021 -3.8837729 -0.22053549 1.8439126e-40
6.2063522 -3.9958246 -0.22621576 1.8439126e-40
6.2118402 -3.9589565 -0.22842893 2.7658689e-40
6.194623 -3.9997792 -0.22621576 2.7658689e-40
6.1695232 -3.9371459 -0.23070921 2.7658689e-40
6.1512275 -3.908726 -0.24557754 2.7658689e-40
6.5375552 -3.9411321 -0.16827038 4.6097815e-40
6.5253415 -4.0115952 -0.16155781 5.5317378e-40
6.5037508 -4.0183983 -0.15921867 4.6097815e-40
6.4803357 -4.0272465 -0.16389704 4.6097815e-40
6.4662008 -3.9980505 -0.16073926 5.5317378e-40
6.4451342 -3.9710793 -0.16230892 4.6097815e-40
6.4498358 -4.0059738 -0.17254688 1.0141519e-39
6.4182963 -3.9472811 -0.16989756 3.6878252e-40
6.3883123 -3.9581268 -0.17350909 3.6878252e-40
6.3637915 -3.9665349 -0.17419688 3.6878252e-40
6.3444786 -3.9405847 -0.18367846 4.6097815e-40
6.3268847 -3.9465168 -0.18367846 3.6878252e-40
6.3039422 -3.9191499 -0.18547545 2.7658689e-40
6.2861762 -3.9251401 -0.18547545 1.8439126e-40
6.2629271 -3.8980761 -0.19352433 1.8439126e-40
6.2509651 -3.9021091 -0.19352442 2.7658689e-40
6.2329826 -3.8718061 -0.1996671 2.7658689e-40
6.2211251 -3.8403134 -0.21010955 2.7658689e-40
6.2089434 -3.8803365 -0.20175391 2.7658689e-40
6.5245218 -4.0054369 -0.12997887 4.6097815e-40
6.5281467 -3.9747577 -0.14893165 5.5317378e-40
6.5209217 -4.0351086 -0.11139583 4.6097815e-40
6.5019469 -4.0130491 -0.1299789 6.4536941e-40
6.481133 -4.0196695 -0.12802958 6.4536941e-40
6.4637499 -3.9945459 -0.13948549 8.2976067e-40
6.4436631 -3.9667165 -0.13846307 3.6878252e-40
6.4404182 -3.9361427 -0.1518403 5.5317378e-40
6.416811 -3.9428761 -0.14582115 5.5317378e-40
6.3877664 -3.9526691 -0.14582118 5.5317378e-40
6.3614402 -3.9609325 -0.14281163 3.6878252e-40
6.3484688 -3.9330482 -0.15329462 3.6878252e-40
6.3351145 -3.9691956 -0.13980208 2.7658689e-40
6.3239875 -3.941798 -0.15572533 2.7658689e-40
6.3028069 -3.9157822 -0.1670668 2.7658689e-40
6.3030071 -3.9467256 -0.14519233 1.8439126e-40
6.2846622 -3.9206495 -0.16093057 1.8439126e-40
6.2553482 -3.8583121 -0.17045128 2.7658689e-40
6.2436504 -3.8635316 -0.17671181 1.8439126e-40
6.2252774 -3.8324711 -0.17849167 1.8439126e-40
6.5313644 -3.9977679 -0.10366309 3.6878252e-40
6.5142579 -4.0338135 -0.094014086 3.6878252e-40
6.5008645 -4.0098391 -0.11243498 8.2976067e-40
6.4918914 -4.0413551 -0.094014145 5.5317378e-40
6.4688025 -4.0186071 -0.10240986 5.5317378e-40
6.4429278 -3.9645352 -0.12654014 3.6878252e-40
6.4489884 -4.0237556 -0.094891079 3.6878252e-40
6.4401321 -3.9960136 -0.10760496 5.5317378e-40
6.4268498 -3.9675267 -0.1146172 3.6878252e-40
6.4095168 -3.9404297 -0.12174468 4.6097815e-40
6.4069366 -3.9718115 -0.10269427 5.5317378e-40
6.38591 -3.9471631 -0.1157255 3.6878252e-40
6.3568649 -3.9569561 -0.11572556 6.4536941e-40
6.3305387 -3.9652193 -0.11271603 4.6097815e-40
6.3172712 -3.9373763 -0.12291081 2.7658689e-40
6.2960839 -3.9442725 -0.12169544 1.8439126e-40
6.277226 -3.9181559 -0.13638569 1.8439126e-40
6.2594862 -3.887871 -0.1377472 2.7658689e-40
6.2545757 -3.8560214 -0.15793024 2.7658689e-40
6.2642465 -3.9187813 -0.11797704 2.7658689e-40
6.2417192 -3.857805 -0.1454092 1.8439126e-40
6.2237167 -3.8278434 -0.1531973 2.7658689e-40
6.5226755 -3.9937468 -0.069549978 3.6878252e-40
6.5131855 -4.0306339 -0.076632403 5.5317378e-40
6.4979787 -4.0012798 -0.065651305 4.6097815e-40
6.4810233 -4.0399041 -0.068907082 4.6097815e-40
6.4588332 -4.0156698 -0.071499236 4.6097815e-40
6.4475455 -4.0194759 -0.071499236 5.5317378e-40
6.4269156 -3.9944546 -0.078085966 5.5317378e-40
6.4090943 -3.9980578 -0.066278264 7.3756504e-40
6.3943267 -3.9724195 -0.084809922 3.6878252e-40
6.3709459 -3.9790883 -0.078848451 4.6097815e-40
6.3527589 -3.9524536 -0.086833887 1.0141519e-39
6.3259635 -3.9612432 -0.085630052 2.7658689e-40
6.2919388 -3.9397273 -0.09252695 2.7658689e-40
6.2575746 -3.8822017 -0.10675985 1.8439126e-40
6.2627325 -3.9142907 -0.093432218 2.7658689e-40
6.2397885 -3.8520777 -0.11410657 2.7658689e-40
6.2189102 -3.8236659 -0.12474116 1.8439126e-40
6.5164695 -3.9908748 -0.045183424 3.6878252e-40
6.5215912 -3.9553151 -0.042663034 6.4536941e-40
6.4965358 -3.997 -0.042259518 3.6878252e-40
6.4719 -4.0374708 -0.041868918 5.5317378e-40
6.470078 -4.0055237 -0.040310148 4.6097815e-40
6.4607167 -4.0412416 -0.041868918 3.6878252e-40
6.4400978 -4.0160294 -0.042259518 4.6097815e-40
6.4193969 -3.9909754 -0.048566855 3.6878252e-40
6.4224448 -4.019598 -0.030563597 4.6097815e-40
6.4040818 -3.9957387 -0.046598934 3.6878252e-40
6.3871026 -3.9699967 -0.060964052 3.6878252e-40
6.3848467 -4.0014219 -0.042663034 4.6097815e-40
6.3637214 -3.9766653 -0.055002581 4.6097815e-40
6.3419051 -3.9509623 -0.061553601 4.6097815e-40
6.345726 -3.9803038 -0.043079708 4.6097815e-40
6.3244786 -3.9568384 -0.061553601 7.3756504e-40
6.2924852 -3.9335995 -0.063358575 4.6097815e-40
6.272305 -3.9035614 -0.056614902 1.4751301e-39
6.255281 -3.8753984 -0.069575004 3.6878252e-40
6.2619753 -3.9120455 -0.081159778 3.6878252e-40
6.2382436 -3.8474963 -0.089064471 2.7658689e-40
6.2156172 -3.8172603 -0.08785367 3.6878252e-40
6.2017484 -3.7864645 -0.1036611 1.8439126e-40
6.5249567 -4.0101371 0.0044823936 7.3756504e-40
6.5153055 -3.9843161 -0.011070374 5.5317378e-40
6.5137734 -4.0139079 0.0044823936 6.4536941e-40
6.4947319 -3.9916503 -0.013019685 4.6097815e-40
6.4914069 -4.0214491 0.0044823936 3.6878252e-40
6.4665132 -4.0011649 -0.013019743 4.6097815e-40
6.4382939 -4.0106797 -0.013019685 3.6878252e-40
6.4175758 -3.9855747 -0.019047806 4.6097815e-40
6.4210019 -4.0153189 -0.0071717533 3.6878252e-40
6.4004831 -3.9913378 -0.019047866 3.6878252e-40
6.3805408 -3.9980619 -0.019047806 3.6878252e-40
6.3600874 -3.9722221 -0.027182478 2.7658689e-40
6.3393059 -3.9432535 -0.019419864 6.4536941e-40
6.3449907 -3.9781225 -0.031156771 6.4536941e-40
6.3239322 -3.951381 -0.033865701 4.6097815e-40
6.2944298 -3.9277434 -0.037836172 3.6878252e-40
6.2711697 -3.9001932 -0.038206298 5.5317378e-40
6.2480102 -3.8365495 -0.05150133 4.6097815e-40
6.2304611 -3.8075309 -0.064667188 3.6878252e-40
6.2234564 -3.8435528 -0.045240805 4.6097815e-40
6.212153 -3.813704 -0.064667247 2.7658689e-40
6.5242419 -4.0080171 0.016070163 3.6878252e-40
6.512701 -4.0107279 0.021864077 3.6878252e-40
6.4939127 -3.985492 0.018559344 3.6878252e-40
6.4647093 -3.9958153 0.016220147 3.6878252e-40
6.4364905 -4.0053301 0.016220089 4.6097815e-40
6.4103932 -4.014924 0.01232141 2.7658689e-40
6.4039955 -3.9829361 0.016375005 3.6878252e-40
6.3758712 -3.9936218 0.010471242 3.6878252e-40
6.3573513 -3.9672737 0.0016312415 2.7658689e-40
6.338192 -3.9399498 -0.0013625242 2.7658689e-40
6.3265743 -3.9438672 -0.0013625242 3.6878252e-40
6.3101492 -3.9162526 -0.0074523743 2.7658689e-40
6.29842 -3.9202073 -0.0074523743 2.7658689e-40
6.2814994 -3.8917091 -0.013661422 3.6878252e-40
6.2638021 -3.8611605 -0.013797792 4.6097815e-40
6.2464657 -3.8319678 -0.026459232 3.6878252e-40
6.2285109 -3.8017464 -0.0330493 4.6097815e-40
6.5080557 -3.9752421 0.045459863 2.7658689e-40
6.4911246 -3.9809511 0.045459863 3.6878252e-40
6.4629054 -3.9904656 0.045459922 3.6878252e-40
6.4346867 -3.9999804 0.045459863 2.7658689e-40
6.4138722 -4.0066013 0.047409233 4.6097815e-40
6.3958473 -3.9813533 0.03762874 5.5317378e-40
6.3750973 -3.9533947 0.040380724 2.7658689e-40
6.3804765 -3.9884603 0.028182648 3.6878252e-40
6.3639584 -3.9583652 0.034419253 4.6097815e-40
6.3408341 -3.9324362 0.031140653 6.4536941e-40
6.325089 -3.9394622 0.022713929 4.6097815e-40
6.3082747 -3.9106939 0.022931423 2.7658689e-40
6.2965455 -3.9146485 0.022931423 1.8439126e-40
6.2803636 -3.888341 0.0047471789 1.8439126e-40
6.2738528 -3.8514578 0.017189503 2.7658689e-40
6.2525907 -3.823525 0.0048433882 1.8439126e-40
6.2383757 -3.790689 0.0048921439 2.7658689e-40
6.2197104 -3.7582796 0.0049422607 1.8439126e-40
6.5036402 -3.9397149 0.063605517 2.7658689e-40
6.480607 -3.9466796 0.06754142 3.6878252e-40
6.4764509 -3.9119329 0.076149531 6.4536941e-40
6.4579797 -3.9865091 0.07302884 3.6878252e-40
6.4328828 -3.9946308 0.074699692 3.6878252e-40
6.4126697 -4.0030346 0.066902451 3.6878252e-40
6.39502 -3.975136 0.069509342 3.6878252e-40
6.3774619 -3.9477389 0.06422659 2.7658689e-40
6.3519058 -3.9230616 0.058828611 2.7658689e-40
6.329484 -3.8961134 0.059392039 2.7658689e-40
6.3153849 -3.9027245 0.050276898 5.5317378e-40
6.2954798 -3.8744924 0.047700658 2.7658689e-40
6.2835212 -3.8406215 0.054374292 2.7658689e-40
6.272706 -3.8480561 0.035781927 1.8439126e-40
6.2543011 -3.815294 0.042406473 1.8439126e-40
6.2490211 -3.7819459 0.030186478 1.8439126e-40
6.2308588 -3.7506156 0.024107631 1.8439126e-40
6.212275 -3.7183781 0.017904088 2.7658689e-40
6.4843984 -3.8747096 0.076885954 7.3756504e-40
6.4483714 -3.9846423 0.098091535 4.6097815e-40
6.4314399 -3.9903512 0.098091535 5.5317378e-40
6.4110208 -3.9661324 0.087220751 2.7658689e-40
6.3899693 -3.9016426 0.10096241 3.6878252e-40
6.4145083 -3.9960601 0.098091535 4.6097815e-40
6.3996253 -3.9699745 0.087220751 3.6878252e-40
6.3719749 -3.9096723 0.091331787 4.6097815e-40
6.3514428 -3.8837566 0.083699077 3.6878252e-40
6.333849 -3.889689 0.083699077 3.6878252e-40
6.3162551 -3.8956211 0.083699077 2.7658689e-40
6.2963591 -3.8673193 0.081449866 2.7658689e-40
6.2823744 -3.8372197 0.072966769 1.8439126e-40
6.2656126 -3.8089287 0.054927524 1.8439126e-40
6.2750645 -3.8726239 0.090654194 1.8439126e-40
6.270412 -3.841253 0.072966769 1.8439126e-40
6.3892269 -3.8994403 0.11300063 2.7658689e-40
6.3776093 -3.9033577 0.11300063 2.7658689e-40
6.3571382 -3.8748202 0.11813407 3.6878252e-40
6.331975 -3.88413 0.11408287 2.7658689e-40
6.3019018 -3.8917933 0.12623639 2.7658689e-40
6.2975411 -3.8610446 0.1102901 2.7658689e-40
6.2924252 -3.827517 0.10395407 3.6878252e-40
6.2769885 -3.9018445 0.11813407 1.8439126e-40
6.2549853 -3.9076123 0.12623639 1.8439126e-40
6.3594236 -3.8686841 0.14446661 3.6878252e-40
6.3301005 -3.878571 0.14446667 4.6097815e-40
6.3066421 -3.8864806 0.14446667 2.7658689e-40
6.3083248 -3.8539076 0.12747151 2.7658689e-40
6.2820663 -3.9269869 0.15513436 1.8439126e-40
6.2804389 -3.8959348 0.14142829 1.8439126e-40
6.2630744 -3.9346168 0.14911519 1.8439126e-40
6.249826 -3.9052248 0.14649224 1.8439126e-40
6.357924 -3.8642371 0.16877365 5.5317378e-40
6.3286009 -3.8741241 0.16877371 4.6097815e-40
6.3034458 -3.9136465 0.18522994 2.7658689e-40
6.3051424 -3.8820336 0.16877371 2.7658689e-40
6.2863903 -3.9206233 0.17921077 1.8439126e-40
6.2879238 -3.8890774 0.16269694 3.6878252e-40
6.2631545 -3.928458 0.17921077 9.219563e-41
6.2446666 -3.902837 0.16674814 2.7658689e-40
6.2223892 -3.8728807 0.17656121 2.7658689e-40
6.2292776 -3.9088514 0.16269694 2.7658689e-40
6.3607926 -3.8918576 0.19726816 3.6878252e-40
6.3474402 -3.8622 0.19611913 2.7658689e-40
6.3691864 -3.9549761 0.21120071 2.7658689e-40
6.3293166 -3.900835 0.20529354 1.8439126e-40
6.3291812 -3.8693883 0.19105518 2.7658689e-40
6.3060808 -3.9086695 0.20529354 3.6878252e-40
6.3095078 -3.8756089 0.19308074 1.8439126e-40
6.2950249 -3.9439528 0.21922457 1.8439126e-40
6.284905 -3.9162185 0.20328727 1.8439126e-40
6.2558603 -3.926012 0.20328721 1.8439126e-40
6.2395077 -3.9004498 0.18700399 1.8439126e-40
6.2190843 -3.9044468 0.20118313 2.7658689e-40
6.2097878 -3.8746288 0.18883359 2.7658689e-40
6.2041016 -3.842144 0.1783237 2.7658689e-40
6.1853852 -3.8104672 0.18013801 2.7658689e-40
6.3633294 -3.918493 0.23114745 3.6878252e-40
6.3658152 -3.88117 0.24140821 3.6878252e-40
6.3353291 -3.8930848 0.2333829 3.6878252e-40
6.3062844 -3.902878 0.23338285 2.7658689e-40
6.2820473 -3.9434698 0.24307032 9.219563e-41
6.2849846 -3.9100595 0.23338273 1.8439126e-40
6.2587399 -3.9503567 0.24783954 1.8439126e-40
6.2541099 -3.9208202 0.23166312 1.8439126e-40
6.2300253 -3.9261374 0.24542107 1.8439126e-40
6.2192898 -3.8985991 0.2295413 1.8439126e-40
6.195673 -3.8718863 0.22565097 1.8439126e-40
6.3460617 -3.8484261 0.26600185 3.6878252e-40
6.3312235 -3.8885822 0.26227456 2.7658689e-40
6.3028541 -3.9291661 0.27883908 2.7658689e-40
6.3044276 -3.8973718 0.26347834 1.8439126e-40
6.2839217 -3.9363596 0.27486485 1.8439126e-40
6.2870007 -3.9032476 0.26347834 1.8439126e-40
6.2602558 -3.9453514 0.26989698 1.8439126e-40
6.2231021 -3.9247925 0.26347834 1.8439126e-40
6.2060609 -3.8981071 0.25384834 1.8439126e-40
6.2053041 -3.9295671 0.26949751 2.7658689e-40
6.3599181 -3.8700767 0.30561209 3.6878252e-40
6.3504267 -3.8420014 0.29030895 6.4536941e-40
6.3355355 -3.9120736 0.30864641 1.8439126e-40
6.333488 -3.8821421 0.29013449 1.8439126e-40
6.3110361 -3.9208548 0.30609149 1.8439126e-40
6.3087516 -3.8910081 0.2875548 1.8439126e-40
6.2826958 -3.932724 0.29473636 1.8439126e-40
6.2844019 -3.8955388 0.30561209 2.7658689e-40
6.2621136 -3.9375582 0.30506957 1.8439126e-40
6.2434683 -3.9122841 0.29116631 1.8439126e-40
6.2212458 -3.9192865 0.29357398 2.7658689e-40
6.2038188 -3.9251621 0.29357386 1.8439126e-40
6.1865931 -3.8984802 0.2842322 1.8439126e-40
6.3591757 -3.8678741 0.31765038 2.7658689e-40
6.3296356 -3.8761988 0.32567579 1.8439126e-40
6.3106833 -3.9143796 0.33845374 1.8439126e-40
6.3003435 -3.8852582 0.32968855 1.8439126e-40
6.2774792 -3.8941939 0.32366949 1.8439126e-40
6.2537017 -3.9354146 0.32951149 1.8439126e-40
6.2371874 -3.9090054 0.31765038 1.8439126e-40
6.2301369 -3.9415379 0.33845374 2.7658689e-40
6.2193894 -3.9137802 0.32366949 1.8439126e-40
6.2019625 -3.9196563 0.32366949 1.8439126e-40
6.3356986 -3.8370619 0.3389231 1.8439126e-40
6.3320231 -3.8704884 0.34975219 2.7658689e-40
6.3097639 -3.9116528 0.35335734 1.8439126e-40
6.3054099 -3.8810971 0.34172684 1.8439126e-40
6.2861991 -3.9177763 0.36229956 1.8439126e-40
6.2746091 -3.8895199 0.35135743 1.8439126e-40
6.2560048 -3.9295764 0.35435098 1.8439126e-40
6.2506976 -3.8979092 0.34975219 1.8439126e-40
6.2124662 -3.9124351 0.34172684 2.7658689e-40
