# .PCD v0.7 - Point Cloud Data file format
VERSION 0.7
FIELDS x y z rgb
SIZE 4 4 4 4
TYPE F F F F
COUNT 1 1 1 1
WIDTH 889
HEIGHT 1
VIEWPOINT 0 0 0 1 0 0 0
POINTS 889
DATA ascii
1.4356459 0.14734679 -1.1236925 1.0595033e-38
1.442511 0.1443501 -1.1290658 1.4010134e-38
1.4314414 0.15311927 -1.1239617 7.3782512e-39
1.4440697 0.15422018 -1.1230972 7.4754901e-39
1.4365007 0.14664219 -1.0887601 1.26362e-38
1.4471872 0.14496697 -1.1111599 1.4375327e-38
1.3760931 0.16849403 -1.0796469 8.66899e-39
1.4010149 0.15963119 -1.0907427 9.8682423e-39
1.4346204 0.15634443 -1.1004825 8.4845932e-39
1.4456285 0.15422018 -1.1171286 8.2098097e-39
1.3603754 0.18926421 -1.0715643 7.4700727e-39
1.3858175 0.17273945 -1.0628585 9.1310514e-39
1.4069916 0.16530862 -1.0719469 9.1299668e-39
1.4295986 0.15809907 -1.0835289 8.02145e-39
1.3570333 0.19576192 -1.0528678 7.2864045e-39
1.3747783 0.18176238 -1.0589579 8.3002061e-39
1.3333906 0.22877745 -1.0403357 5.9016526e-39
1.3406014 0.22116622 -1.0459678 6.363365e-39
1.3331509 0.24506055 -1.0412548 4.6083732e-39
1.3401467 0.25487044 -1.0449388 4.7027478e-39
1.3759404 0.14111486 -1.0198804 1.1340463e-38
1.3802259 0.13646534 -1.0311732 1.2902716e-38
1.3623749 0.16484705 -1.0164183 9.0355921e-39
1.3814728 0.15555413 -1.0402498 6.8214523e-39
1.3490925 0.1955466 -1.0191936 6.4566396e-39
1.3387623 0.22671688 -1.0169969 5.5335889e-39
1.3466338 0.21372478 -1.0173301 5.350634e-39
1.3405913 0.24791008 -1.0127652 4.6094606e-39
1.3443031 0.25188991 -1.0262541 4.5187223e-39
1.374246 0.13351467 -0.99787533 1.1521965e-38
1.3632627 0.16497196 -0.99224412 9.6842055e-39
1.3467246 0.20200916 -0.98004645 5.8112688e-39
1.3530848 0.19182089 -0.99401313 6.4562851e-39
1.3349969 0.22540829 -0.98432231 6.0871242e-39
1.3502502 0.2118165 -1.0034826 5.0758632e-39
1.3371373 0.24634829 -0.98720658 4.1477804e-39
1.3516968 0.25761467 -0.99794364 4.0559393e-39
1.182078 0.38966238 -0.93111974 9.035218e-39
1.2019488 0.41075596 -0.94209719 9.4036474e-39
1.2060795 0.42597246 -0.95002574 1.1794575e-38
1.2131882 0.42519632 -0.9465515 1.1333985e-38
1.3930328 0.11662385 -0.95443362 1.8796733e-38
1.3680166 0.13438086 -0.96229327 1.2539011e-38
1.3500793 0.17208011 -0.94873303 8.1147106e-39
1.3614805 0.16212592 -0.9622122 8.2987403e-39
1.3416537 0.19537544 -0.95431966 5.9949314e-39
1.1358309 0.23327707 -0.89185995 5.8062213e-39
1.3347821 0.22491981 -0.95301014 5.8112534e-39
1.1336964 0.25490674 -0.89043933 1.1523065e-38
1.3312693 0.2406422 -0.93765086 4.2403432e-39
1.3383969 0.24257523 -0.95883775 4.2392403e-39
1.1348655 0.28429994 -0.89135998 1.0418171e-38
1.1353282 0.31461734 -0.89124835 9.3114685e-39
1.139865 0.34585658 -0.89455199 7.745212e-39
1.1517149 0.36717483 -0.8998242 8.2976796e-39
1.1772392 0.38461685 -0.91079241 8.8504736e-39
1.1884717 0.39472291 -0.90663815 9.4036291e-39
1.2002364 0.40447712 -0.92118514 9.8628178e-39
1.3657929 0.14817615 -0.91626775 1.2171694e-38
1.3732642 0.13468637 -0.93317091 1.3093633e-38
1.3553109 0.16906582 -0.92696893 8.6700592e-39
1.3679709 0.15814678 -0.93562996 9.7764138e-39
1.3350182 0.20283723 -0.91651237 5.9963845e-39
1.342558 0.19161892 -0.92795914 6.4573557e-39
1.1285394 0.23101482 -0.8609249 7.1902348e-39
1.1362394 0.23188196 -0.87710452 6.6359694e-39
1.3303791 0.22337131 -0.92023021 5.164812e-39
1.3388005 0.23050274 -0.93651521 4.1528083e-39
1.1275887 0.25676927 -0.86655986 1.1156094e-38
1.1348103 0.25046483 -0.88257664 1.1062813e-38
1.3340975 0.2406422 -0.92682141 4.0530848e-39
1.1308389 0.28370145 -0.86681223 1.0510002e-38
1.1357903 0.29377097 -0.87882429 1.0143386e-38
1.1302861 0.31639266 -0.86156219 8.6675355e-39
1.135747 0.31338996 -0.87898993 9.1281507e-39
1.1330159 0.337578 -0.86223978 7.6533737e-39
1.139207 0.3472726 -0.87563503 7.4686223e-39
1.1522262 0.36659628 -0.87412137 8.3898612e-39
1.1839929 0.38580275 -0.88718146 8.9430195e-39
1.2018187 0.39787155 -0.89906412 9.5855135e-39
1.3810114 0.11500917 -0.91340011 1.7136856e-38
1.3612587 0.1364788 -0.8942616 1.2357528e-38
1.3761115 0.12412661 -0.90907663 1.5024303e-38
1.333951 0.16850872 -0.88780731 8.6693417e-39
1.3513166 0.15520892 -0.89650643 1.0145205e-38
1.3183253 0.20191786 -0.87739384 6.179673e-39
1.3273877 0.19163182 -0.89051354 5.9963705e-39
1.1308923 0.22985868 -0.83821702 8.2969509e-39
1.3184147 0.2198862 -0.88001972 6.2697162e-39
1.3228713 0.21993883 -0.89725405 5.4403101e-39
1.126072 0.25543112 -0.83688545 1.1157179e-38
1.1292746 0.28468537 -0.83706075 1.0325978e-38
1.1264673 0.31425926 -0.83665001 8.4838687e-39
1.1341475 0.34076646 -0.83894426 8.2058328e-39
1.14412 0.35582167 -0.84692973 8.4817051e-39
1.1439385 0.36220184 -0.82783711 8.7571962e-39
1.1492418 0.36676294 -0.84512681 9.0345075e-39
1.3765936 0.11968074 -0.87491179 1.6583291e-38
1.3402507 0.14981283 -0.85181367 1.3005436e-38
1.3700033 0.13869977 -0.87590557 1.3372038e-38
1.3863744 0.13175228 -0.86911952 1.4016321e-38
1.3258085 0.16979499 -0.85566694 9.1299514e-39
1.3358097 0.15747009 -0.86525697 1.1806524e-38
1.3212885 0.19464473 -0.85673594 6.917252e-39
1.1225492 0.23425761 -0.79497153 1.1988397e-38
1.1321634 0.22483924 -0.8094694 9.6816916e-39
1.3148456 0.21850273 -0.85637349 6.3644426e-39
1.1225092 0.25149632 -0.79512388 1.1434132e-38
1.1254897 0.25504988 -0.81084961 1.1433409e-38
1.120997 0.28828594 -0.79787034 9.4991136e-39
1.1259315 0.28234845 -0.81071281 1.0051189e-38
1.1198748 0.30981895 -0.79993528 8.9448566e-39
1.124862 0.3191497 -0.81325322 8.5760601e-39
1.1231061 0.33532843 -0.79283905 7.7459295e-39
1.1315179 0.34647369 -0.80812049 8.0207115e-39
1.1402194 0.36484244 -0.81098318 9.2156646e-39
1.3437001 0.14329885 -0.82963628 1.3005423e-38
1.3960329 0.12715505 -0.85242057 1.4933554e-38
1.3268934 0.16678381 -0.82687485 9.3165202e-39
1.3398201 0.15474495 -0.82971811 1.0514345e-38
1.1626638 0.2079843 -0.78157872 6.3572329e-39
1.3051236 0.20726421 -0.80823141 5.0740779e-39
1.3168681 0.19516297 -0.82443607 7.0101763e-39
1.1237943 0.22995283 -0.7733475 1.2174229e-38
1.1430292 0.21602477 -0.77937782 9.7742572e-39
1.1593095 0.21329908 -0.78876889 7.1924124e-39
1.3044434 0.21533944 -0.81083578 6.2711904e-39
1.3128346 0.21412373 -0.82958686 6.4555704e-39
1.1212564 0.25602427 -0.77425909 1.1157183e-38
1.1165458 0.28612411 -0.77234334 9.6838636e-39
1.1145493 0.31508222 -0.77239931 9.0374082e-39
1.1234311 0.3427211 -0.77263212 8.4827785e-39
1.1309785 0.35364038 -0.78841889 8.3877004e-39
1.1839613 0.35458347 -0.77748328 8.7575507e-39
1.187748 0.36331928 -0.78277135 9.3096244e-39
1.1927837 0.36218718 -0.78327674 8.7578954e-39
1.3359561 0.14527293 -0.79652888 1.1251914e-38
1.3518199 0.13145374 -0.80242711 1.4016684e-38
1.3119253 0.17765504 -0.78218746 9.1367729e-39
1.3264557 0.16594878 -0.79671866 9.6860272e-39
1.155206 0.20707756 -0.74871749 8.7600996e-39
1.1713992 0.20224464 -0.74907267 6.7306874e-39
1.3028481 0.1981211 -0.78607661 7.8406769e-39
1.3155012 0.19038899 -0.80147415 8.8562666e-39
1.1229353 0.2260526 -0.74182659 1.2450828e-38
1.1415758 0.2140092 -0.75773573 1.1343382e-38
1.3018178 0.2144587 -0.79714441 7.4722573e-39
1.1113193 0.26335043 -0.72716236 1.0052638e-38
1.1154792 0.25428656 -0.74193203 1.0697651e-38
1.1053219 0.28788882 -0.73132867 9.6842266e-39
1.111128 0.28288254 -0.74655318 9.868615e-39
1.1060671 0.3094064 -0.73243278 9.1303283e-39
1.1150837 0.31876412 -0.7427423 9.0370453e-39
1.1198409 0.33433801 -0.747563 8.7597185e-39
1.1559035 0.34564403 -0.74424827 8.1125344e-39
1.1729568 0.35404646 -0.76289582 8.479505e-39
1.1758362 0.36360732 -0.76110506 9.6726574e-39
1.3714986 0.11721468 -0.76778263 1.5753194e-38
1.3372269 0.13970678 -0.76584101 1.1438109e-38
1.3590326 0.12530129 -0.77554506 1.4936835e-38
1.2910929 0.17929542 -0.74323165 7.6566626e-39
1.3106313 0.16741709 -0.75714922 9.2246917e-39
1.325966 0.15672258 -0.77116561 9.7771453e-39
1.1383945 0.20780329 -0.71134639 1.2450486e-38
1.1593286 0.20396462 -0.72034025 9.7746299e-39
1.1787621 0.19998585 -0.72841889 7.377161e-39
1.2890844 0.19410092 -0.74696451 7.0112707e-39
1.2950711 0.19295503 -0.76213264 7.1953005e-39
1.1107688 0.22859353 -0.70365113 1.2635945e-38
1.1237992 0.21826884 -0.7168684 1.2821054e-38
1.1063808 0.25558749 -0.70593238 1.0605823e-38
1.116607 0.24101284 -0.72274595 1.1157563e-38
1.1006564 0.2842966 -0.70496905 9.7767851e-39
1.1051447 0.30666694 -0.70912069 9.5916694e-39
1.12813 0.32247016 -0.7120418 9.1281535e-39
1.1376365 0.34227026 -0.71229279 8.0207087e-39
1.1467694 0.34809789 -0.72795504 7.6511947e-39
1.1479458 0.3600587 -0.7135576 9.4932982e-39
1.3771421 0.11721468 -0.7461735 1.723156e-38
1.3282493 0.14535412 -0.7196821 1.1345918e-38
1.3412905 0.13503648 -0.73781592 1.2545546e-38
1.3635182 0.12170643 -0.74491388 1.5949155e-38
1.2925072 0.17884624 -0.72356927 9.6885664e-39
1.3156102 0.16339569 -0.73207861 1.0701639e-38
1.1302592 0.2067104 -0.68168432 1.3558992e-38
1.1677207 0.20202398 -0.69192344 1.1529598e-38
1.1844161 0.19461136 -0.69857162 7.655201e-39
1.2850393 0.1884395 -0.72450835 8.2112727e-39
1.1124361 0.22510847 -0.67771983 1.4480217e-38
1.123634 0.21320367 -0.69583929 1.4478063e-38
1.1045961 0.25474 -0.67639679 1.217532e-38
1.0989537 0.28513235 -0.67293352 1.116009e-38
1.1051314 0.31465468 -0.67381907 1.005228e-38
1.1185323 0.3336353 -0.67975616 9.0348648e-39
1.1403577 0.34936118 -0.68551219 9.0341474e-39
1.1614377 0.36716747 -0.69016361 9.4911458e-39
1.3560735 0.11699156 -0.70337266 1.6404355e-38
1.3731995 0.11652111 -0.72565258 1.8060972e-38
1.3292099 0.1449232 -0.69904375 1.1528519e-38
1.3461418 0.13146354 -0.70945418 1.3282755e-38
1.3663538 0.12158533 -0.72812027 1.6687433e-38
1.1923834 0.17936513 -0.66212845 7.565204e-39
1.2743675 0.17519906 -0.6776675 1.0425421e-38
1.290789 0.1724734 -0.69426745 1.0702006e-38
1.3220285 0.1589295 -0.70618916 1.0977512e-38
1.1335012 0.20790826 -0.64222765 1.475789e-38
1.1429286 0.20561232 -0.65531611 1.411145e-38
1.1752832 0.19752386 -0.66428649 1.2268612e-38
1.1933472 0.18692262 -0.66668308 9.3143861e-39
1.2729609 0.18039449 -0.68404281 9.4123396e-39
1.2916138 0.18604955 -0.70561975 9.3205153e-39
1.1198611 0.22377568 -0.64894623 1.5034828e-38
1.1079764 0.25379848 -0.64538741 1.3650463e-38
1.1008507 0.28517425 -0.64060777 1.1714711e-38
1.1039315 0.28363958 -0.64859986 1.1437402e-38
1.1098874 0.31300786 -0.646047 1.0974234e-38
1.1251336 0.33361241 -0.6514352 9.7731586e-39
1.1415421 0.35001335 -0.65455359 8.7582864e-39
1.1561829 0.3653695 -0.65035748 8.204744e-39
1.1688344 0.37419173 -0.66490442 9.5836806e-39
1.3523713 0.11677064 -0.67876518 1.631396e-38
1.3329641 0.14191154 -0.67194855 1.1992384e-38
1.3502032 0.1288324 -0.68014175 1.3929209e-38
1.1936769 0.17845993 -0.6307925 1.1162983e-38
1.203132 0.17379862 -0.63581252 8.9448777e-39
1.2824045 0.16817613 -0.65777487 9.4116151e-39
1.2908005 0.16039607 -0.66581124 1.0241017e-38
1.31867 0.15420552 -0.68512732 1.0520485e-38
1.132488 0.20708257 -0.62631959 1.4666412e-38
1.155504 0.20353818 -0.62525553 1.4020327e-38
1.183243 0.191697 -0.63260359 1.1808001e-38
1.1983227 0.18374433 -0.64928079 1.0978236e-38
1.2732973 0.18007338 -0.67286038 8.76265e-39
1.1238348 0.22380622 -0.61867523 1.6324108e-38
1.114082 0.25350213 -0.61614007 1.3926687e-38
1.1062984 0.287393 -0.619748 1.2451557e-38
1.1133285 0.28085077 -0.61261946 1.291326e-38
1.1081043 0.30168441 -0.61283427 1.1158648e-38
1.1192198 0.31762818 -0.61764663 1.0420343e-38
1.1331737 0.3381277 -0.61973679 9.4054592e-39
1.1460856 0.35300204 -0.62430412 8.7590206e-39
1.077952 0.38964036 -0.59373474 1.7968388e-38
1.162324 0.36790821 -0.62783313 7.9285285e-39
1.1774569 0.38245395 -0.63547802 8.7557486e-39
1.0787868 0.41417432 -0.59581506 1.2893379e-38
1.1912589 0.39450273 -0.62685937 9.7652076e-39
1.0804564 0.42169541 -0.59997559 1.1505763e-38
1.3493347 0.11574496 -0.638946 1.7419202e-38
1.3557183 0.11658654 -0.65671676 1.677529e-38
1.2791995 0.1445654 -0.62438565 1.0796004e-38
1.3433233 0.13278991 -0.64267129 1.3653341e-38
1.3555694 0.1274789 -0.65959519 1.4483817e-38
1.1960882 0.17531978 -0.60656971 1.0610172e-38
1.203408 0.17209357 -0.61991495 8.2005107e-39
1.2600598 0.16636239 -0.61174959 7.1031133e-39
1.2744924 0.16396426 -0.63094693 8.2109154e-39
1.142858 0.20654048 -0.58943957 1.5588354e-38
1.1613879 0.2018532 -0.5978542 1.4204723e-38
1.1854798 0.18970223 -0.60428375 1.1808721e-38
1.1291562 0.22411887 -0.58895051 1.5402526e-38
1.1189134 0.25215411 -0.5714463 1.4849696e-38
1.120313 0.25423822 -0.58808142 1.4202908e-38
1.1200451 0.28482935 -0.58689797 1.3095476e-38
1.1230606 0.31448567 -0.58732688 1.2727041e-38
1.1399373 0.34182471 -0.59082443 9.8660787e-39
1.1499674 0.35590231 -0.59748131 8.2062056e-39
1.0580539 0.38904586 -0.5591172 1.400045e-38
1.0691795 0.38744035 -0.57455933 1.3999378e-38
1.1630396 0.37043488 -0.59596169 7.7448491e-39
1.1796715 0.38480577 -0.60621315 7.744482e-39
1.0568641 0.40805882 -0.56367373 1.2986285e-38
1.0689151 0.40245003 -0.57918209 1.326106e-38
1.1947302 0.39681935 -0.60791469 8.5713461e-39
1.0528316 0.42320508 -0.56011707 1.3169231e-38
1.0645866 0.42112109 -0.58159274 1.1787737e-38
1.0734055 0.45939451 -0.5636546 1.3536184e-38
1.3535007 0.11759843 -0.61960238 1.6493284e-38
1.2607157 0.1438479 -0.58516341 1.0794557e-38
1.2786293 0.14057508 -0.60269386 1.1625409e-38
1.3469193 0.13078707 -0.61515981 1.4482735e-38
1.1999418 0.17190954 -0.57679349 1.0885323e-38
1.2254831 0.16022201 -0.57654697 8.390978e-39
1.255064 0.15579376 -0.59704208 9.0406704e-39
1.1501378 0.20478672 -0.56330413 1.4944429e-38
1.1746297 0.19819038 -0.57017958 1.3192016e-38
1.1903243 0.18656315 -0.57503474 1.1809444e-38
1.1360904 0.22522266 -0.5605368 1.4942271e-38
1.1246026 0.25873509 -0.54966313 1.1806182e-38
1.1265031 0.25298509 -0.56217343 1.3557543e-38
1.1235404 0.27706939 -0.5537293 1.2541932e-38
1.1271119 0.28851321 -0.55984181 1.2265706e-38
1.1285683 0.31480533 -0.55854195 1.1804359e-38
1.1438829 0.34295639 -0.56149799 9.3136265e-39
1.1546701 0.35688442 -0.57700133 8.1147204e-39
1.0566404 0.38694674 -0.53965402 1.5845777e-38
1.1711092 0.37496775 -0.56983113 7.4686181e-39
1.0398641 0.41761467 -0.52191544 1.4092993e-38
1.051125 0.40395272 -0.53839207 1.3629864e-38
1.1946155 0.39878654 -0.5760811 8.2029364e-39
1.0398641 0.42179084 -0.52191544 1.3724928e-38
1.0518346 0.43437362 -0.53770226 1.2430584e-38
1.0562255 0.46198931 -0.53607714 1.2429879e-38
1.0704669 0.45731866 -0.55380058 9.7594314e-39
1.3555632 0.11785541 -0.58660364 1.5293986e-38
1.2446256 0.14503995 -0.55737501 1.0790965e-38
1.2567118 0.13438979 -0.5560208 1.2544484e-38
1.3301554 0.13389908 -0.56991631 1.3009054e-38
1.3474327 0.12741624 -0.58347523 1.549795e-38
1.2099676 0.17071164 -0.55047572 1.153358e-38
1.2323112 0.15761219 -0.55069178 9.8715367e-39
1.157221 0.20623933 -0.5360142 1.2455528e-38
1.1805891 0.19658558 -0.54015225 1.1625057e-38
1.1993138 0.18324345 -0.54578769 1.1532141e-38
1.1452546 0.22444081 -0.53207773 1.300509e-38
1.1297222 0.25972688 -0.53005832 1.3556805e-38
1.136937 0.24816819 -0.52749801 1.2911072e-38
1.13122 0.28232095 -0.52385849 1.3924861e-38
1.1325364 0.28784344 -0.5390715 1.2263895e-38
1.1328199 0.30668747 -0.51819867 1.2173509e-38
1.1345202 0.31569541 -0.53246391 1.0420696e-38
1.1492443 0.3432261 -0.53223151 1.005155e-38
1.0619801 0.38685688 -0.50978547 1.538442e-38
1.1757036 0.37390894 -0.54012823 7.3778771e-39
1.1928385 0.38848439 -0.54166251 7.9296061e-39
1.0435083 0.41579741 -0.50637907 1.5842556e-38
1.0542877 0.40216947 -0.50785822 1.6119153e-38
1.1915295 0.39200366 -0.53084487 8.1136288e-39
1.1994333 0.39933944 -0.54938889 8.6657138e-39
1.0436175 0.42953691 -0.50584817 1.583967e-38
1.0483785 0.44225466 -0.50740445 1.4549646e-38
1.053106 0.46223021 -0.50682855 1.3996819e-38
1.3558397 0.1174679 -0.56654853 1.3628037e-38
1.2519722 0.14584655 -0.52966064 1.2548789e-38
1.2736018 0.13966666 -0.53483355 1.097355e-38
1.2998068 0.135719 -0.53178167 1.0610895e-38
1.3394239 0.13164404 -0.55025709 1.3010853e-38
1.3496735 0.12749356 -0.56113839 1.4759309e-38
1.218444 0.17548411 -0.51946968 1.1071876e-38
1.2380327 0.16123222 -0.52468371 9.3176357e-39
1.1651613 0.20741284 -0.50912857 1.1902717e-38
1.1848936 0.19873482 -0.51087499 1.0795294e-38
1.2077674 0.18528785 -0.51476246 1.0980404e-38
1.1564761 0.22422962 -0.50324994 1.2083852e-38
1.1377257 0.25954622 -0.49832189 1.4202891e-38
1.1444516 0.24524435 -0.49920413 1.254266e-38
1.1374259 0.2835063 -0.49768418 1.2543013e-38
1.1387614 0.3086887 -0.49544728 1.0973144e-38
1.1419804 0.32190236 -0.50290996 1.0880947e-38
1.1532499 0.3416692 -0.50254905 1.0973139e-38
1.1763369 0.35688442 -0.49403897 9.3107273e-39
1.0753386 0.38904586 -0.49293339 1.4647984e-38
1.1802636 0.37120798 -0.51122802 7.6544569e-39
1.2079375 0.38560918 -0.50858229 7.6537325e-39
1.0488337 0.41761467 -0.48757014 1.713329e-38
1.0666496 0.40716094 -0.48090637 1.7042902e-38
1.0885986 0.40009752 -0.47834319 1.5017466e-38
1.1880891 0.39048073 -0.5242306 7.5615522e-39
1.2145107 0.39619121 -0.51804072 8.20583e-39
1.2321362 0.4039523 -0.51486135 9.1274024e-39
1.0500849 0.43183187 -0.48102137 1.6671586e-38
1.057777 0.43677065 -0.47254831 1.6394997e-38
1.0596068 0.46079287 -0.47797915 1.4918773e-38
1.2822999 0.14747339 -0.51241148 1.0793113e-38
1.3047818 0.14151062 -0.51075381 9.596026e-39
1.3405534 0.13227135 -0.52032393 1.1347737e-38
1.3524604 0.12355963 -0.53199911 1.4107804e-38
1.2235138 0.17594349 -0.49939707 9.8733318e-39
1.2535552 0.16814055 -0.50269651 9.6882006e-39
1.2808411 0.16110285 -0.50150722 9.4105263e-39
1.3015244 0.16010092 -0.49750224 7.9317977e-39
1.1939603 0.20156381 -0.4843649 9.6871356e-39
1.216315 0.18950561 -0.48804665 9.1357639e-39
1.2459368 0.18289907 -0.48922628 1.0056285e-38
1.1673616 0.22599331 -0.47640675 1.0793108e-38
1.1821928 0.21436238 -0.47161674 9.4116137e-39
1.14578 0.26185149 -0.46671152 1.2178217e-38
1.1534709 0.2481602 -0.47337312 1.2174966e-38
1.1431096 0.28404698 -0.4694449 1.2083123e-38
1.1453819 0.30689812 -0.47009736 1.097532e-38
1.1510624 0.3211225 -0.46999726 1.0237026e-38
1.1628183 0.3421616 -0.47364494 9.4047292e-39
1.1780937 0.35688442 -0.48731232 7.7420045e-39
1.1796161 0.36037427 -0.46565282 6.4469398e-39
1.1906303 0.369537 -0.48144343 6.3626181e-39
1.2137489 0.38582754 -0.48929837 5.6250657e-39
1.0769105 0.41247612 -0.45346743 1.5293347e-38
1.2299713 0.39600733 -0.49841639 7.0079875e-39
1.2414799 0.40480575 -0.49675092 7.9274131e-39
1.0590179 0.43879104 -0.44788775 1.5289729e-38
1.066427 0.43019816 -0.44813991 1.5291895e-38
1.0626577 0.45436478 -0.43463799 1.3723834e-38
1.0651861 0.45984164 -0.44907793 1.4736189e-38
1.2337756 0.14591706 -0.45219022 5.0694424e-39
1.2545893 0.13893944 -0.45362195 7.2039493e-39
1.3220005 0.14478369 -0.49253088 8.8588155e-39
1.3340273 0.13503852 -0.49335393 1.0518326e-38
1.2025566 0.17046554 -0.44923541 9.5027388e-39
1.2216169 0.1569998 -0.45345542 9.9658819e-39
1.3120999 0.15965503 -0.49499977 7.2874793e-39
1.1564605 0.2071266 -0.4276776 1.0150988e-38
1.172105 0.19730607 -0.44333777 9.4119893e-39
1.1896729 0.18577848 -0.45340908 9.1364898e-39
1.1472877 0.22691129 -0.43318382 9.1353982e-39
1.1606635 0.21963912 -0.45010495 7.3818778e-39
1.1270753 0.26355961 -0.42147106 7.4719238e-39
1.1396912 0.25476089 -0.43867081 8.396387e-39
1.1561925 0.24226788 -0.45640635 1.0703778e-38
1.1259992 0.2852461 -0.42106864 6.6407114e-39
1.137978 0.2851035 -0.44001883 8.0272304e-39
1.1270753 0.30309361 -0.42147106 6.0889529e-39
1.1417969 0.31509948 -0.43849498 7.2885737e-39
1.1543186 0.32099816 -0.45566663 8.4856385e-39
1.1505371 0.34094703 -0.4357779 7.2878576e-39
1.1581062 0.34979135 -0.44749641 6.5473947e-39
1.1724485 0.37178668 -0.44115683 6.364444e-39
1.1898054 0.38701102 -0.44246781 6.0849606e-39
1.0807632 0.41365913 -0.42191929 1.2716559e-38
1.2042254 0.39726868 -0.44604981 8.6657222e-39
1.0629685 0.4431434 -0.42214125 1.4277022e-38
1.0738311 0.43092573 -0.41733637 1.4831283e-38
1.0646065 0.45817742 -0.42084402 1.427629e-38
1.0763166 0.46418667 -0.41173607 1.4185168e-38
1.2397677 0.14717832 -0.43392348 1.2363341e-38
1.2645402 0.13809541 -0.43811953 1.263811e-38
1.2917119 0.1285156 -0.43663317 1.5027598e-38
1.1924583 0.17556696 -0.41648012 1.061125e-38
1.2068558 0.16704728 -0.42518154 1.1534659e-38
1.228884 0.15515567 -0.42495337 1.236442e-38
1.1575984 0.2071266 -0.42332095 1.1258423e-38
1.1817489 0.19438086 -0.4172385 1.1717967e-38
1.1939045 0.18075962 -0.42677221 1.1811239e-38
1.1503884 0.22854093 -0.4115575 1.1994916e-38
1.1744622 0.2184743 -0.40683305 1.2825387e-38
1.1296612 0.25763941 -0.40490514 1.0980397e-38
1.1415231 0.24448721 -0.40298456 1.1902359e-38
1.1271929 0.28442982 -0.40293148 1.0425766e-38
1.1288509 0.31466424 -0.4033162 1.0147733e-38
1.1322337 0.34262753 -0.40172058 1.0146294e-38
1.1383325 0.34543115 -0.40606892 9.0388571e-39
1.1432163 0.37112063 -0.40247828 9.315793e-39
1.178354 0.37584585 -0.43091106 6.365523e-39
1.0852095 0.41537875 -0.39238372 1.3546691e-38
1.075743 0.44220755 -0.3845343 1.4831273e-38
1.08003 0.43252578 -0.39135671 1.4186275e-38
1.0753915 0.45492166 -0.38588125 1.4645077e-38
1.0813332 0.46581873 -0.39320588 1.3907493e-38
1.2471805 0.14914128 -0.41273487 1.3379999e-38
1.2757202 0.14525464 -0.41558331 1.4024641e-38
1.3029578 0.13835661 -0.41984892 1.3931007e-38
1.3297526 0.12918997 -0.42265818 1.2637731e-38
1.3557256 0.1274257 -0.41858205 1.49419e-38
1.2202531 0.17111331 -0.39588901 1.1717962e-38
1.23797 0.15764795 -0.40183264 1.1996355e-38
1.2639573 0.152274 -0.4012624 1.4023204e-38
1.1871644 0.19885746 -0.38851896 1.0980404e-38
1.2084669 0.18653479 -0.38871676 1.2825388e-38
1.1694804 0.2307902 -0.37676966 9.5967337e-39
1.1744845 0.22224154 -0.38745749 1.0242467e-38
1.1367289 0.26509494 -0.38252872 1.2272223e-38
1.160182 0.25557566 -0.38109446 1.2087104e-38
1.1739683 0.24594788 -0.3804273 1.0792404e-38
1.1329867 0.28442651 -0.37324002 1.1255899e-38
1.1547428 0.274178 -0.36697829 1.3102694e-38
1.1349735 0.31262386 -0.37308335 9.8711444e-39
1.1418147 0.32641467 -0.38482082 1.0052659e-38
1.1510431 0.34534532 -0.37916738 1.1161157e-38
1.1546073 0.37508672 -0.37910679 1.1623216e-38
1.1006426 0.41832721 -0.36570373 1.5396009e-38
1.1624181 0.39870846 -0.38007987 8.8530225e-39
1.1745015 0.4114202 -0.37838593 9.4054592e-39
1.0799968 0.44387749 -0.36093947 1.483127e-38
1.0917816 0.4309532 -0.36294875 1.4095884e-38
1.1872796 0.42033029 -0.38090512 1.1615933e-38
1.0818037 0.4535943 -0.36019814 1.4553597e-38
1.0883833 0.46748573 -0.36170533 1.3539078e-38
1.28413 0.14349261 -0.38311842 1.3839535e-38
1.296841 0.13726728 -0.38483876 1.3930653e-38
1.3738176 0.13385583 -0.41630116 1.4020662e-38
1.3968042 0.13730326 -0.40969551 1.3656218e-38
1.2252398 0.17146486 -0.36615112 1.1442462e-38
1.2498729 0.15834455 -0.37326568 1.254917e-38
1.2688884 0.1505633 -0.37908348 1.2455901e-38
1.2018261 0.20135695 -0.35975793 1.1349897e-38
1.2124176 0.1873288 -0.36439437 1.0150275e-38
1.171365 0.23101194 -0.35419169 1.0427585e-38
1.1891606 0.21742687 -0.35479569 1.2456969e-38
1.1656649 0.25444168 -0.35059905 9.135394e-39
1.1424918 0.2944954 -0.35136032 1.2087107e-38
1.1629685 0.28451774 -0.34804347 1.0979668e-38
1.1424073 0.31498763 -0.34356707 1.0886022e-38
1.1551901 0.30435964 -0.33360648 1.2271846e-38
1.1481851 0.33657521 -0.33272615 1.0237398e-38
1.1615522 0.34584367 -0.35175088 1.02381e-38
1.1731231 0.37297305 -0.35881054 1.0331394e-38
1.1826056 0.37700617 -0.34879479 9.5019919e-39
1.1048907 0.41888806 -0.3322885 1.5955619e-38
1.1731362 0.39766371 -0.35799417 8.30382e-39
1.1830677 0.40756351 -0.3505851 7.7492015e-39
1.0905167 0.44565454 -0.32796562 1.427703e-38
1.0996583 0.43278909 -0.33576098 1.3728183e-38
1.1998254 0.42738992 -0.35752487 7.9288886e-39
1.0890517 0.45711675 -0.33187973 1.4460688e-38
1.0953462 0.47360361 -0.33233869 1.3814578e-38
1.1016638 0.48429462 -0.33446863 1.2525272e-38
1.2696319 0.14971009 -0.3465558 1.3009418e-38
1.2891293 0.14170891 -0.35375684 1.282467e-38
1.3075459 0.13245048 -0.35819611 1.1345558e-38
1.2300856 0.17083056 -0.33819655 1.1903443e-38
1.2561643 0.15773579 -0.34535727 1.2088552e-38
1.2707808 0.1502789 -0.36194366 1.2364068e-38
1.2049243 0.19365014 -0.33052421 9.7818522e-39
1.2155713 0.18075962 -0.3438099 1.0613409e-38
1.1827179 0.23742294 -0.32515988 1.2087469e-38
1.1950388 0.22247386 -0.3288697 1.0703446e-38
1.1570446 0.26795229 -0.30671811 9.8704465e-39
1.1675823 0.25477025 -0.32099956 1.0611253e-38
1.1566746 0.27527341 -0.30813482 8.672604e-39
1.1662793 0.28661823 -0.32187349 9.1346597e-39
1.1479017 0.32226196 -0.3188614 1.1532839e-38
1.16575 0.31114557 -0.31850019 1.0794908e-38
1.149657 0.33934036 -0.31455836 1.0423955e-38
1.1620703 0.35342696 -0.32309186 9.8685954e-39
1.1771685 0.36422595 -0.32464278 1.0144828e-38
1.1943277 0.38016245 -0.32855466 7.74847e-39
1.1196309 0.41897246 -0.32333738 1.7610119e-38
1.1921785 0.40378207 -0.32775581 6.9212429e-39
1.0944171 0.44459918 -0.30187821 1.3541254e-38
1.1088518 0.42981127 -0.30731055 1.3360836e-38
1.1991894 0.42670366 -0.32969585 7.3793288e-39
1.0946455 0.46144408 -0.30176839 1.400006e-38
1.1012008 0.47584516 -0.31008092 1.3906416e-38
1.1058276 0.4876101 -0.30866688 1.2710028e-38
1.2903459 0.11678532 -0.30681592 2.3999899e-39
1.2700181 0.14533918 -0.31256986 1.1534654e-38
1.2950809 0.13541991 -0.32323736 1.1070762e-38
1.3112588 0.12899816 -0.32963353 8.5577115e-39
1.2173747 0.17947155 -0.3012875 1.181089e-38
1.235436 0.16797578 -0.30674121 1.1626492e-38
1.2577111 0.15610936 -0.31700918 1.1165157e-38
1.1917322 0.1981211 -0.29262212 1.0703085e-38
1.2045826 0.19468653 -0.30076283 1.0612328e-38
1.1877757 0.22776957 -0.29357192 9.2275826e-39
1.1946971 0.21865885 -0.30422267 9.5045282e-39
1.1598196 0.26795229 -0.29609284 1.1164782e-38
1.1759253 0.25445542 -0.29279664 1.0610164e-38
1.1618931 0.28304473 -0.28731942 9.8725821e-39
1.1661816 0.29382017 -0.2994355 8.6722312e-39
1.1614845 0.3162716 -0.28971767 1.0240288e-38
1.1719263 0.31615585 -0.29326788 9.5956323e-39
1.158549 0.34466431 -0.28983575 1.1069697e-38
1.1698197 0.336357 -0.28766277 1.0886021e-38
1.1642594 0.36019817 -0.2790924 1.0609416e-38
1.1744514 0.36804068 -0.28953511 9.5016121e-39
1.2042745 0.38392898 -0.30508909 5.9960146e-39
1.1257963 0.41825321 -0.29181546 1.7978539e-38
1.2062017 0.4041054 -0.30118281 5.8145268e-39
1.1011891 0.44299257 -0.27247047 1.4002238e-38
1.1180513 0.42872036 -0.27676028 1.3177169e-38
1.2102125 0.42672309 -0.30209038 7.1960249e-39
1.0994639 0.46341726 -0.27210611 1.4368123e-38
1.1147881 0.48754224 -0.27418718 1.372166e-38
1.2728249 0.14209594 -0.28439078 1.0978232e-38
1.2898816 0.13151965 -0.29474208 1.0423218e-38
1.2251823 0.17693155 -0.2698693 8.4896687e-39
1.2431241 0.16242839 -0.279129 9.1353828e-39
1.2580827 0.15160367 -0.29184169 7.6563207e-39
1.1979902 0.2035244 -0.26866069 8.3956597e-39
1.2096498 0.19278467 -0.26835793 8.3967514e-39
1.1886082 0.22512946 -0.26359025 7.9353921e-39
1.2000158 0.21249175 -0.28069142 5.7184188e-39
1.1711043 0.26502386 -0.2528834 7.5626565e-39
1.1781615 0.25375608 -0.26411691 7.6566598e-39
1.167969 0.28645051 -0.25877291 7.8421174e-39
1.1721321 0.27524698 -0.26873496 9.5027066e-39
1.1690948 0.31060505 -0.25730309 7.9332144e-39
1.174181 0.32309896 -0.26697782 7.6559101e-39
1.1666141 0.3533119 -0.2661196 9.6863986e-39
1.180088 0.34353396 -0.26104993 8.3016494e-39
1.1673514 0.36208075 -0.26725277 1.0331031e-38
1.1782483 0.37226823 -0.25801286 8.486754e-39
1.207808 0.38678899 -0.2825141 7.5647878e-39
1.1242745 0.4183431 -0.25213206 1.742968e-38
1.2188658 0.40651748 -0.27173033 4.7060045e-39
1.109406 0.44157028 -0.24202026 1.418591e-38
1.1234686 0.42796513 -0.24545491 1.3361567e-38
1.2215073 0.42897666 -0.27139413 6.2744232e-39
1.2360668 0.4449468 -0.26533201 7.4643302e-39
1.1070986 0.4639824 -0.24198882 1.5012406e-38
1.1128883 0.48025689 -0.24230443 1.4459577e-38
1.1228751 0.49098405 -0.24533533 1.3905694e-38
1.2635823 0.14629725 -0.25099614 9.597098e-39
1.2799295 0.13965487 -0.25765738 1.0794184e-38
1.294055 0.13088807 -0.27282628 1.1516969e-38
1.2296863 0.1716316 -0.24303597 8.9502797e-39
1.2507428 0.15669082 -0.2504079 8.6733481e-39
1.2025445 0.20285968 -0.23384342 9.0417424e-39
1.2139113 0.1884893 -0.24051252 9.1343038e-39
1.1803541 0.23720367 -0.21746583 1.0704142e-38
1.1894964 0.22477698 -0.23345061 9.1342954e-39
1.1759086 0.25556099 -0.2292107 7.9353935e-39
1.1816726 0.24411559 -0.24011946 9.5952721e-39
1.1721257 0.28432825 -0.22926782 7.8421118e-39
1.174453 0.31559074 -0.22972271 7.6559213e-39
1.1794291 0.33677065 -0.22100759 8.1165281e-39
1.1850309 0.34864652 -0.23341621 7.2878478e-39
1.1858635 0.37367177 -0.23160078 7.4726132e-39
1.1498795 0.41469723 -0.20751569 7.0054638e-39
1.1580118 0.41861284 -0.21990861 7.8305455e-39
1.1971966 0.39471358 -0.22860681 6.7357559e-39
1.2281213 0.41192168 -0.24540815 3.5056508e-39
1.1164666 0.44152331 -0.21451984 1.2530723e-38
1.135007 0.42871872 -0.21647793 1.0509661e-38
1.1564107 0.42472497 -0.22472011 1.67861e-38
1.233727 0.43163285 -0.2440024 4.3372233e-39
1.2399149 0.44494677 -0.25059736 5.6272587e-39
1.114532 0.46334511 -0.21377328 1.3080283e-38
1.2444876 0.45136145 -0.25287578 9.1230948e-39
1.1197124 0.48025689 -0.21617508 1.3724551e-38
1.1302438 0.49129868 -0.21426019 1.2438154e-38
1.2678905 0.14746745 -0.22086874 1.0793838e-38
1.2857699 0.13782738 -0.2272007 1.0608332e-38
1.2312748 0.17023617 -0.21385148 9.6882048e-39
1.2550914 0.15606096 -0.21864881 1.0241739e-38
1.205555 0.19854161 -0.20542914 8.5811202e-39
1.2176788 0.18411534 -0.21419024 9.4105277e-39
1.1840391 0.23266074 -0.20034263 8.4874854e-39
1.1948298 0.21926656 -0.20217773 8.486768e-39
1.1782787 0.254026 -0.19902918 8.2101741e-39
1.1754308 0.28384411 -0.19926828 8.486754e-39
1.1775182 0.31434381 -0.19925043 7.933583e-39
1.1837535 0.34222773 -0.19886269 7.2874905e-39
1.1882105 0.35563758 -0.20717107 6.090741e-39
1.1574415 0.38904586 -0.17856027 3.3184093e-39
1.195451 0.37558457 -0.20266305 6.2744246e-39
1.1306167 0.41761467 -0.174422 8.0286723e-39
1.1486045 0.40592059 -0.18544501 6.3658957e-39
1.1624832 0.40059668 -0.19408107 3.8737158e-39
1.1988318 0.39714089 -0.20190996 6.0900291e-39
1.2276224 0.4136095 -0.22247455 4.2439389e-39
1.1233795 0.43942294 -0.1829406 8.3030998e-39
1.1371415 0.42651993 -0.1925603 7.7513707e-39
1.1577755 0.42184955 -0.2089407 1.0244575e-38
1.2412981 0.43074703 -0.22268781 3.0457586e-39
1.251298 0.44350091 -0.22205062 3.5982178e-39
1.1215994 0.4625006 -0.1862205 9.8686052e-39
1.1335317 0.47775409 -0.17908987 1.0787668e-38
1.1367906 0.48810688 -0.18925637 1.1340839e-38
1.2764627 0.14646672 -0.19304249 1.1255891e-38
1.2910807 0.13976991 -0.20110844 1.3100145e-38
1.3231945 0.13394605 -0.20557366 8.7550115e-39
1.2384387 0.16908826 -0.18369693 9.2268806e-39
1.2637309 0.15463893 -0.18974611 1.0334655e-38
1.1953387 0.20645505 -0.16008937 7.566262e-39
1.2106301 0.1943606 -0.17665289 8.3967444e-39
1.2240068 0.18084402 -0.18882941 9.0442802e-39
1.1898 0.22680092 -0.16828142 8.1187015e-39
1.1974438 0.21483761 -0.17973116 7.6577416e-39
1.1787148 0.25515851 -0.16925283 7.7499218e-39
1.1751553 0.28568238 -0.16823767 7.8406685e-39
1.1771963 0.31503165 -0.16803686 7.7484672e-39
1.1871864 0.34485877 -0.16995376 6.45809e-39
1.1344759 0.38735777 -0.14777268 8.3038439e-39
1.154699 0.38345474 -0.15958507 6.9212415e-39
1.187691 0.37023136 -0.16562857 4.8000036e-39
1.200613 0.37730145 -0.17614307 4.8914845e-39
1.1264585 0.404764 -0.15218839 8.1194274e-39
1.1393293 0.39668152 -0.16791567 8.7666073e-39
1.2025236 0.39223242 -0.18402536 4.9826082e-39
1.1239702 0.43364426 -0.15456541 8.7622632e-39
1.1285572 0.46296418 -0.15541548 9.3143496e-39
1.1388266 0.47775409 -0.15881576 1.1802903e-38
1.1446018 0.48743141 -0.16094157 9.7731572e-39
1.278644 0.14830716 -0.16562231 1.1439195e-38
1.3021593 0.14223626 -0.16721216 1.2637732e-38
1.3361697 0.1357051 -0.17828019 1.0789836e-38
1.3518616 0.12928441 -0.18603702 8.8522658e-39
1.2292565 0.17821772 -0.13838813 6.0000573e-39
1.2465848 0.16720282 -0.15472937 9.5034576e-39
1.2667831 0.15495291 -0.16266881 1.024102e-38
1.1997056 0.20392635 -0.1391487 8.2130678e-39
1.2154369 0.1902402 -0.14827025 9.1350269e-39
1.2325751 0.18084402 -0.15602157 8.3960241e-39
1.1883821 0.22421962 -0.13981226 8.0265059e-39
1.1755078 0.26597431 -0.1252144 7.8414056e-39
1.1801242 0.25454262 -0.13886954 8.0265017e-39
1.1733841 0.28423721 -0.12891482 7.6562786e-39
1.1770129 0.28354141 -0.14376099 7.8403083e-39
1.1746405 0.30200955 -0.12853494 7.4722475e-39
1.1801862 0.31663901 -0.13968132 7.1027377e-39
1.1710186 0.35239816 -0.1226159 4.8896853e-39
1.1858279 0.3453415 -0.13959453 5.7212382e-39
1.1415713 0.38179404 -0.12139664 7.4718874e-39
1.1580683 0.37274566 -0.13321792 5.9978377e-39
1.1912271 0.36704391 -0.14660881 4.4312154e-39
1.1284994 0.40392098 -0.12429884 8.3023711e-39
1.1166134 0.4317978 -0.11327495 8.576786e-39
1.1225222 0.43558285 -0.12451889 8.208365e-39
1.1316655 0.46336427 -0.12466225 8.8537148e-39
1.1472983 0.47775409 -0.12637717 9.033081e-39
1.143903 0.48149359 -0.11563293 7.7470085e-39
1.1570936 0.48712111 -0.12745614 1.1156438e-38
1.2891431 0.14771302 -0.13729319 1.190125e-38
1.3075608 0.14261651 -0.14196384 1.107006e-38
1.3426464 0.13205458 -0.14637831 7.4693482e-39
1.2337098 0.1772237 -0.11940831 9.3208629e-39
1.2524879 0.16563568 -0.12480851 1.0333576e-38
1.2786084 0.1538603 -0.1327793 1.0519766e-38
1.2025914 0.20144562 -0.11217191 8.7651583e-39
1.2186023 0.18665272 -0.11751265 9.2279357e-39
1.1786449 0.23221207 -0.10053888 7.3811393e-39
1.1880575 0.22093137 -0.11243914 7.65665e-39
1.1767303 0.25630304 -0.10530226 7.2874905e-39
1.1806177 0.24966605 -0.12147795 9.2232134e-39
1.1766624 0.28530699 -0.10496304 7.4729552e-39
1.1764498 0.31398892 -0.10109228 5.5361295e-39
1.1833953 0.31769791 -0.11500861 6.180787e-39
1.1454886 0.34786475 -0.092795625 7.1041838e-39
1.1632122 0.34044859 -0.1062938 5.6286936e-39
1.1850445 0.33725384 -0.11859893 5.4446597e-39
1.136893 0.37503213 -0.093979321 5.7208823e-39
1.1552699 0.36462805 -0.11111881 4.3357716e-39
1.1331507 0.4039053 -0.094916858 7.28568e-39
1.1332442 0.43316069 -0.095183447 8.8530029e-39
1.1389529 0.46181804 -0.097225614 9.4054536e-39
1.1578881 0.47356328 -0.085828923 1.0139061e-38
1.1434674 0.48273027 -0.10938619 8.4824001e-39
1.3136156 0.14300628 -0.11149012 1.1163336e-38
1.344403 0.13158844 -0.11823267 9.0377529e-39
1.239809 0.17703064 -0.090879045 9.5963679e-39
1.2603648 0.16608937 -0.096821904 1.0609793e-38
1.2888728 0.15361938 -0.10271166 1.1071494e-38
1.2057946 0.20042503 -0.082514368 8.3049047e-39
1.2249482 0.18627341 -0.087080918 9.3183335e-39
1.1815686 0.22617204 -0.07479877 7.7502819e-39
1.1919688 0.21315759 -0.085049868 7.4765789e-39
1.1705621 0.25472051 -0.071911827 6.457734e-39
1.1591784 0.29806605 -0.057143342 4.1538957e-39
1.1694673 0.28480363 -0.07337258 5.7198019e-39
1.1518061 0.31946865 -0.062946737 5.7201662e-39
1.1658084 0.31312695 -0.079126641 4.9825984e-39
1.1295953 0.33454126 -0.047737081 6.55138e-39
1.1423872 0.34483719 -0.066715568 7.0108994e-39
1.1258602 0.3850798 -0.071933061 8.5757182e-39
1.1364992 0.373164 -0.062934853 8.7622548e-39
1.1266271 0.39887506 -0.067482606 8.3934695e-39
1.1360282 0.40769675 -0.061362453 8.8533645e-39
1.1433607 0.43453586 -0.066790618 8.9444685e-39
1.1531403 0.45767078 -0.074327253 1.0141934e-38
1.1635379 0.47311926 -0.080026023 1.1891497e-38
1.3260229 0.14163613 -0.084133908 1.226571e-38
1.3459274 0.132765 -0.089427769 1.3354758e-38
1.2479551 0.17896008 -0.061514325 8.0283248e-39
1.2672038 0.16762486 -0.068072677 9.8711528e-39
1.2987365 0.15384357 -0.074341871 1.1346633e-38
1.2147566 0.2014347 -0.054606479 9.3190552e-39
1.2361503 0.18759316 -0.057965863 9.0417494e-39
1.1855317 0.22879204 -0.047004644 8.9491895e-39
1.2001547 0.21283823 -0.049309388 9.0410264e-39
1.1637362 0.26044986 -0.036826964 7.6584366e-39
1.1703275 0.24877036 -0.04452977 7.8428307e-39
1.1591367 0.28570551 -0.035032246 5.7201522e-39
1.1714605 0.28597268 -0.049517188 6.2740378e-39
1.1379137 0.32861122 -0.029957248 8.1197861e-39
1.1500692 0.31449589 -0.037267484 6.7332349e-39
1.1330597 0.34547159 -0.031069806 7.8399384e-39
1.1400735 0.3468523 -0.048179902 7.7502581e-39
1.1323997 0.37452191 -0.030810688 7.9306865e-39
1.1384147 0.37741789 -0.047110919 8.2090727e-39
1.1361825 0.40217304 -0.028167481 8.3916548e-39
1.1416014 0.40687436 -0.038619254 8.4838589e-39
1.1463133 0.43189797 -0.036315408 9.7731501e-39
1.1633298 0.45102385 -0.049162727 1.0046494e-38
1.3319161 0.14828807 -0.058599956 1.0609074e-38
1.3620826 0.13887203 -0.064627185 1.3357278e-38
1.2536241 0.17952293 -0.039807525 9.4987465e-39
1.2756624 0.17150475 -0.03973338 1.0333567e-38
1.3068622 0.15954754 -0.048495162 1.1345201e-38
1.330085 0.15349431 -0.047803212 1.1898366e-38
1.3528531 0.1502789 -0.047687709 1.4481236e-38
1.2255623 0.20384628 -0.029413361 9.8711401e-39
1.248001 0.19037516 -0.029794781 9.5956365e-39
1.2668478 0.18084402 -0.024790155 8.6744088e-39
1.1949422 0.23101328 -0.019881427 9.7778627e-39
1.2125504 0.21617468 -0.020102676 9.8714989e-39
1.1671454 0.25921026 -0.010358646 8.763708e-39
1.1819305 0.24415687 -0.014182594 1.0239193e-38
1.1480815 0.2970899 0.0072172419 7.7531602e-39
1.1581681 0.2860426 -0.0077284407 6.9194282e-39
1.1410637 0.31902689 4.2949694e-05 7.3796875e-39
1.1496563 0.30899072 -0.012714624 7.4711573e-39
1.129715 0.34408429 -0.00098465243 8.3012795e-39
1.1336023 0.37468949 -0.0012782438 8.7611688e-39
1.1375299 0.40120348 -0.004366192 8.66789e-39
1.1573921 0.41922936 -0.00066457019 1.1524493e-38
1.1555613 0.43223363 -0.011495075 1.0049376e-38
1.1837305 0.44578347 -0.0027073976 1.1891856e-38
1.380073 0.14445093 -0.041409388 1.1431231e-38
1.3970416 0.1495046 -0.024914596 9.2181561e-39
1.2881503 0.17532806 -0.017622234 1.2084916e-38
1.3138714 0.16905114 -0.016637905 1.2451543e-38
1.3376448 0.16051789 -0.026771525 1.1805451e-38
1.3683422 0.15402524 -0.033890124 1.1992706e-38
1.3984648 0.15220551 -0.027379939 1.3276576e-38
1.2352978 0.20645505 -0.0070854332 8.4896392e-39
1.2547822 0.19706319 -0.0021745255 1.0332117e-38
1.2773848 0.18384291 -0.0042317151 1.1438825e-38
1.2071011 0.23467152 0.0085715046 1.032923e-38
1.2255994 0.21911632 0.0050271549 1.0239194e-38
1.1741111 0.26275134 0.016156033 1.0144842e-38
1.1940722 0.24900857 0.014993776 1.0145561e-38
1.1509145 0.29525766 0.027958551 8.3952884e-39
1.1620033 0.28183335 0.021027841 8.6704235e-39
1.1433041 0.31486526 0.02626019 8.3016452e-39
1.1335013 0.34479111 0.029314088 9.5909351e-39
1.1401197 0.37423483 0.027386958 9.9582701e-39
1.1508634 0.39493367 0.022391837 1.0695472e-38
1.1642771 0.40840146 0.024511002 1.1063879e-38
1.1775064 0.42961776 0.019794345 9.5883988e-39
1.1867036 0.44242349 0.00867589 9.5883988e-39
1.4491898 0.14973578 -0.019152606 5.1597589e-39
1.4523125 0.14518899 -0.030940691 5.8933345e-39
1.325196 0.17481536 0.012873583 1.2634485e-38
1.3858196 0.16889383 -0.0062604826 1.2359331e-38
1.4399214 0.15561591 -0.019025402 8.479484e-39
1.4542779 0.15037432 -0.023415145 6.1782366e-39
1.2652086 0.20416865 0.024545129 1.0793098e-38
1.2913867 0.19056393 0.020360198 1.1438111e-38
1.3108882 0.18090273 0.017201943 1.2452985e-38
1.2363509 0.23002283 0.032676406 9.5001926e-39
1.254788 0.21575205 0.031679295 9.9626169e-39
1.1854904 0.2672734 0.035690293 1.0150242e-38
1.2058151 0.25740013 0.041075505 1.0421073e-38
1.227448 0.24481285 0.043588813 1.0052286e-38
1.1546417 0.29688442 0.048605461 9.039576e-39
1.1749299 0.28368235 0.050270062 1.032959e-38
1.1944227 0.27240366 0.054062489 1.1896171e-38
1.1488447 0.31482658 0.056309544 9.315437e-39
1.1470518 0.34566012 0.057708912 1.1249729e-38
1.1541463 0.37469772 0.054083277 1.2170598e-38
1.1656396 0.38801834 0.058617443 1.1518409e-38
1.157851 0.39272845 0.044624932 1.2263515e-38
1.1674131 0.40264848 0.048070375 1.0971699e-38
1.1776818 0.42391923 0.038439848 1.0232699e-38
1.3367878 0.17609662 0.031948108 1.61307e-38
1.2782044 0.20262386 0.038481556 1.2726616e-38
1.3027012 0.19911592 0.051028725 1.1335779e-38
1.3270934 0.18655662 0.044884868 1.1890396e-38
1.2463243 0.23464806 0.050964449 1.1069322e-38
1.2690159 0.22524534 0.055168886 1.124828e-38
1.2911325 0.21492215 0.056888994 1.2074058e-38
1.2174127 0.26562306 0.062377304 1.1803975e-38
1.2394348 0.25477442 0.064687014 1.1711798e-38
1.2649956 0.24445064 0.067845233 1.2172397e-38
1.1862074 0.29173943 0.073332548 1.2541548e-38
1.2105504 0.28096676 0.074482717 1.2263525e-38
1.2328281 0.27549356 0.078436948 1.4387243e-38
1.1606053 0.31648701 0.076541796 1.1894017e-38
1.1803137 0.31005156 0.082936674 1.2539748e-38
1.1626369 0.34242296 0.079604611 1.2354635e-38
1.1781294 0.34657726 0.087841354 1.3921951e-38
1.1622211 0.36954054 0.070855267 1.1802907e-38
1.1844698 0.36910275 0.079931311 1.4382932e-38
1.2065765 0.37849542 0.084769562 1.1704225e-38
1.2798594 0.11583119 0.096265189 4.3353778e-39
1.2822117 0.13635133 0.091787949 6.4519214e-39
1.2863258 0.16079676 0.092856921 4.9746306e-39
1.3021387 0.16967492 0.077587426 9.6726308e-39
1.2917289 0.19807608 0.091321304 9.303135e-39
1.3009171 0.19389267 0.076415211 1.1332159e-38
1.2882404 0.22684702 0.084610544 1.4833428e-38
1.2931098 0.21920565 0.073330387 1.4281347e-38
1.2509729 0.26637429 0.080636248 1.3552828e-38
1.280154 0.25423518 0.086268917 1.5572076e-38
1.2259085 0.29074207 0.090636402 1.3830844e-38
1.2525131 0.28266194 0.089274161 1.4382943e-38
1.2708961 0.27870256 0.095363267 1.3737201e-38
1.1966769 0.32201433 0.095540218 1.3736125e-38
1.2207922 0.31064874 0.098528534 1.4751351e-38
1.1956915 0.33539447 0.094537914 1.5766561e-38
1.2150534 0.33761466 0.10139833 1.1056721e-38
1.2833771 0.11150458 0.10408081 3.0421377e-39
1.2787917 0.13329175 0.10461406 1.0872252e-38
1.2800095 0.16593546 0.103591 7.8312433e-39
1.2892867 0.19497186 0.10334162 7.9230788e-39
1.2871273 0.22371289 0.10317614 1.3633081e-38
1.2925619 0.25319764 0.10496978 1.667083e-38
1.3024536 0.26523793 0.11154471 1.7130718e-38
1.28557 0.28160021 0.10650619 1.6032697e-38
1.3028344 0.27804771 0.11300285 1.7775748e-38
