# .PCD v0.7 - Point Cloud Data file format
VERSION 0.7
FIELDS x y z rgb
SIZE 4 4 4 4
TYPE F F F F
COUNT 1 1 1 1
WIDTH 1014
HEIGHT 1
VIEWPOINT 0 0 0 1 0 0 0
POINTS 1014
DATA ascii
2.9556267 -0.84677595 -1.3833685 8.4776904e-39
3.0753598 -0.84290212 -1.419398 9.9491953e-39
3.1097226 -0.85097045 -1.4150834 9.7658872e-39
3.1384954 -0.84679854 -1.4349563 9.7691284e-39
3.1737118 -0.84683192 -1.4350743 8.1071086e-39
2.869597 -0.83535737 -1.3680969 7.7361498e-39
2.9556112 -0.8310402 -1.3833685 8.3818976e-39
2.9831831 -0.83085114 -1.396273 8.8428617e-39
3.1368341 -0.83430111 -1.4409844 9.212024e-39
2.8515277 -0.94167274 -1.3284125 1.5103834e-38
2.8787813 -0.93295008 -1.3348693 1.0136092e-38
2.8757296 -0.90998793 -1.3459451 9.7669858e-39
2.90605 -0.91233379 -1.3412269 7.6500877e-39
2.934273 -0.89732945 -1.3479086 7.8326769e-39
2.8757007 -0.8812815 -1.3459451 8.845761e-39
2.9055102 -0.8814401 -1.3430896 8.294011e-39
2.9060037 -0.86599255 -1.3412271 7.9252396e-39
2.9331982 -0.85056353 -1.3516679 8.0167122e-39
2.961853 -0.84676969 -1.3606007 7.8341202e-39
2.9957638 -0.84275049 -1.3503128 7.0011029e-39
3.0211995 -0.83877641 -1.3748083 8.5662706e-39
3.0834575 -0.85515451 -1.3898321 7.276636e-39
3.1146264 -0.85715449 -1.3971741 8.013471e-39
3.1483989 -0.8592878 -1.398787 7.6464751e-39
3.1798186 -0.84892982 -1.4127504 7.1858753e-39
3.2138443 -0.83843696 -1.4209738 7.462451e-39
2.9311187 -0.82718211 -1.3591863 8.2940306e-39
2.9633977 -0.83496636 -1.3549088 7.7379743e-39
2.9894674 -0.83084482 -1.3732929 8.7542324e-39
3.2138317 -0.82568467 -1.4209738 8.1045862e-39
3.2495964 -0.82111681 -1.4228613 7.8344523e-39
3.2795033 -0.82954192 -1.4500067 8.5669937e-39
2.8302333 -0.93316555 -1.3001013 1.1981026e-38
2.8605216 -0.9302839 -1.2954823 8.0163563e-39
2.8863478 -0.92720121 -1.3071796 7.8319398e-39
2.7834041 -0.91676468 -1.266569 1.1339653e-38
2.8898664 -0.91188753 -1.2942578 7.2784339e-39
2.9126675 -0.90846539 -1.3170145 7.0954804e-39
2.913661 -0.88336295 -1.3132895 7.0039952e-39
2.9136322 -0.85439956 -1.3132894 7.740854e-39
2.9711926 -0.84676039 -1.3264493 7.8319482e-39
3.0307338 -0.85680538 -1.3400091 7.5557102e-39
3.0619342 -0.85909903 -1.3472378 7.0014729e-39
3.1227891 -0.85714632 -1.3673251 5.9862293e-39
3.1566291 -0.84678036 -1.368646 5.3419557e-39
3.1859214 -0.8468197 -1.3904263 6.0813242e-39
3.2205722 -0.83843023 -1.3963726 6.9103464e-39
3.2222414 -0.82567626 -1.3902223 7.1837047e-39
3.254693 -0.82111174 -1.4042245 7.371312e-39
2.8451068 -0.93315065 -1.2457131 1.1150282e-38
2.8680263 -0.93027633 -1.2680404 8.0181401e-39
2.8954346 -0.92719209 -1.2739519 8.1085379e-39
2.7412 -0.91185653 -1.2237484 1.621449e-38
2.7681272 -0.91984427 -1.2238777 1.5752802e-38
2.7892489 -0.91675889 -1.245196 1.2168734e-38
2.8650129 -0.9188996 -1.2790172 7.8330468e-39
2.8954175 -0.90996826 -1.2739519 7.6493688e-39
2.8954003 -0.89274436 -1.2739519 7.8305315e-39
2.9222169 -0.88219583 -1.2819995 7.2798688e-39
2.9465859 -0.87393361 -1.302798 7.9216523e-39
2.9220393 -0.85728747 -1.2825582 7.5561012e-39
2.9512005 -0.86223727 -1.2858815 7.7419302e-39
2.978987 -0.85855448 -1.2979896 7.740847e-39
3.0099154 -0.85464823 -1.2986077 7.2791472e-39
3.0683405 -0.85909265 -1.3238118 6.0820473e-39
3.1004336 -0.85207242 -1.327744 5.6178041e-39
3.1303935 -0.84269774 -1.3394661 5.8944036e-39
3.1615622 -0.83427638 -1.3505615 5.1586379e-39
3.1947803 -0.82577109 -1.357955 5.6181727e-39
3.2272809 -0.81929511 -1.3717713 6.1702591e-39
3.1980829 -0.79841602 -1.3457782 6.9910234e-39
2.8201115 -0.93612987 -1.234768 1.5017423e-38
2.8755422 -0.94164872 -1.2405984 1.1247491e-38
2.9034476 -0.935386 -1.24468 8.2018153e-39
2.9029908 -0.91110891 -1.2462622 7.5571564e-39
2.8769975 -0.896128 -1.23511 7.4631713e-39
2.9029667 -0.88699549 -1.2462623 7.3709602e-39
2.9304636 -0.8775534 -1.251827 7.1876718e-39
3.0795639 -0.87122446 -1.2828161 7.9223474e-39
3.1093428 -0.86738926 -1.2952217 7.0018218e-39
2.9304519 -0.86596811 -1.251827 7.1880277e-39
2.9581368 -0.85930741 -1.2605069 7.556097e-39
2.9883265 -0.85854512 -1.2638382 7.6471856e-39
3.0146286 -0.85464352 -1.2813727 7.4646356e-39
3.0466008 -0.86280233 -1.2820102 7.2813206e-39
3.0747468 -0.85908628 -1.3003856 6.4468838e-39
3.1077073 -0.84899998 -1.3011348 5.9865937e-39
3.1076889 -0.8306092 -1.3011348 5.9866203e-39
3.1397319 -0.82123321 -1.3052393 6.3546489e-39
3.1681376 -0.81552118 -1.3264487 6.6309023e-39
3.1423242 -0.80142587 -1.2956877 6.4479263e-39
3.1714158 -0.7967692 -1.3143923 6.4497242e-39
3.140667 -0.77667159 -1.3016574 7.5431014e-39
3.1730394 -0.77176952 -1.3083642 1.2889719e-38
2.8845417 -0.9359498 -1.2076682 9.3088761e-39
2.9090705 -0.93291968 -1.2241105 7.6493674e-39
2.8860257 -0.91887861 -1.2021798 7.6500863e-39
2.9120765 -0.90995163 -1.2130346 7.2802234e-39
2.9120536 -0.88698643 -1.2130346 7.2787828e-39
2.9381039 -0.87754577 -1.2238896 7.2794877e-39
2.9681745 -0.87391204 -1.2238545 7.7368589e-39
3.082767 -0.87122124 -1.271103 7.4645992e-39
3.1168933 -0.87146848 -1.2676271 7.184418e-39
2.936564 -0.86596197 -1.229477 7.2798478e-39
2.9666209 -0.86222184 -1.2294933 7.6472038e-39
3.0240672 -0.86654603 -1.2469026 7.3705917e-39
3.0827549 -0.85907823 -1.271103 6.9085332e-39
3.1157923 -0.84899199 -1.2715691 6.1735073e-39
3.1157744 -0.83060122 -1.2715691 5.9880468e-39
3.1472464 -0.82617688 -1.2777783 5.8961889e-39
3.1173668 -0.80607837 -1.265656 5.9891174e-39
3.1472156 -0.79523194 -1.2777783 6.356451e-39
3.1471908 -0.77047604 -1.2777783 9.9448232e-39
2.8689156 -0.94440401 -1.1586919 8.755317e-39
2.8926456 -0.93480378 -1.1780308 8.2021755e-39
2.8926251 -0.91432011 -1.1780308 7.2798646e-39
2.9196429 -0.90420276 -1.1853449 7.0021959e-39
2.9196258 -0.88697886 -1.1853449 7.2773521e-39
2.9457436 -0.87753808 -1.1959521 7.3695463e-39
3.0054603 -0.87032974 -1.2012271 7.277715e-39
3.0624738 -0.87481225 -1.2240114 7.2784045e-39
3.0923827 -0.87728322 -1.2359639 7.0943874e-39
3.1239026 -0.87350494 -1.2420033 6.1713465e-39
2.9457319 -0.86595279 -1.1959521 7.3688121e-39
2.972789 -0.8622157 -1.206938 7.4603028e-39
3.0303514 -0.86653978 -1.2239225 7.3712938e-39
3.0955553 -0.84692222 -1.2242509 6.9056675e-39
3.123337 -0.84694093 -1.2439744 6.9071192e-39
3.1238534 -0.82446271 -1.2420033 6.0805802e-39
3.1238227 -0.79381138 -1.2420033 6.3557419e-39
3.0954583 -0.74977732 -1.2242509 7.459881e-39
3.1237984 -0.76929027 -1.2420033 6.725581e-39
2.9010801 -0.96438289 -1.147296 8.2014608e-39
2.9010575 -0.94162321 -1.147296 7.6493702e-39
2.9010289 -0.91317368 -1.147296 7.2802108e-39
2.9257009 -0.90419668 -1.1631932 7.1880053e-39
2.9040139 -0.89610094 -1.1363192 7.2780429e-39
2.9271982 -0.88697129 -1.1576552 7.1869347e-39
2.9533839 -0.87753046 -1.1680146 7.0947377e-39
2.980511 -0.8738997 -1.178744 6.8188725e-39
3.0132551 -0.88212389 -1.1727674 7.2787744e-39
3.0397899 -0.87844223 -1.1894524 7.3677274e-39
3.0719903 -0.87480271 -1.1892122 7.2759004e-39
3.0987949 -0.88334835 -1.2125379 7.8283525e-39
3.1303709 -0.87349844 -1.2183508 6.4475816e-39
2.950316 -0.8659482 -1.1791896 7.2794807e-39
3.0987585 -0.846919 -1.2125379 5.6185356e-39
3.1319633 -0.84897572 -1.2124376 5.9869678e-39
3.1312907 -0.82322919 -1.2148029 6.1735017e-39
3.1319079 -0.79380327 -1.2124376 6.3560866e-39
3.1318839 -0.76928216 -1.2124376 7.1844054e-39
2.9085846 -0.96437538 -1.119854 8.6678073e-39
2.9348679 -0.98456556 -1.1299655 8.2889761e-39
2.8808031 -0.93311495 -1.1151812 7.0076162e-39
2.9085648 -0.94446069 -1.119854 7.8366482e-39
2.8837667 -0.92183489 -1.1043036 7.9298878e-39
2.9085333 -0.91316617 -1.119854 7.0958251e-39
2.9085107 -0.89040655 -1.119854 7.000754e-39
2.9347587 -0.87548113 -1.1299655 7.187648e-39
2.9913051 -0.87388891 -1.1392722 6.9103408e-39
3.0194695 -0.87031573 -1.1499997 7.5514251e-39
3.0751624 -0.87479955 -1.1776124 6.9124974e-39
3.1083922 -0.87119561 -1.1773988 7.4606475e-39
3.0492043 -0.86652094 -1.1549823 9.3135495e-39
3.1090159 -0.85419464 -1.1750562 6.1713689e-39
3.1087456 -0.82414079 -1.1759347 5.9862489e-39
3.1115165 -0.79226226 -1.1656858 5.9873279e-39
3.1383767 -0.79379684 -1.1887851 6.4479277e-39
3.1114922 -0.76797605 -1.1656858 6.8181438e-39
3.1383519 -0.76927572 -1.188785 7.1851341e-39
3.0813744 -0.74251068 -1.1544129 9.3884461e-39
2.9424517 -0.99604046 -1.1022758 7.1927277e-39
2.916095 -0.97005779 -1.0924121 7.1891348e-39
2.9424345 -0.97881675 -1.1022758 5.3401943e-39
2.9164431 -0.94303036 -1.09104 6.5430087e-39
2.8877254 -0.91431296 -1.0898001 7.926648e-39
2.9167855 -0.91031295 -1.0896679 7.0961782e-39
2.9166169 -0.89153647 -1.0902168 6.725965e-39
2.941901 -0.87793458 -1.1038581 6.8160068e-39
2.9959314 -0.87388432 -1.1223557 6.9975114e-39
3.0241392 -0.87031108 -1.1329241 8.1931861e-39
3.0570717 -0.87842494 -1.1262573 1.2632578e-38
3.0846789 -0.87479001 -1.1428131 1.0897098e-38
3.1169381 -0.87523484 -1.1461641 8.8514993e-39
2.9717081 -0.86592686 -1.1009647 7.0893259e-39
3.0523467 -0.86651778 -1.1434923 8.4921349e-39
3.1163819 -0.85297304 -1.1481162 5.8962099e-39
3.0585713 -0.80695188 -1.1205122 4.7920007e-39
3.0856841 -0.82267773 -1.1389465 5.2519167e-39
3.0585535 -0.78908396 -1.1205122 5.251551e-39
3.0856519 -0.79060924 -1.1389465 5.9884041e-39
3.1147137 -0.78618747 -1.1539727 6.2664386e-39
3.1162968 -0.76797122 -1.1481162 6.6326904e-39
3.0553579 -0.73548347 -1.1320024 9.1140214e-39
2.9485095 -0.99603444 -1.0801241 8.3901765e-39
2.9241016 -0.97194642 -1.0631407 7.4718313e-39
2.9484866 -0.97306937 -1.0801241 6.8171026e-39
2.9238713 -0.94160038 -1.0638726 5.9905593e-39
2.9484634 -0.95010424 -1.0801241 6.3632949e-39
2.9235425 -0.91315114 -1.0649703 7.0032651e-39
2.9235198 -0.89039153 -1.0649703 6.8174516e-39
2.9514177 -0.87546438 -1.0690482 7.0011099e-39
3.0633562 -0.87841862 -1.1032772 1.4569108e-38
3.0926094 -0.87478209 -1.1138138 1.0059807e-38
3.1212049 -0.8711828 -1.1305467 5.9812239e-39
2.9778204 -0.86592072 -1.0786147 9.9438129e-39
3.094171 -0.85072911 -1.1080137 5.2468832e-39
3.1211867 -0.85296822 -1.1305467 5.5285008e-39
3.0632906 -0.81290311 -1.1032772 4.8831398e-39
3.0632668 -0.78907925 -1.1032772 5.0678884e-39
3.094099 -0.77857512 -1.1080137 6.449018e-39
3.0940871 -0.76654935 -1.1080139 7.2805443e-39
3.124311 -0.77403474 -1.1188337 7.0904189e-39
2.9076319 -0.98947358 -1.0172824 9.400025e-39
2.9311237 -0.98995745 -1.0375283 9.5872889e-39
2.906122 -0.96692091 -1.0227213 8.2936424e-39
2.9281023 -0.9700458 -1.0485051 8.0206681e-39
2.9068458 -0.94718534 -1.0200018 7.6468325e-39
2.9302163 -0.93996847 -1.0406646 6.2653442e-39
2.931047 -0.91314363 -1.0375283 6.4479446e-39
2.9313953 -0.88611621 -1.0361562 7.3691778e-39
2.9589844 -0.86971563 -1.0413585 7.4527176e-39
3.0428181 -0.87029237 -1.0646211 1.5301637e-38
2.9854603 -0.86591309 -1.0506772 1.1799946e-38
3.0443509 -0.8466872 -1.0589291 6.4361246e-39
3.0699353 -0.85935307 -1.0791481 9.1331533e-39
3.0436583 -0.82139826 -1.0613685 5.8958428e-39
3.0680218 -0.83076626 -1.0860422 5.0678786e-39
3.0435226 -0.79653019 -1.0617751 6.1735045e-39
3.0704923 -0.78788084 -1.0768501 7.0925867e-39
3.0726697 -0.76524597 -1.0688071 7.1825907e-39
2.9135811 -0.98946768 -0.99552709 8.9408209e-39
2.8864765 -0.9584195 -0.99217123 7.6511527e-39
2.9120827 -0.97819197 -1.000966 8.2000119e-39
2.8864653 -0.94724149 -0.99217123 7.0032693e-39
2.9135306 -0.93872082 -0.99552709 6.1749212e-39
2.939322 -0.93305004 -1.0073422 7.2791177e-39
2.9400525 -0.91313463 -1.004598 7.1869291e-39
2.9395986 -0.88793689 -1.0061661 7.0950964e-39
2.9665642 -0.87736315 -1.0136688 7.3659254e-39
2.9946399 -0.87748921 -1.0171522 7.5467181e-39
3.0206041 -0.87385964 -1.0321345 1.2073286e-38
3.0521691 -0.88208497 -1.0304695 1.1423623e-38
3.079067 -0.87840295 -1.045827 1.5485678e-38
2.9900441 -0.8659085 -1.0339147 1.2720091e-38
3.0511003 -0.85061443 -1.0342642 9.3071259e-39
3.0774839 -0.86649263 -1.0515721 1.162894e-38
3.0226054 -0.81929606 -1.0246161 6.6341183e-39
3.0490088 -0.83488077 -1.0418533 7.0018134e-39
3.0220759 -0.80370772 -1.0264957 6.4497424e-39
3.050524 -0.79357278 -1.0361614 6.632319e-39
3.0789719 -0.78310764 -1.045827 6.725588e-39
3.078954 -0.76523978 -1.045827 7.3720294e-39
3.1131203 -0.76653028 -1.0384153 7.5463916e-39
2.8924074 -0.99194747 -0.9706071 8.0170555e-39
2.9210236 -0.99509871 -0.96833295 8.5702321e-39
2.9491432 -0.99847436 -0.97166771 8.6631438e-39
2.8931136 -0.96120733 -0.96791154 7.9263158e-39
2.9210067 -0.97818309 -0.96833295 8.3872884e-39
2.893831 -0.94164515 -0.96521598 7.5585997e-39
2.9209616 -0.93307483 -0.96833295 7.0047071e-39
2.8967516 -0.91369718 -0.95443398 6.0834682e-39
2.9204471 -0.91428024 -0.97014594 5.9901824e-39
2.9475513 -0.90743721 -0.9771561 6.5412024e-39
2.94754 -0.89605743 -0.9771561 6.9096262e-39
2.9741461 -0.88692439 -0.98597914 6.8188711e-39
3.0298681 -0.88554204 -0.99830163 9.1140508e-39
3.0589118 -0.88011122 -1.0058044 1.2813409e-38
3.0837803 -0.87839824 -1.028592 1.557895e-38
3.0329053 -0.83877206 -0.98702395 5.5277819e-39
3.0577445 -0.853755 -1.0099787 8.3880381e-39
3.004252 -0.81182951 -0.98176479 7.2766276e-39
3.0277495 -0.82318819 -1.00582 6.9085444e-39
3.003727 -0.7963829 -0.98362726 7.3691792e-39
3.0290065 -0.79493201 -1.001121 7.0007652e-39
3.0583012 -0.78766412 -1.0077019 7.092944e-39
3.0868273 -0.78309977 -1.017102 7.3680834e-39
3.1163046 -0.77855283 -1.0268155 7.4595503e-39
3.0868154 -0.77118784 -1.017102 7.1851032e-39
3.1162925 -0.76652712 -1.0268155 7.7322066e-39
2.9314632 -1.0232809 -0.93026119 1.0139413e-38
2.904207 -0.99752474 -0.92747879 8.8472142e-39
2.9277139 -0.99227279 -0.94385827 8.2007349e-39
2.9019594 -0.96119845 -0.93556529 8.0181443e-39
2.9299309 -0.97817415 -0.9357 7.8351768e-39
2.8798554 -0.92774719 -0.91391426 7.739405e-39
2.9020882 -0.94275469 -0.93502623 7.8323153e-39
2.9269111 -0.93306887 -0.94657767 7.6482772e-39
2.9026546 -0.91928029 -0.93286979 7.3720477e-39
2.9289753 -0.91502351 -0.93896329 7.4617209e-39
2.9550557 -0.9074297 -0.94971418 7.1847725e-39
2.9550445 -0.89604998 -0.94971418 7.0925741e-39
2.9817185 -0.88691676 -0.95828944 7.0900433e-39
3.0114481 -0.8774724 -0.95568979 1.216442e-38
3.0370564 -0.87774044 -0.97198713 1.4381443e-38
3.037549 -0.85630506 -0.9701075 8.6646362e-39
2.9831581 -0.81227863 -0.95275152 6.2631918e-39
3.0098739 -0.83113271 -0.96127725 5.3433809e-39
2.9834404 -0.79160964 -0.95164388 6.910715e-39
3.0082994 -0.78479296 -0.96686476 7.0014743e-39
3.0359311 -0.78031033 -0.97574633 7.0003785e-39
3.0931115 -0.78309351 -0.99412197 6.908173e-39
3.011344 -0.77320457 -0.95568979 7.3677148e-39
3.0676284 -0.77585292 -0.97355032 7.366626e-39
3.0951905 -0.76720881 -0.98646194 6.8138068e-39
2.934438 -1.023278 -0.91938353 1.0137973e-38
2.9104023 -1.0008719 -0.90483642 8.9397685e-39
2.9100792 -0.97236842 -0.9059146 7.9259487e-39
2.9388549 -0.97816521 -0.90306705 7.9273486e-39
2.8827889 -0.93882316 -0.90322775 7.7401281e-39
2.9105418 -0.94349134 -0.90411764 7.6486373e-39
2.9100316 -0.92486191 -0.9059146 7.5546607e-39
2.9373057 -0.91614288 -0.90850586 7.0929342e-39
2.9640613 -0.90742069 -0.91678387 6.7263153e-39
2.9647975 -0.89319527 -0.91403967 6.451183e-39
2.9908011 -0.88308012 -0.92506182 8.2850076e-39
3.016032 -0.87746781 -0.93892729 1.3461606e-38
2.993794 -0.84671575 -0.91398591 5.9715647e-39
3.0165219 -0.85815841 -0.93706471 1.0422454e-38
2.990742 -0.82375365 -0.92506182 5.4348604e-39
2.9669492 -0.79361969 -0.90580708 6.814925e-39
2.9898405 -0.78766644 -0.92822635 7.0940286e-39
2.9921989 -0.7663393 -0.91952384 7.0003827e-39
3.0143998 -0.77320153 -0.94451475 6.7248678e-39
3.0467136 -0.7686078 -0.93627459 6.9085346e-39
3.073843 -0.76404482 -0.95078266 6.9088891e-39
3.1009371 -0.75330585 -0.96539688 7.917653e-39
3.0769327 -0.7404381 -0.93939883 6.6316043e-39
3.1056325 -0.73543322 -0.94816184 9.0196397e-39
2.9174812 -1.0031003 -0.87895936 8.7550017e-39
2.9178686 -0.96956611 -0.87741905 7.9252228e-39
2.9433169 -0.97816074 -0.88675058 8.0174101e-39
2.9174197 -0.94162154 -0.87895936 7.3716791e-39
2.9179883 -0.92038268 -0.87680298 7.1880081e-39
2.9447367 -0.91049689 -0.88131177 7.0021735e-39
2.9715657 -0.90741318 -0.88934195 6.7245216e-39
2.9715545 -0.89603341 -0.88934195 6.5408507e-39
2.9983716 -0.88115877 -0.89737213 8.5637441e-39
2.998343 -0.85245246 -0.89737213 6.8246304e-39
2.9714804 -0.82206464 -0.88934195 5.6214013e-39
2.971452 -0.7936151 -0.88934195 6.540845e-39
2.9714293 -0.77085549 -0.88934195 7.1851425e-39
2.9982512 -0.76059192 -0.89737213 7.1851186e-39
3.0528703 -0.75690985 -0.9137193 6.9996512e-39
3.0800574 -0.75223678 -0.92801499 6.5393765e-39
3.0543945 -0.73937064 -0.90808046 5.895833e-39
3.0800457 -0.740435 -0.92801499 6.0780774e-39
2.9293034 -1.0310334 -0.83583111 1.0417767e-38
2.9003901 -1.0052791 -0.83910871 9.2192085e-39
2.925837 -1.0049549 -0.84841013 8.3858422e-39
2.9013348 -0.97573429 -0.83554655 7.7422805e-39
2.925559 -0.97235286 -0.84930867 7.5582424e-39
2.9003346 -0.94988447 -0.83910871 7.4649635e-39
2.9262652 -0.94161272 -0.84661311 7.371319e-39
2.9262409 -0.91739368 -0.84661311 7.1854886e-39
2.9527662 -0.90823352 -0.85194212 6.8170704e-39
2.9760685 -0.90740871 -0.87287682 6.815983e-39
2.9551201 -0.88229388 -0.84323996 6.0802354e-39
2.9781883 -0.8830213 -0.86503625 6.4461271e-39
2.955092 -0.85410124 -0.84323996 3.9669148e-39
2.9790118 -0.84888089 -0.86190003 5.8086722e-39
3.002892 -0.85818923 -0.88075829 6.6398496e-39
2.9789848 -0.82205719 -0.86190003 5.8043744e-39
2.9789565 -0.79360759 -0.86190003 6.3578999e-39
2.9801276 -0.76401889 -0.85750932 6.6334064e-39
3.0043089 -0.7605859 -0.87522036 6.6333812e-39
3.0296569 -0.75001562 -0.88863981 6.634449e-39
3.0073147 -0.73761767 -0.86414444 6.5393975e-39
3.0326939 -0.73070371 -0.87746489 6.0794885e-39
3.0574727 -0.73352176 -0.89680278 5.8050583e-39
2.9337263 -1.031029 -0.81965798 1.0231215e-38
2.907685 -0.99419284 -0.81239247 8.0181401e-39
2.9336984 -1.0030841 -0.81965798 8.109984e-39
2.9336703 -0.97513926 -0.81965798 7.556076e-39
2.9076297 -0.93879837 -0.81239247 7.2784157e-39
2.9341042 -0.91738588 -0.81786102 6.5422842e-39
2.9593127 -0.91048229 -0.82801127 6.5411996e-39
2.9595821 -0.88228941 -0.82692349 6.2642497e-39
2.9865406 -0.87325889 -0.83445811 5.1579162e-39
2.9610355 -0.8484568 -0.82148468 5.066787e-39
2.9850228 -0.85619062 -0.83994651 4.6954863e-39
2.9595201 -0.82026559 -0.82692349 5.9883999e-39
2.9599893 -0.79395193 -0.82511055 6.8185179e-39
2.9859531 -0.78601414 -0.83628762 7.0940286e-39
2.9864268 -0.75946075 -0.83445811 7.185127e-39
3.0133669 -0.73187047 -0.84199274 6.4479151e-39
3.041846 -0.71524745 -0.84393984 8.7434424e-39
2.9410975 -1.0310216 -0.79270273 9.493643e-39
2.9169431 -0.99787652 -0.77855188 7.8351922e-39
2.9388611 -1.0058736 -0.80078936 7.8333999e-39
2.9164412 -0.98310506 -0.78033292 7.9273668e-39
2.9410415 -0.97513193 -0.79270273 7.5578696e-39
2.8927259 -0.9361949 -0.76831537 7.4635048e-39
2.9140987 -0.93720925 -0.78872943 7.0025407e-39
2.9149137 -0.91663325 -0.78567618 6.4490152e-39
2.9409745 -0.90806401 -0.79270273 5.9894663e-39
2.9414415 -0.88384444 -0.79090571 5.527391e-39
2.9640441 -0.88228494 -0.81060702 5.8036247e-39
2.9167917 -0.84646487 -0.77855188 5.5273952e-39
2.9423988 -0.85776168 -0.78731173 5.3430165e-39
2.964016 -0.8540923 -0.81060702 5.6181783e-39
2.9423649 -0.82422775 -0.78731167 5.7121494e-39
2.9647229 -0.81744111 -0.80788761 5.8036457e-39
2.942827 -0.79441935 -0.78551477 7.0929412e-39
2.9661822 -0.78924704 -0.80244875 7.3695365e-39
2.9909523 -0.78221583 -0.81799299 7.5539194e-39
2.9683876 -0.76387143 -0.79429054 7.6475415e-39
2.9916773 -0.75661045 -0.81524879 7.3713232e-39
2.9698527 -0.74131578 -0.78885174 7.4631755e-39
2.9939084 -0.73669362 -0.80701619 7.1851242e-39
3.0209334 -0.7261216 -0.81430304 6.6340973e-39
3.0224307 -0.70889622 -0.80876505 9.2094372e-39
3.0449021 -0.71524441 -0.83276486 8.8385023e-39
2.9267142 -1.0274104 -0.74293017 9.3103153e-39
2.9484746 -1.0366032 -0.76574761 9.7691536e-39
2.9234054 -1.0066408 -0.75495249 8.1107029e-39
2.9528642 -1.003065 -0.74957448 7.7419106e-39
2.9237361 -0.97201896 -0.75361669 7.7411847e-39
2.8985205 -0.93618906 -0.74712646 7.0954439e-39
2.8996563 -0.91312259 -0.74288869 6.1742163e-39
2.922214 -0.91108638 -0.75895995 6.4493515e-39
2.9468665 -0.90246916 -0.77113861 5.7132312e-39
2.9240115 -0.88200253 -0.75228083 5.1600532e-39
2.9236143 -0.850151 -0.75361669 5.9876629e-39
2.9241724 -0.82356119 -0.75147939 6.3561049e-39
2.9477637 -0.81677032 -0.76754463 6.7252391e-39
2.9264815 -0.79475373 -0.74293017 7.0958167e-39
2.9488618 -0.79228407 -0.76343709 7.1862088e-39
2.9264593 -0.77259588 -0.74293017 7.8297622e-39
2.9496753 -0.76274145 -0.76035655 7.4627831e-39
2.9746346 -0.76386511 -0.77144748 7.4635048e-39
3.0059385 -0.7594412 -0.76310915 7.3709462e-39
2.9743147 -0.74131131 -0.7725352 7.2769752e-39
3.0009091 -0.73289335 -0.78140378 7.1847599e-39
3.031841 -0.72955549 -0.77442986 7.0936363e-39
2.9998837 -0.70823807 -0.78506267 7.7339666e-39
3.0300031 -0.70888865 -0.78107536 9.2026199e-39
3.0601821 -0.71522915 -0.77688992 9.2980483e-39
2.9786694 -0.63417476 -0.75621873 1.2439541e-38
3.0058019 -0.62288344 -0.76310915 1.2809052e-38
2.9355977 -1.14373 -0.71087062 1.1058439e-38
2.9355812 -1.1271117 -0.71087062 1.1059516e-38
2.9044082 -1.0295428 -0.72593749 1.0972373e-38
2.932559 -1.0274045 -0.72155714 8.8450183e-39
2.9101698 -0.99658656 -0.70474857 7.6446689e-39
2.9325411 -1.0096784 -0.72155714 8.0156178e-39
2.9558182 -1.0086511 -0.73879236 7.8333831e-39
2.9101479 -0.97461957 -0.70474857 6.4493445e-39
2.9310422 -0.97201163 -0.7269004 7.1865662e-39
2.8848262 -0.93348908 -0.69862646 4.7916462e-39
2.9066362 -0.93947601 -0.71746194 6.0798655e-39
2.8848155 -0.92260092 -0.69862646 4.880965e-39
2.9071848 -0.90872169 -0.71534306 5.0671415e-39
2.9071572 -0.8812629 -0.71534306 4.8827404e-39
2.9309425 -0.87230158 -0.7269004 5.9862419e-39
2.910027 -0.85380137 -0.70474857 5.987646e-39
2.9320164 -0.8501426 -0.72289294 6.2631651e-39
2.932354 -0.82244503 -0.72155714 6.8156159e-39
2.9323292 -0.79791331 -0.72155708 7.1858403e-39
2.9592803 -0.78508782 -0.7253148 7.2773339e-39
2.9293816 -0.77259296 -0.73224366 7.6475303e-39
2.9591117 -0.76384985 -0.72585386 7.1851355e-39
2.9817684 -0.75821948 -0.74534112 7.4627943e-39
3.008929 -0.74805844 -0.75213242 7.4610119e-39
2.9351933 -0.7393505 -0.71087062 6.8174319e-39
2.9599729 -0.74037522 -0.72261924 7.2762507e-39
2.9847262 -0.74130094 -0.73446345 7.6454017e-39
3.0104184 -0.73667711 -0.74664402 7.368784e-39
3.0375924 -0.72610492 -0.75338566 7.6450164e-39
3.0632381 -0.71522605 -0.76571494 9.3009322e-39
2.9831371 -0.63980889 -0.73990226 1.2066061e-38
3.0103161 -0.63425875 -0.74664402 1.1696592e-38
3.0108013 -0.61908519 -0.74481457 1.1502512e-38
3.035969 -0.61702204 -0.75892365 1.2991958e-38
2.8927102 -1.1585015 -0.6706199 1.0965166e-38
2.9151561 -1.1540117 -0.68709111 1.0965889e-38
2.93852 -1.1437271 -0.70018417 1.0968393e-38
2.9677525 -1.1483639 -0.69566411 1.0313686e-38
2.9385035 -1.1271087 -0.70018417 1.1150627e-38
2.9131 -1.0295341 -0.69415408 1.0420274e-38
2.9403558 -1.0310898 -0.6930598 8.7538765e-39
2.8920667 -0.99336618 -0.67237031 4.242773e-39
2.9140403 -1.0039051 -0.69062263 6.9110401e-39
2.8770881 -0.9692331 -0.6728965 4.2381095e-39
2.8743358 -0.94447988 -0.67384464 3.7778502e-39
2.84466 -0.91239709 -0.65587682 2.9477322e-39
2.8826683 -0.91263282 -0.67800915 3.7753279e-39
2.9129684 -0.89773238 -0.69415408 4.4221266e-39
2.8919632 -0.88992947 -0.67237031 3.4097866e-39
2.9144003 -0.88125569 -0.68885684 4.6054277e-39
2.9143729 -0.85379696 -0.68885684 4.9749304e-39
2.91434 -0.82084656 -0.68885684 5.4351813e-39
2.9396324 -0.79474056 -0.69484091 6.079134e-39
2.9644349 -0.77949369 -0.70644617 6.8177753e-39
2.9400899 -0.76519632 -0.6930598 7.091844e-39
2.9658866 -0.75713629 -0.70105511 7.1861892e-39
2.9658699 -0.74036932 -0.70105511 7.2769625e-39
2.9936388 -0.73001492 -0.70183051 7.0007134e-39
3.0173159 -0.72984231 -0.72139746 6.909245e-39
3.0451591 -0.72035611 -0.72569603 7.3687812e-39
3.0451477 -0.70887351 -0.72569603 7.1872752e-39
3.0178432 -0.65701091 -0.7192021 1.2435236e-38
2.9672379 -0.63417697 -0.69566405 1.2800419e-38
2.9905701 -0.63604242 -0.71270818 1.2524915e-38
2.9920387 -0.61724579 -0.70726931 1.2339082e-38
3.0173659 -0.60824066 -0.72077018 1.1226609e-38
3.0192761 -0.58873051 -0.71371371 1.2428351e-38
2.9233832 -1.1723092 -0.65707344 1.1699846e-38
2.8933678 -1.1492604 -0.64922643 1.1694442e-38
2.9190154 -1.1503468 -0.67296517 1.0957253e-38
2.9443648 -1.1437212 -0.67881113 1.1322436e-38
2.8982253 -1.1207505 -0.65031523 1.0496604e-38
2.9735563 -1.0552082 -0.67409998 8.6660515e-39
2.9999266 -1.0683208 -0.68007517 1.0053668e-38
2.9246781 -1.0185391 -0.65177619 2.8562653e-39
2.9464459 -1.0329301 -0.67079628 4.7001947e-39
2.8978107 -0.99336046 -0.65136546 4.2388452e-39
2.9246671 -1.0075556 -0.65177619 3.5956394e-39
2.8779695 -0.96828336 -0.64800727 4.4225218e-39
2.873342 -0.94180506 -0.64587706 3.9622499e-39
2.8503075 -0.91239154 -0.63522595 3.5016291e-39
2.8733044 -0.90401793 -0.64587706 3.3179483e-39
2.8854892 -0.8807075 -0.6486212 3.3175867e-39
2.9187462 -0.88125134 -0.67296517 3.2253953e-39
2.8976746 -0.85725957 -0.65136546 3.5016207e-39
2.9211991 -0.85065204 -0.66388416 3.4994655e-39
2.9215832 -0.82083935 -0.66237068 3.6842253e-39
2.9244585 -0.79886949 -0.65177619 3.7756908e-39
2.9465718 -0.79334885 -0.66946042 4.0522847e-39
2.9472718 -0.7628811 -0.66678882 4.2370263e-39
2.9703095 -0.75713187 -0.68488199 6.3593236e-39
2.9732471 -0.74595094 -0.67409998 4.6043865e-39
2.9995968 -0.7384668 -0.68007517 4.0519246e-39
3.0269217 -0.72983271 -0.68627179 4.7869617e-39
3.0572746 -0.72034395 -0.68139249 4.2355802e-39
3.0259013 -0.7101087 -0.68993074 6.076962e-39
3.0542343 -0.70886439 -0.69246835 5.8043352e-39
2.9213965 -0.63412017 -0.66237068 1.2163342e-38
2.9467723 -0.62854981 -0.66812462 1.2336561e-38
2.974122 -0.63789612 -0.67050594 1.2246513e-38
2.9965346 -0.6510725 -0.69095284 1.1975719e-38
2.9738584 -0.62019795 -0.67140442 1.2058906e-38
2.99947 -0.6115998 -0.68007517 1.3259237e-38
3.0260444 -0.60294849 -0.68901598 1.1598292e-38
3.0237672 -0.57734621 -0.69724858 1.2522335e-38
3.0547206 -0.58944517 -0.6902532 1.1687942e-38
2.9022985 -1.1730093 -0.63561183 1.1242112e-38
2.9047885 -1.1498697 -0.62642217 1.2980868e-38
2.9041624 -1.1221964 -0.62861019 1.1967773e-38
2.9320257 -1.1228749 -0.62529004 1.1509677e-38
2.958955 -1.1215489 -0.62537861 1.1054821e-38
2.8777597 -1.0875511 -0.63025612 1.1521584e-38
2.9333754 -1.0240221 -0.61999279 5.6235719e-39
2.9544828 -1.0329221 -0.64140838 5.1618707e-39
2.9059465 -0.99153763 -0.62160856 4.4232238e-39
2.9294922 -1.0038897 -0.63411874 4.4243084e-39
2.9049692 -0.97157711 -0.62510937 4.1462852e-39
2.8804615 -0.94179785 -0.61984211 3.870406e-39
2.8573666 -0.91238439 -0.60941231 3.5012815e-39
2.8775761 -0.90401363 -0.63025612 3.5923715e-39
2.8576221 -0.88562262 -0.60837978 3.1339171e-39
2.8871284 -0.88127428 -0.62683439 3.2250268e-39
2.8559065 -0.86421508 -0.61457503 3.0438557e-39
2.8986759 -0.85516161 -0.62061632 3.3175965e-39
2.9295754 -0.84554416 -0.63323587 2.8577184e-39
2.930275 -0.82083064 -0.63058728 3.4080083e-39
2.9295259 -0.79611856 -0.63323587 3.3179441e-39
2.9562836 -0.78807658 -0.63392782 3.5920296e-39
2.9556723 -0.76148784 -0.63606513 3.4087328e-39
2.9556501 -0.73933005 -0.63606513 3.8686025e-39
2.9820859 -0.73923528 -0.64175367 3.591301e-39
3.0344274 -0.73096317 -0.65882987 3.5927583e-39
3.0344102 -0.71389347 -0.65882987 4.0522735e-39
2.9810019 -0.63788921 -0.64534777 1.2432338e-38
3.0064352 -0.63602656 -0.65469402 1.2340871e-38
3.0069067 -0.61159235 -0.65288109 1.3528987e-38
3.0342965 -0.60009533 -0.65882987 1.3165589e-38
3.061183 -0.59020424 -0.66662467 1.2612411e-38
2.9108875 -1.1457804 -0.60410446 1.3534019e-38
2.9378421 -1.1448362 -0.60410112 1.3070533e-38
2.963846 -1.1418554 -0.60756773 1.3622977e-38
2.9628532 -1.1233914 -0.61112994 1.0866823e-38
2.9913182 -1.1259845 -0.60940742 1.0391856e-38
2.9391644 -1.0185246 -0.59880388 3.9597177e-39
2.9637389 -1.0347594 -0.60756773 6.0863633e-39
2.9136126 -0.99878871 -0.59360206 4.7916308e-39
2.9391534 -1.0075412 -0.59880388 4.6987331e-39
2.8890321 -0.96878022 -0.58860028 4.3299618e-39
2.8644419 -0.92843413 -0.58359867 4.1455677e-39
2.8890066 -0.94286901 -0.58860034 3.8707815e-39
2.8644259 -0.9123773 -0.58359867 3.3176049e-39
2.8643992 -0.88561577 -0.58359867 3.3183112e-39
2.8889353 -0.87161326 -0.5886004 3.5927233e-39
2.9052851 -0.85480553 -0.59193474 3.3161658e-39
2.9360914 -0.84279186 -0.60939831 3.2264743e-39
2.91488 -0.83002216 -0.58835083 3.4998172e-39
2.9385498 -0.81768423 -0.60031736 3.2253995e-39
2.9396663 -0.79610842 -0.59615523 3.4087062e-39
2.963006 -0.78917772 -0.60934883 3.5916695e-39
2.9629784 -0.76148045 -0.60934883 3.5934688e-39
2.9629562 -0.73932272 -0.60934883 3.7763929e-39
2.9894528 -0.73475671 -0.61479849 3.6849189e-39
3.015949 -0.72999263 -0.62024808 3.4104956e-39
3.0411787 -0.72811139 -0.63413215 3.4090817e-39
3.0419147 -0.71388596 -0.63138795 3.7771229e-39
3.0133762 -0.63601959 -0.62931281 1.2984455e-38
3.0433362 -0.63422573 -0.62589961 1.3351802e-38
3.0113742 -0.61722642 -0.63656461 1.3900651e-38
3.04267 -0.61146671 -0.62825173 1.3625488e-38
3.0113518 -0.59467232 -0.63656461 1.3440734e-38
3.0387878 -0.58871096 -0.64236474 1.2796072e-38
3.0707784 -0.59402215 -0.63155103 1.2059565e-38
2.9987345 -1.170689 -0.58245224 1.1511856e-38
2.9689167 -1.1470203 -0.58904451 1.3164878e-38
2.9987092 -1.1455386 -0.58245224 1.1968483e-38
2.9706502 -1.1270766 -0.5826326 1.2430886e-38
2.9979501 -1.1231834 -0.58514774 1.1048008e-38
3.0237806 -1.1246822 -0.593054 1.1704546e-38
2.9222507 -1.0205561 -0.56209469 7.9303123e-39
2.9676392 -1.0384485 -0.59331912 7.5615298e-39
2.9085686 -1.0017216 -0.55790061 5.0703869e-39
2.8975759 -0.9687717 -0.55735844 4.3313911e-39
2.8975489 -0.94178081 -0.55735844 3.8700599e-39
2.8728969 -0.91236883 -0.55262232 3.4101481e-39
2.8724031 -0.88917595 -0.55434322 3.2257498e-39
2.8979604 -0.87880182 -0.55562282 3.5008906e-39
2.9111378 -0.85399437 -0.55999953 3.3158099e-39
2.9211011 -0.82820117 -0.56559557 3.4076314e-39
2.9459202 -0.82081497 -0.57337713 3.4079929e-39
2.9461825 -0.79335606 -0.57231766 3.7753321e-39
2.9688454 -0.78363246 -0.58797586 3.6838791e-39
2.9476147 -0.77687931 -0.56702042 3.9572234e-39
2.9702845 -0.76147312 -0.5826326 3.5002053e-39
2.96734 -0.73931831 -0.59331912 2.8591281e-39
2.99683 -0.74033839 -0.5878433 2.9502405e-39
3.024879 -0.73562223 -0.58761513 3.5012689e-39
3.0509362 -0.72980869 -0.59845769 3.6845756e-39
3.075448 -0.72032577 -0.61493725 3.3204678e-39
3.0509202 -0.71387696 -0.59845769 3.5041332e-39
3.0217972 -0.62849313 -0.5984928 1.2529214e-38
3.0538423 -0.63421518 -0.5874809 1.1883862e-38
3.0504439 -0.61288148 -0.59982979 1.1876317e-38
3.0262253 -0.59465748 -0.58217633 1.1600795e-38
3.0522959 -0.58869749 -0.5929693 1.1041831e-38
3.0753217 -0.59401757 -0.61493725 1.1869442e-38
2.9765282 -1.1603075 -0.56125957 1.1237782e-38
3.0060833 -1.1483256 -0.55549699 1.132458e-38
3.0053213 -1.123176 -0.55819255 9.6646854e-39
3.0327048 -1.1246732 -0.56042105 9.3830076e-39
2.9551048 -1.0240004 -0.54053426 6.8232165e-39
2.929409 -0.99877292 -0.5358386 4.8834817e-39
2.9057648 -0.97011298 -0.52741838 4.4221448e-39
2.8825221 -0.93697983 -0.51751578 3.594182e-39
2.9046688 -0.94177371 -0.53132367 3.6870965e-39
2.8813679 -0.91236031 -0.52164596 3.4087146e-39
2.8816955 -0.88693655 -0.52035528 3.2236086e-39
2.9031854 -0.88239533 -0.53653061 3.5019962e-39
2.8813171 -0.8615135 -0.52164596 3.132855e-39
2.9126482 -0.85204136 -0.52889436 3.5909604e-39
2.953475 -0.84277445 -0.5458315 3.3168833e-39
2.9534531 -0.82080746 -0.54583144 3.4097768e-39
2.9534256 -0.79334879 -0.5458315 3.3161644e-39
2.979074 -0.78362215 -0.55057305 3.3165245e-39
2.9562955 -0.76588708 -0.53523701 3.5948911e-39
2.9786854 -0.7600798 -0.55190885 3.5009144e-39
2.981952 -0.73930371 -0.53988653 3.4097725e-39
3.0050848 -0.73921227 -0.55765349 3.867892e-39
3.0293298 -0.72434068 -0.57129866 4.2366578e-39
3.0599427 -0.73093766 -0.56552738 3.7782047e-39
3.0312321 -0.64351976 -0.56404692 1.2349142e-38
3.0583451 -0.63421071 -0.57101578 1.0957944e-38
3.0578296 -0.61903816 -0.57284522 1.1136958e-38
3.0874605 -0.61697054 -0.57063371 1.1878475e-38
3.0306873 -0.59465301 -0.56585985 1.1229842e-38
2.9862514 -1.1418329 -0.52563792 1.1144167e-38
2.9881849 -1.1270591 -0.51851356 1.1324568e-38
3.013427 -1.1203734 -0.52854186 1.0127823e-38
3.0386484 -1.1190288 -0.53866571 8.561921e-39
3.0648379 -1.1235366 -0.54906225 9.0225306e-39
3.0401189 -1.1021117 -0.53322691 1.0217468e-38
2.9366112 -1.0205418 -0.50958252 9.3103811e-39
2.9594507 -1.023996 -0.52464253 7.2888554e-39
2.9292951 -1.0031877 -0.50467992 6.1742514e-39
2.8908319 -0.96408975 -0.4872278 4.3324659e-39
2.9135242 -0.96875566 -0.4990404 4.6051054e-39
2.8870313 -0.92841154 -0.5009951 3.5941848e-39
2.9136889 -0.94356412 -0.49834624 3.684591e-39
2.8898392 -0.91235191 -0.49066964 3.4994781e-39
2.8898125 -0.88559037 -0.49066964 2.9498972e-39
2.890914 -0.85775733 -0.48653942 3.0428033e-39
2.9160414 -0.84947342 -0.5029394 3.3168735e-39
2.9592695 -0.84276867 -0.52464253 3.5016389e-39
2.8925824 -0.83206469 -0.48034418 3.5019626e-39
2.9381406 -0.82673246 -0.50328112 3.4998228e-39
2.9604044 -0.81860381 -0.52040476 3.1321221e-39
2.9392655 -0.80277759 -0.49908009 3.7764097e-39
2.9621174 -0.79334009 -0.51404804 3.4058447e-39
2.9878414 -0.78361338 -0.51851356 3.4079985e-39
2.9878192 -0.76145566 -0.51851356 3.1328423e-39
2.987797 -0.73929787 -0.51851356 2.8569757e-39
3.0130413 -0.73473316 -0.52854186 3.4072894e-39
3.036772 -0.72997177 -0.54410452 3.5916849e-39
3.066694 -0.72808588 -0.54082966 3.226117e-39
3.0905926 -0.72031063 -0.5595578 4.4124142e-39
3.0411665 -0.66230494 -0.5277881 1.2714324e-38
3.0114777 -0.64531076 -0.53393286 1.2716856e-38
3.0387642 -0.63975322 -0.5364902 1.0410165e-38
3.0658495 -0.6342032 -0.54357386 1.0400448e-38
3.0658381 -0.62282342 -0.54357386 1.1969571e-38
3.0927582 -0.61409461 -0.55125093 1.1416051e-38
3.0208151 -1.1371329 -0.50158668 1.1049058e-38
3.0505755 -1.1472095 -0.4951551 1.1234929e-38
3.0207982 -1.120366 -0.50158662 1.0956866e-38
3.0475671 -1.1133813 -0.50603276 1.0129248e-38
3.0217574 -1.096146 -0.49799266 9.4846102e-39
3.0468035 -1.0936472 -0.50875217 8.3718026e-39
2.9314017 -1.0270773 -0.48126808 1.1345441e-38
2.9199877 -1.0042229 -0.47553459 7.3774693e-39
2.8969572 -0.97121996 -0.46485597 4.6051166e-39
2.9203484 -0.9579525 -0.47404701 4.1462796e-39
2.8983316 -0.9337526 -0.45969325 3.5012717e-39
2.9189084 -0.94175947 -0.47925395 3.4115732e-39
2.8750169 -0.90589803 -0.45386294 3.775709e-39
2.8954809 -0.90699393 -0.47001871 3.683505e-39
2.8772402 -0.88890934 -0.44567055 3.5019808e-39
2.8968716 -0.88558328 -0.46485597 3.1346472e-39
2.8968394 -0.85346949 -0.46485597 3.317228e-39
2.8968179 -0.8320604 -0.46485597 3.4065383e-39
2.9312377 -0.82065755 -0.47584704 3.316142e-39
2.9450045 -0.79732788 -0.47807521 3.2243163e-39
2.9708037 -0.78783959 -0.48226464 3.4090775e-39
2.9936862 -0.7836076 -0.49714053 3.5012409e-39
2.9722414 -0.77685469 -0.47696739 3.5902163e-39
2.9951253 -0.76144832 -0.4917973 2.9484693e-39
2.9951031 -0.7392906 -0.49179727 3.1332025e-39
3.0189385 -0.73472726 -0.50697768 3.6835302e-39
3.0481734 -0.72808087 -0.5024069 3.6784659e-39
3.0719442 -0.7252357 -0.52162033 1.8414211e-39
3.0477154 -0.66680926 -0.50385725 1.1887809e-38
3.0748777 -0.65695387 -0.51064354 1.041087e-38
3.0441186 -0.63974792 -0.51691043 1.0223244e-38
3.0748608 -0.63988405 -0.51064354 1.0495152e-38
3.0733371 -0.61712605 -0.51613194 1.2061061e-38
3.0995648 -0.6054759 -0.52633017 1.1682906e-38
3.1092138 -1.1681124 -0.49310255 1.15126e-38
3.0813708 -1.1462798 -0.48869002 1.1693375e-38
3.0325983 -1.1259432 -0.4584583 1.2060005e-38
3.05531 -1.1223952 -0.47775087 1.1509325e-38
3.0266678 -1.0924151 -0.48002249 1.0496606e-38
3.054987 -1.0964583 -0.47883862 9.5771716e-39
3.0813138 -1.0893807 -0.48869002 8.1005995e-39
3.1121683 -1.0934726 -0.4820267 5.8028946e-39
3.0325201 -1.0476973 -0.4584583 7.0093734e-39
2.9509716 -1.0205274 -0.45707032 8.5817592e-39
2.9283614 -0.99681121 -0.44488791 5.4355877e-39
2.9044168 -0.96815395 -0.43756726 4.4232154e-39
2.9274681 -0.95794541 -0.44801211 4.052998e-39
2.9039807 -0.93553108 -0.43904236 3.5934505e-39
2.9317293 -0.94714481 -0.43239117 3.8707563e-39
2.8814566 -0.90482992 -0.4303098 3.2272128e-39
2.8800404 -0.8889066 -0.43543008 3.5941876e-39
2.9043312 -0.88251734 -0.43756726 3.2264603e-39
2.9039009 -0.85560346 -0.43904236 3.4083502e-39
2.9287922 -0.85807794 -0.44280508 3.3168679e-39
2.9048114 -0.82491606 -0.43560055 3.0399278e-39
2.9328339 -0.81930792 -0.45157844 3.4065468e-39
2.9487255 -0.79760975 -0.44340765 3.4072866e-39
2.9780469 -0.78783238 -0.45577848 3.2239674e-39
2.9787519 -0.7686106 -0.45312983 3.4076426e-39
3.0015945 -0.75985914 -0.46813425 3.5005417e-39
3.0029893 -0.73485106 -0.4629437 2.9484315e-39
3.028513 -0.72633421 -0.4719359 3.4958739e-39
3.0545583 -0.66793013 -0.47883859 1.1054454e-38
3.0778794 -0.65695089 -0.49966678 1.0306804e-38
3.0545413 -0.65101451 -0.47883862 9.9398444e-39
3.0808644 -0.63987803 -0.48869002 1.1509304e-38
3.1101887 -0.62843037 -0.48756459 1.1508953e-38
3.0778453 -0.62281144 -0.49966678 1.1969565e-38
3.105634 -0.61695236 -0.5041784 1.0771012e-38
3.1380179 -0.62246859 -0.49192762 1.0864292e-38
3.011553 -1.1159568 -0.43302146 1.1512232e-38
3.03701 -1.1147608 -0.44228524 1.1784467e-38
3.0616996 -1.1161865 -0.45436391 1.1692631e-38
3.0628462 -1.0940338 -0.45009059 1.0037076e-38
3.0888126 -1.0836833 -0.4612481 6.9978533e-39
3.0653701 -1.0682553 -0.44076687 6.8141935e-39
2.9869802 -1.0294603 -0.42399508 5.1557694e-39
3.0085533 -1.0384076 -0.443708 5.6171119e-39
2.9380443 -0.99680161 -0.40948051 4.6987205e-39
2.9115427 -0.96763724 -0.41150784 4.3306695e-39
2.9403055 -0.97952521 -0.40114933 4.3324533e-39
2.9124553 -0.93909073 -0.408066 3.5945337e-39
2.8884568 -0.90376127 -0.40470859 3.5027193e-39
2.9124339 -0.91768163 -0.408066 3.3186924e-39
2.8856413 -0.888901 -0.41494909 3.5012703e-39
2.9127533 -0.8842293 -0.40677536 3.4094222e-39
2.9123697 -0.85345411 -0.408066 2.9498818e-39
2.912343 -0.82669264 -0.40806603 3.0413558e-39
2.9372957 -0.8175832 -0.41156334 3.3165372e-39
2.9438159 -0.79386789 -0.41347992 3.1328451e-39
2.9401002 -0.77439505 -0.40114933 3.5920128e-39
2.9848573 -0.76899672 -0.43080577 3.3168833e-39
3.0117764 -0.75478435 -0.43088421 2.9477308e-39
3.0101948 -0.73188949 -0.43658367 3.4972934e-39
3.089921 -0.69107831 -0.45575973 1.1518675e-38
3.061399 -0.66679555 -0.45382002 9.9466771e-39
3.0929115 -0.67969549 -0.44478294 9.3037852e-39
3.0619726 -0.64536852 -0.45164451 1.1233086e-38
3.089864 -0.63417917 -0.45575973 1.1876296e-38
3.1147323 -0.62842584 -0.47095081 1.151039e-38
3.0913537 -0.62279791 -0.45027134 1.1601141e-38
3.1147208 -0.6169433 -0.47095081 1.1140164e-38
3.0429127 -1.1203439 -0.42072105 1.1696948e-38
3.0719643 -1.1178678 -0.41683599 1.1785179e-38
3.0413995 -1.0812223 -0.42611209 1.0039212e-38
3.0708444 -1.0889244 -0.4208245 9.9448695e-39
3.0187926 -1.0494761 -0.40630525 8.6559341e-39
3.0413771 -1.0588664 -0.42611209 7.4577651e-39
2.9942234 -1.029453 -0.39750889 6.7234412e-39
2.9445934 -0.99571538 -0.38552845 5.0682233e-39
2.9209478 -0.96049148 -0.37708965 4.2374201e-39
2.9445772 -0.97952092 -0.38552845 4.605827e-39
2.9209263 -0.93908226 -0.37708965 3.595254e-39
2.8968592 -0.9048146 -0.37398708 3.685663e-39
2.8972359 -0.88130617 -0.3725242 3.4101439e-39
2.9194505 -0.87485611 -0.3822524 3.1342997e-39
2.8996067 -0.85172915 -0.36374661 3.5012493e-39
2.9200323 -0.85191715 -0.38003981 3.4083586e-39
2.89958 -0.82518786 -0.36374661 3.0410138e-39
2.9204545 -0.81999415 -0.37838036 3.1328493e-39
2.9207795 -0.79227662 -0.37708968 3.1339269e-39
2.9429588 -0.78518856 -0.39073542 3.409425e-39
2.9568806 -0.77223706 -0.38716644 3.4087006e-39
2.9935429 -0.76271176 -0.39902237 3.1317605e-39
3.0184937 -0.75034606 -0.40630525 3.4072824e-39
3.0989833 -0.74796838 -0.42282945 3.3122184e-39
3.0184824 -0.73926717 -0.40630525 3.499457e-39
3.0410528 -0.73470515 -0.42611209 2.7644228e-39
3.0739672 -0.74121165 -0.40813392 4.0490757e-39
3.0989606 -0.7252087 -0.42282945 9.3066859e-39
3.1269624 -0.7432394 -0.42664731 5.150331e-39
3.0959246 -0.69107229 -0.43380621 1.0969807e-38
3.0709286 -0.6773113 -0.41901156 1.0134635e-38
3.0979106 -0.67589724 -0.42648837 1.0127076e-38
3.0689154 -0.64724112 -0.42626333 1.1508238e-38
3.0978727 -0.63796443 -0.42648837 1.1877367e-38
3.1238189 -0.62841672 -0.43772319 1.1784438e-38
3.0988581 -0.6227904 -0.42282945 1.1416705e-38
3.1268363 -0.6169312 -0.42664731 1.1780854e-38
3.1053541 -1.1149613 -0.40087593 1.1140176e-38
3.1364398 -1.1336374 -0.39341968 1.1505407e-38
3.080255 -1.0795175 -0.38637862 9.9416549e-39
3.1053369 -1.0978914 -0.40087593 1.0035259e-38
3.0260987 -1.0494689 -0.37958899 9.2080317e-39
2.9768205 -1.0205015 -0.36254841 7.0897084e-39
3.0000179 -1.0294472 -0.37631994 7.3688022e-39
2.9517128 -0.99570823 -0.35949349 4.9746124e-39
2.9298298 -0.96812862 -0.34463823 4.1469985e-39
2.948849 -0.97951669 -0.3699075 4.3285283e-39
2.9052873 -0.93134743 -0.34326562 3.8689907e-39
2.9293976 -0.93907386 -0.34611332 3.868255e-39
2.9052606 -0.9048062 -0.34326562 3.6838693e-39
2.9048841 -0.87826526 -0.34454569 3.3179539e-39
2.9321678 -0.885548 -0.33578783 4.1462796e-39
2.9052076 -0.85172361 -0.34326562 3.5023381e-39
2.9307129 -0.84273112 -0.34095055 3.8685969e-39
2.9051864 -0.83049059 -0.34326559 3.8664599e-39
2.9289255 -0.81998563 -0.347404 3.6849315e-39
2.9292476 -0.78920972 -0.34611332 3.5012633e-39
2.9486547 -0.78518289 -0.3699075 3.4076342e-39
2.9282815 -0.76423317 -0.34955513 3.6835064e-39
2.9603653 -0.76400638 -0.36491638 3.1321249e-39
3.0016785 -0.75851947 -0.36925697 3.315077e-39
3.0243385 -0.75034022 -0.38493225 3.2232569e-39
3.0026298 -0.74387383 -0.36572549 2.6722481e-39
3.0277333 -0.73556495 -0.37246466 3.4069027e-39
3.0528471 -0.73469335 -0.38298386 3.4973145e-39
3.0789137 -0.72992963 -0.39000446 4.5107377e-39
3.1034689 -0.73089409 -0.40636432 6.1684374e-39
3.0798829 -0.70737457 -0.38637862 1.207367e-38
3.1049442 -0.70528799 -0.40087593 1.1062032e-38
3.0783672 -0.67918342 -0.39181745 9.5721199e-39
3.104475 -0.66505259 -0.40244403 1.104762e-38
3.1048789 -0.63985401 -0.4008759 1.196668e-38
3.0556836 -0.62291062 -0.37220174 1.2059203e-38
3.1028566 -0.61899316 -0.40819374 1.2058878e-38
3.1133595 -1.1159016 -0.37160456 1.1327814e-38
3.1394687 -1.1336344 -0.3823438 1.1883869e-38
3.0378327 -1.0937726 -0.33684292 1.2439559e-38
3.0620508 -1.0923797 -0.35063758 1.0686044e-38
3.0847225 -1.0851514 -0.37006214 1.0219308e-38
3.1113434 -1.1007304 -0.37892237 1.0126385e-38
3.0348661 -1.0494601 -0.34752947 8.564107e-39
3.0605538 -1.0700253 -0.35602859 9.4828319e-39
2.9840009 -1.0204943 -0.33629227 6.8138418e-39
3.0058124 -1.0294415 -0.355131 7.0000309e-39
2.9609768 -1.0037963 -0.32564822 5.5259743e-39
2.9364889 -0.97118044 -0.32029963 5.7103683e-39
2.9165049 -0.94726098 -0.30230358 8.2943627e-39
2.9364567 -0.93906677 -0.32029963 8.2021769e-39
2.913662 -0.90479779 -0.31254408 8.6617187e-39
2.913646 -0.88887304 -0.31254408 8.3854821e-39
2.9363978 -0.88019145 -0.32029966 7.6493632e-39
2.9136035 -0.84640694 -0.31254408 7.4689348e-39
2.9363818 -0.86413461 -0.32029966 7.0958335e-39
2.9135823 -0.82517391 -0.31254411 7.2812884e-39
2.9363282 -0.81061172 -0.32029966 6.632703e-39
2.9163616 -0.80393803 -0.30230358 8.0091648e-39
2.9363067 -0.78920257 -0.32029966 6.0827648e-39
2.9376919 -0.76243973 -0.31513694 3.4984033e-39
2.9750283 -0.76354045 -0.33262065 3.4079943e-39
3.0069866 -0.75485301 -0.34983376 3.6838553e-39
2.9754384 -0.73969185 -0.31918824 3.2239912e-39
3.0089991 -0.73947412 -0.34241763 3.5909408e-39
3.034543 -0.72632575 -0.34752944 2.9470119e-39
3.0843618 -0.72428566 -0.37006214 4.88056e-39
3.0359783 -0.70047349 -0.34218615 7.4620278e-39
3.060185 -0.70115209 -0.35602859 8.1935056e-39
3.0843391 -0.7017315 -0.37006214 1.032484e-38
3.1139355 -0.69105428 -0.36794564 8.3757445e-39
3.0374229 -0.68385375 -0.33684292 6.3399619e-39
3.0862942 -0.6735369 -0.36281034 9.4792138e-39
3.1119115 -0.66829664 -0.37526345 1.0865382e-38
3.0872576 -0.64534324 -0.35918447 1.1325272e-38
3.1108882 -0.64553797 -0.37892237 1.2428387e-38
3.0601065 -0.62290621 -0.35602859 1.1874107e-38
3.0437219 -1.1380825 -0.31546992 1.161521e-38
2.9941618 -1.1293651 -0.29953375 1.1428301e-38
3.0203977 -1.1282784 -0.30215862 1.1706317e-38
3.0444362 -1.1214634 -0.31279826 1.1059132e-38
3.0699396 -1.1184539 -0.32188538 1.2626809e-38
3.0446556 -1.0974588 -0.31190774 5.4341696e-39
3.0684369 -1.0905104 -0.32727629 8.2000105e-39
3.0431592 -1.0623772 -0.31725106 5.1564673e-39
3.0649767 -1.0700208 -0.33985546 9.024704e-39
3.0188611 -1.0404118 -0.30745584 2.6679069e-39
2.9463933 -0.9925797 -0.28416061 4.9771529e-39
2.9682426 -1.0075678 -0.29909265 4.5150607e-39
2.9435513 -0.97423178 -0.29448608 5.7107144e-39
2.9221077 -0.9490248 -0.28182259 9.1244765e-39
2.9439163 -0.93600088 -0.29301095 9.215233e-39
2.9220634 -0.90478933 -0.28182259 8.8475379e-39
2.9220412 -0.88249475 -0.28182259 8.5713153e-39
2.9420452 -0.88018578 -0.29964879 8.2943739e-39
2.9225695 -0.85064459 -0.27977449 7.7426042e-39
2.9420292 -0.86412895 -0.29964876 8.5723845e-39
2.9219837 -0.82516551 -0.28182262 8.1078218e-39
2.9228892 -0.79685378 -0.27840906 8.4791085e-39
2.9430118 -0.78785789 -0.29577672 7.5586025e-39
2.9427757 -0.76350504 -0.29655117 3.6795407e-39
2.976963 -0.75307631 -0.29786599 3.2250338e-39
2.9918516 -0.73376721 -0.30653539 2.8566394e-39
3.0170984 -0.72628576 -0.31275308 2.763341e-39
3.0403786 -0.71708751 -0.32615644 2.5785812e-39
3.0174329 -0.69855219 -0.31142873 2.5793056e-39
3.0184932 -0.67246526 -0.30745587 4.1433971e-39
3.0425234 -0.66999996 -0.31814155 5.706397e-39
3.0660541 -0.67320114 -0.3344644 7.9154922e-39
3.091742 -0.66789293 -0.34286797 9.6657518e-39
3.0446901 -0.64507025 -0.31012672 5.7056838e-39
3.0674949 -0.63966572 -0.32907337 9.0175084e-39
3.0932124 -0.65097582 -0.33742914 9.944138e-39
3.0402789 -0.61737746 -0.32615644 1.2624616e-38
3.0525005 -1.1491525 -0.28341043 1.1611254e-38
2.9970338 -1.1293622 -0.28903136 1.1428302e-38
3.0261922 -1.1282725 -0.28096965 9.3186096e-39
3.0510116 -1.1214569 -0.28875366 3.0414006e-39
3.0768156 -1.1147209 -0.29672712 2.1215575e-39
3.0524449 -1.093758 -0.28341043 2.0275682e-39
3.0758142 -1.096092 -0.30032122 1.5648006e-39
3.0261226 -1.0587105 -0.28096965 1.75171e-39
3.0495002 -1.0716032 -0.29409692 1.5673369e-39
2.9837823 -1.0297973 -0.26942655 3.4083474e-39
2.9526098 -0.99685532 -0.2614446 4.790933e-39
2.9745126 -1.01188 -0.27618203 4.6076095e-39
2.9305232 -0.96317172 -0.25110111 6.4400258e-39
2.9515522 -0.97473359 -0.26523057 5.8025555e-39
2.9305019 -0.94193876 -0.25110111 9.4007215e-39
2.9516342 -0.93905157 -0.2648004 8.9397349e-39
2.9295332 -0.90655124 -0.25451463 9.0301313e-39
2.9519548 -0.90693748 -0.26350966 8.8468246e-39
2.9297409 -0.88089448 -0.25366125 6.8253563e-39
2.9505162 -0.88017732 -0.26867241 7.6500681e-39
2.9290116 -0.85169971 -0.25622138 7.274813e-39
2.9289849 -0.82515848 -0.25622138 8.753543e-39
2.9289532 -0.79330885 -0.25622138 7.742635e-39
2.9504147 -0.77848387 -0.26867241 5.1579064e-39
2.9303322 -0.77207458 -0.25110111 5.3476576e-39
2.9518158 -0.76777786 -0.26350966 3.6824246e-39
2.9845793 -0.75486803 -0.27002165 3.2243177e-39
2.9946198 -0.73853314 -0.27273515 3.0403006e-39
3.0250697 -0.73012203 -0.28361827 2.6711579e-39
3.0009284 -0.71561128 -0.2732777 2.580393e-39
3.0257638 -0.69991678 -0.28096965 2.8562456e-39
3.0257363 -0.67245805 -0.28096965 3.7771271e-39
3.0500758 -0.67276216 -0.29053473 3.5927429e-39
3.0228226 -0.65598571 -0.29156417 3.7778292e-39
3.0505323 -0.64229465 -0.28875366 3.8689668e-39
3.0748663 -0.63965839 -0.30211818 4.235597e-39
3.0583415 -1.1454537 -0.26203737 1.1522299e-38
3.0319867 -1.1282668 -0.25978073 1.0880893e-38
3.0583177 -1.1214495 -0.26203737 4.0587895e-39
3.0582898 -1.0937523 -0.26203743 1.9360956e-39
3.0084462 -1.0531341 -0.2470216 3.1321277e-39
3.0319209 -1.0623658 -0.25978073 2.7654905e-39
2.9908416 -1.0302601 -0.24023139 3.9615156e-39
2.9599533 -0.99898899 -0.23459846 4.4225162e-39
2.9604902 -0.97115642 -0.2325334 7.0003911e-39
2.9332919 -0.93131942 -0.24086066 8.9393832e-39
2.9608111 -0.93904245 -0.23124267 9.0304928e-39
2.9360657 -0.90477532 -0.23062013 8.9386601e-39
2.9363904 -0.87956077 -0.22934009 6.8188781e-39
2.9575703 -0.87481803 -0.24285878 5.441347e-39
2.9360127 -0.85169274 -0.23062013 7.7408288e-39
