# .PCD v0.7 - Point Cloud Data file format
VERSION 0.7
FIELDS x y z rgb
SIZE 4 4 4 4
TYPE F F F F
COUNT 1 1 1 1
WIDTH 1025
HEIGHT 1
VIEWPOINT 0 0 0 1 0 0 0
POINTS 1025
DATA ascii
6.3955512 -3.2848685 -1.2051944 3.6878252e-40
6.3767705 -3.2870626 -1.1946471 1.8439126e-40
6.3736625 -3.2521918 -1.220705 2.7658689e-40
6.6409044 -3.5432243 -1.114898 1.751717e-39
6.6346154 -3.5157523 -1.1377299 1.751717e-39
6.6112785 -3.5511725 -1.120917 5.5317378e-40
6.5833006 -3.5571547 -1.1189108 4.6097815e-40
6.5742745 -3.5295124 -1.1377299 4.6097815e-40
6.5530643 -3.5319424 -1.1255764 2.7658689e-40
6.5352168 -3.5012903 -1.1243161 2.7658689e-40
6.523294 -3.5052245 -1.1304523 3.6878252e-40
6.5062976 -3.4390774 -1.1408324 7.3756504e-40
6.4915667 -3.4081502 -1.1523228 1.1063476e-39
6.4825854 -3.3736677 -1.1577531 4.6097815e-40
6.4734006 -3.3382256 -1.1633784 4.6097815e-40
6.4578085 -3.3045292 -1.1757168 3.6878252e-40
6.4383755 -3.3089607 -1.1757168 3.6878252e-40
6.4151959 -3.274384 -1.1748711 4.6097815e-40
6.4192224 -3.3146203 -1.1822402 3.6878252e-40
6.3955588 -3.278862 -1.1748711 2.7658689e-40
6.3759212 -3.28334 -1.1748711 3.6878252e-40
6.6406574 -3.5698714 -1.0803736 5.5317378e-40
6.6403875 -3.5409582 -1.1028597 9.219563e-40
6.6099868 -3.5455072 -1.0908215 1.0141519e-39
6.5801024 -3.5523219 -1.0908215 3.6878252e-40
6.5543461 -3.5256331 -1.0951927 5.5317378e-40
6.5344267 -3.4978251 -1.1059074 7.3756504e-40
6.526134 -3.4651577 -1.1107497 7.3756504e-40
6.5176558 -3.4315281 -1.1157904 3.6878252e-40
6.502768 -3.3993347 -1.1207049 3.6878252e-40
6.4875579 -3.3662086 -1.125811 4.6097815e-40
6.4628863 -3.296912 -1.143099 2.7658689e-40
6.436975 -3.3028207 -1.143099 3.6878252e-40
6.4140639 -3.2694201 -1.1485029 2.7658689e-40
6.3944268 -3.2738981 -1.1485029 4.6097815e-40
6.3654399 -3.3178415 -1.1365753 2.7658689e-40
6.3747897 -3.2783761 -1.1485029 3.6878252e-40
6.6401458 -3.567627 -1.0684508 1.4751301e-39
6.6385789 -3.5330269 -1.060726 4.6097815e-40
6.608695 -3.5398419 -1.0607259 9.219563e-40
6.5788107 -3.5466564 -1.060726 3.6878252e-40
6.5608802 -3.5507452 -1.060726 2.7658689e-40
6.5467467 -3.5201454 -1.058732 3.6878252e-40
6.5458226 -3.4915807 -1.0874988 4.6097815e-40
6.5309577 -3.4579213 -1.0797623 4.6097815e-40
6.5165811 -3.4268138 -1.0907482 4.6097815e-40
6.5136976 -3.3893287 -1.0827634 3.6878252e-40
6.4991484 -3.358505 -1.1002573 3.6878252e-40
6.4959917 -3.3190124 -1.0923723 2.7658689e-40
6.4809194 -3.2863402 -1.1104811 3.6878252e-40
6.4842806 -3.3267965 -1.1181927 3.6878252e-40
6.4614859 -3.2907717 -1.1104811 3.6878252e-40
6.435575 -3.2966805 -1.1104811 2.7658689e-40
6.416142 -3.3011119 -1.1104811 1.8439126e-40
6.3932948 -3.2689347 -1.1221349 2.7658689e-40
6.3645997 -3.3141575 -1.1170048 3.6878252e-40
6.3691998 -3.2739944 -1.1199375 1.8439126e-40
6.6372871 -3.5273619 -1.0306305 5.5317378e-40
6.6115599 -3.5340233 -1.0346432 4.6097815e-40
6.5889392 -3.5706465 -1.0247334 4.6097815e-40
6.5718002 -3.5434868 -1.0366496 5.5317378e-40
6.5564704 -3.5451949 -1.0276209 5.5317378e-40
6.5459642 -3.5167136 -1.0405017 3.6878252e-40
6.5315289 -3.4851189 -1.0384091 6.4536941e-40
6.5301595 -3.4544215 -1.06117 1.0141519e-39
6.5131545 -3.3869481 -1.0701163 4.6097815e-40
6.5104642 -3.3495991 -1.068315 3.6878252e-40
6.4993415 -3.3139877 -1.0708553 3.6878252e-40
6.4797993 -3.2814283 -1.0843869 2.7658689e-40
6.4631114 -3.3226757 -1.073007 2.7658689e-40
6.4337931 -3.3645527 -1.0555382 2.7658689e-40
6.4397016 -3.32844 -1.0751587 2.7658689e-40
6.4179664 -3.3316922 -1.0665519 3.6878252e-40
6.4020662 -3.2991543 -1.0843869 1.8439126e-40
6.3859 -3.2667046 -1.1023589 2.7658689e-40
6.3659801 -3.2699418 -1.0957669 2.7658689e-40
6.350244 -3.3109717 -1.0843869 2.7658689e-40
6.6424828 -3.5505662 -0.98499036 4.6097815e-40
6.634089 -3.5225279 -1.0025413 5.5317378e-40
6.6074767 -3.56091 -0.99691331 1.2907388e-39
6.6180644 -3.5257852 -1.0005349 4.6097815e-40
6.5837984 -3.5663097 -0.99691331 4.6097815e-40
6.5543976 -3.5407007 -1.0025413 3.6878252e-40
6.5443993 -3.5098503 -1.0040412 8.2976067e-40
6.5304756 -3.4804983 -1.0138643 3.6878252e-40
6.5285635 -3.4474216 -1.0239851 4.6097815e-40
6.5115261 -3.3798058 -1.0321748 6.4536941e-40
6.4961319 -3.3452766 -1.0299844 1.8439126e-40
6.494329 -3.3117218 -1.0536417 3.6878252e-40
6.4771008 -3.3496163 -1.0299844 1.8439126e-40
6.4686899 -3.3175685 -1.0536417 2.7658689e-40
6.4430652 -3.3583899 -1.0350952 1.8439126e-40
6.4171348 -3.3280466 -1.0471866 1.8439126e-40
6.3944683 -3.2957194 -1.0582927 2.7658689e-40
6.3747549 -3.2989228 -1.0517691 2.7658689e-40
6.361434 -3.2651038 -1.0661029 1.8439126e-40
6.3423662 -3.3063087 -1.0517691 2.7658689e-40
6.3454938 -3.2706971 -1.0759908 2.7658689e-40
6.6339073 -3.5493734 -0.96909314 4.6097815e-40
6.6363511 -3.5140657 -0.96241391 1.4751301e-39
6.6048193 -3.522846 -0.97043931 4.6097815e-40
6.5768552 -3.5631704 -0.97306746 3.6878252e-40
6.5746765 -3.5285273 -0.96442026 5.5317378e-40
6.5521193 -3.5343864 -0.9680317 4.6097815e-40
6.5375824 -3.5077944 -0.98581094 3.6878252e-40
6.5151916 -3.4455616 -0.99919522 4.6097815e-40
6.5325804 -3.5369349 -0.95840114 3.6878252e-40
6.5186977 -3.5084906 -0.96758062 3.6878252e-40
6.5001168 -3.4119718 -0.99684036 2.7658689e-40
6.4847808 -3.3783913 -0.99423337 2.7658689e-40
6.4742551 -3.3468914 -1.0129486 1.8439126e-40
6.4445605 -3.3532414 -1.0108191 2.7658689e-40
6.4189119 -3.3578253 -1.0044307 2.7658689e-40
6.4096165 -3.3246479 -1.0213662 1.8439126e-40
6.3899693 -3.2909319 -1.0289367 2.7658689e-40
6.3702559 -3.2941353 -1.0224133 2.7658689e-40
6.3568878 -3.2602663 -1.0364387 3.6878252e-40
6.3412461 -3.3013968 -1.0256751 2.7658689e-40
6.3170471 -3.2667406 -1.0232546 2.7658689e-40
6.6342597 -3.5418162 -0.93133718 5.5317378e-40
6.6334114 -3.5103657 -0.9403438 4.6097815e-40
6.6046619 -3.5485656 -0.93133718 4.6097815e-40
6.6154809 -3.5144546 -0.9403438 3.6878252e-40
6.5809321 -3.5537407 -0.93014491 3.6878252e-40
6.5798783 -3.5237651 -0.94636291 3.6878252e-40
6.5570493 -3.5582426 -0.92537576 4.6097815e-40
6.5478292 -3.5302787 -0.94235021 6.4536941e-40
6.5215316 -3.5663419 -0.92537576 3.6878252e-40
6.52284 -3.5355802 -0.9403438 3.6878252e-40
6.5061078 -3.508955 -0.95542711 2.7658689e-40
6.4912825 -3.4772842 -0.95250213 2.7658689e-40
6.4714079 -3.3776839 -0.97526264 2.7658689e-40
6.4435182 -3.3486714 -0.98654306 2.7658689e-40
6.44028 -3.311264 -0.98909074 3.6878252e-40
6.4070601 -3.3193507 -0.99167281 2.7658689e-40
6.3854704 -3.2861445 -0.99958074 2.7658689e-40
6.3884478 -3.3205268 -0.97618055 2.7658689e-40
6.365757 -3.2893479 -0.99305719 1.8439126e-40
6.3435793 -3.3307586 -0.97618055 2.7658689e-40
6.340126 -3.2964847 -0.99958074 2.7658689e-40
6.3204126 -3.2996881 -0.99305719 1.8439126e-40
6.6332364 -3.5373275 -0.90749139 3.6878252e-40
6.6095581 -3.542727 -0.90749139 5.5317378e-40
6.5799599 -3.5494766 -0.90749139 7.3756504e-40
6.5562816 -3.5548761 -0.90749139 4.6097815e-40
6.5427251 -3.5262775 -0.91626734 3.6878252e-40
6.5207639 -3.5629754 -0.90749139 3.6878252e-40
6.5188179 -3.5317292 -0.91626734 2.7658689e-40
6.4927354 -3.5059874 -0.92504328 2.7658689e-40
6.4775157 -3.4731324 -0.91568488 2.7658689e-40
6.4756074 -3.4423153 -0.93722057 2.7658689e-40
6.4601297 -3.4086924 -0.93423516 2.7658689e-40
6.44912 -3.3765049 -0.94364476 1.8439126e-40
6.4362974 -3.3462701 -0.96610004 1.8439126e-40
6.4225497 -3.3806856 -0.9341594 2.7658689e-40
6.4126716 -3.3499703 -0.95758212 1.8439126e-40
6.3844519 -3.3530321 -0.94054633 1.8439126e-40
6.3748894 -3.32021 -0.95896697 2.7658689e-40
6.358439 -3.2871413 -0.97348654 2.7658689e-40
6.3463902 -3.3617117 -0.94054633 2.7658689e-40
6.3430252 -3.3283284 -0.96327037 2.7658689e-40
6.3191533 -3.3320675 -0.95466357 1.8439126e-40
6.3066173 -3.2989585 -0.97348654 3.6878252e-40
6.2976027 -3.3361299 -0.95036018 2.7658689e-40
6.6378765 -3.5303667 -0.87768406 4.6097815e-40
6.6309566 -3.4996016 -0.88316226 5.5317378e-40
6.6082783 -3.5371161 -0.87768406 6.4536941e-40
6.585422 -3.5717368 -0.85738868 4.6097815e-40
6.5789361 -3.5449877 -0.88364553 6.4536941e-40
6.5619726 -3.5770841 -0.85738868 5.5317378e-40
6.5490823 -3.5506151 -0.87768406 1.1063476e-39
6.5419502 -3.5228784 -0.89821005 3.6878252e-40
6.5270362 -3.5540683 -0.86973548 3.6878252e-40
6.5137138 -3.5277283 -0.89018446 4.6097815e-40
6.4709506 -3.3987861 -0.89667201 2.7658689e-40
6.4938769 -3.532649 -0.89219093 2.7658689e-40
6.4909096 -3.4979801 -0.88250595 2.7658689e-40
6.4769888 -3.4708221 -0.90341246 2.7658689e-40
6.4740109 -3.4353156 -0.90003574 2.7658689e-40
6.4593239 -3.4051569 -0.91545355 2.7658689e-40
6.4476724 -3.3701563 -0.90991896 2.7658689e-40
6.4184599 -3.3772352 -0.91202682 2.7658689e-40
6.3867927 -3.3832042 -0.90570325 1.8439126e-40
6.383903 -3.3506269 -0.92776942 1.8439126e-40
6.3553967 -3.3903635 -0.90570325 2.7658689e-40
6.3519659 -3.3568976 -0.92265868 2.7658689e-40
6.3201933 -3.3638902 -0.921381 1.8439126e-40
6.3011627 -3.3682299 -0.921381 2.7658689e-40
6.6495857 -3.5832491 -0.82588607 7.3756504e-40
6.6494007 -3.5548089 -0.84558105 3.6878252e-40
6.6306772 -3.5261054 -0.84787679 3.6878252e-40
6.6078577 -3.5619438 -0.83377343 4.6097815e-40
6.6072545 -3.5326271 -0.85383821 3.6878252e-40
6.5915165 -3.5964911 -0.82588607 5.5317378e-40
6.5846615 -3.5684028 -0.83967721 9.219563e-40
6.5776567 -3.5393767 -0.85383821 6.4536941e-40
6.5624824 -3.603112 -0.82588607 3.6878252e-40
6.5614657 -3.5748613 -0.84558105 6.4536941e-40
6.5413575 -3.6087015 -0.82978475 7.3756504e-40
6.5241685 -3.5825872 -0.84164518 3.6878252e-40
6.5061097 -3.5533309 -0.84191531 3.6878252e-40
6.5045385 -3.5242577 -0.86209536 3.6878252e-40
6.4875946 -3.4611127 -0.86659515 2.7658689e-40
6.4701443 -3.3952506 -0.87789041 2.7658689e-40
6.4898658 -3.4934044 -0.85819894 3.6878252e-40
6.44877 -3.365314 -0.88673252 2.7658689e-40
6.4173741 -3.3724735 -0.88673252 2.7658689e-40
6.3859782 -3.3796329 -0.88673252 2.7658689e-40
6.3579774 -3.419589 -0.87162989 1.8439126e-40
6.3630452 -3.3852801 -0.88884038 2.7658689e-40
6.3384013 -3.3559427 -0.90221566 2.7658689e-40
6.3291941 -3.3913295 -0.88040894 1.8439126e-40
6.3193703 -3.3602824 -0.90221566 2.7658689e-40
6.3000655 -3.3634195 -0.89582723 2.7658689e-40
6.6490836 -3.5810475 -0.81419015 3.6878252e-40
6.6478801 -3.5481408 -0.81015819 1.1985432e-39
6.631371 -3.5200446 -0.81806946 3.6878252e-40
6.6339622 -3.4852085 -0.81394249 4.6097815e-40
6.6099014 -3.5573857 -0.81311011 3.6878252e-40
6.5906382 -3.5926383 -0.80541825 4.6097815e-40
6.5780387 -3.5664055 -0.82196581 6.4536941e-40
6.561729 -3.5998096 -0.80834222 4.6097815e-40
6.553576 -3.5673072 -0.79835057 4.6097815e-40
6.5326943 -3.6064305 -0.80834222 5.5317378e-40
6.5184016 -3.5753284 -0.79835057 3.6878252e-40
6.5050859 -3.5488422 -0.81806946 4.6097815e-40
6.4690695 -3.3905365 -0.85284835 3.6878252e-40
6.4885616 -3.4876847 -0.82781512 4.6097815e-40
6.4563675 -3.3921933 -0.84658784 2.7658689e-40
6.4456816 -3.3614268 -0.86354607 2.7658689e-40
6.4233918 -3.4005399 -0.85076147 2.7658689e-40
6.4165602 -3.3689027 -0.86776179 2.7658689e-40
6.4004183 -3.4049518 -0.84658784 2.7658689e-40
6.3833652 -3.3739679 -0.85511464 2.7658689e-40
6.3571711 -3.4160535 -0.85284835 1.8439126e-40
6.3657837 -3.3779769 -0.85511464 2.7658689e-40
6.3406835 -3.4202271 -0.85493517 1.8439126e-40
6.3279729 -3.3859727 -0.85195285 1.8439126e-40
6.3111072 -3.3533111 -0.85749662 2.7658689e-40
6.299243 -3.3598118 -0.87666196 2.7658689e-40
6.2940006 -3.3203332 -0.86644393 1.8439126e-40
6.6453991 -3.4802165 -0.80190426 5.5317378e-40
6.628118 -3.5148833 -0.78826219 1.1063476e-39
6.6334453 -3.4829423 -0.80190426 5.5317378e-40
6.6114388 -3.5506046 -0.78063917 8.2976067e-40
6.5880566 -3.5880153 -0.77910239 4.6097815e-40
6.5615349 -3.5936005 -0.77676314 5.5317378e-40
6.5328283 -3.6003201 -0.7776404 3.6878252e-40
6.5040627 -3.5443532 -0.79422367 1.6595213e-39
6.4854875 -3.4518719 -0.81750542 5.5317378e-40
6.4679942 -3.3858225 -0.82780623 3.6878252e-40
6.5056634 -3.5735564 -0.77473533 3.6878252e-40
6.4894843 -3.513387 -0.78986603 3.6878252e-40
6.4697547 -3.4166496 -0.80087626 4.6097815e-40
6.4490757 -3.3888967 -0.82154578 5.5317378e-40
6.4242096 -3.3945673 -0.82154578 1.8439126e-40
6.3970919 -3.3999243 -0.81737208 1.8439126e-40
6.3772559 -3.3703516 -0.82982028 2.7658689e-40
6.3588014 -3.4088628 -0.81841546 2.7658689e-40
6.3646979 -3.3732154 -0.82982028 2.7658689e-40
6.3428569 -3.410639 -0.80902469 2.7658689e-40
6.3242941 -3.3814275 -0.82476145 1.8439126e-40
6.2909799 -3.3528404 -0.83194286 1.8439126e-40
6.6344571 -3.5704856 -0.74401468 5.5317378e-40
6.6341281 -3.5419233 -0.76292771 4.6097815e-40
6.6152682 -3.5756338 -0.7479133 4.6097815e-40
6.6224031 -3.5445969 -0.76292771 3.6878252e-40
6.588253 -3.5821803 -0.74986261 6.4536941e-40
6.5592189 -3.5888011 -0.74986261 8.2976067e-40
6.5317082 -3.623893 -0.73713839 4.6097815e-40
6.5302343 -3.5956423 -0.75103217 8.2976067e-40
6.5067058 -3.599618 -0.74401468 4.6097815e-40
6.5051565 -3.5713336 -0.76292771 1.6595213e-39
6.4904318 -3.5391974 -0.75249344 9.219563e-40
6.4889679 -3.5111208 -0.7778278 5.5317378e-40
6.4736242 -3.477854 -0.76097077 4.6097815e-40
6.4653645 -3.4479547 -0.77455193 3.6878252e-40
6.4569144 -3.4171228 -0.78848135 5.5317378e-40
6.4381866 -3.420166 -0.78228384 1.8439126e-40
6.4166493 -3.3900926 -0.79024309 1.8439126e-40
6.3917832 -3.3957627 -0.79024315 1.8439126e-40
6.3607006 -3.4028509 -0.79024309 1.8439126e-40
6.3456116 -3.4400496 -0.77608639 3.6878252e-40
6.3338518 -3.4093871 -0.79232997 1.8439126e-40
6.3109679 -3.414192 -0.79024309 1.8439126e-40
6.2835393 -3.3494766 -0.80638915 1.8439126e-40
6.6337042 -3.5671833 -0.72647077 6.4536941e-40
6.6337738 -3.593734 -0.70237488 4.6097815e-40
6.6160326 -3.570055 -0.72062284 6.4536941e-40
6.5928049 -3.5753517 -0.72062284 8.2976067e-40
6.5668764 -3.611284 -0.71396267 3.6878252e-40
6.5579634 -3.5832968 -0.72062284 3.6878252e-40
6.5417223 -3.6147251 -0.70237488 4.6097815e-40
6.5275402 -3.5905242 -0.72208482 4.6097815e-40
6.5059524 -3.5963156 -0.72647077 3.6878252e-40
6.503129 -3.562443 -0.71569729 3.6878252e-40
6.4894085 -3.5347087 -0.72864759 3.6878252e-40
6.4728417 -3.474422 -0.74274045 4.6097815e-40
6.4582176 -3.4447236 -0.75000709 5.5317378e-40
6.4333768 -3.4161084 -0.75625449 3.6878252e-40
6.415843 -3.3865571 -0.77146155 2.7658689e-40
6.3980589 -3.4239988 -0.75542814 1.8439126e-40
6.40341 -3.3893921 -0.77146155 2.7658689e-40
6.3817372 -3.4281297 -0.75749397 2.7658689e-40
6.3596253 -3.3981369 -0.76520103 2.7658689e-40
6.3406219 -3.4370966 -0.75542814 1.8439126e-40
6.3288112 -3.4064035 -0.77146155 2.7658689e-40
6.3199315 -3.4409962 -0.75129652 2.7658689e-40
6.3036766 -3.4108953 -0.76520103 2.7658689e-40
6.2871761 -3.3808749 -0.77923167 1.8439126e-40
6.6242738 -3.5918846 -0.68209618 4.6097815e-40
6.6150284 -3.5656519 -0.69723099 4.6097815e-40
6.5907545 -3.599719 -0.6830619 3.6878252e-40
6.5976076 -3.5696244 -0.69723099 4.6097815e-40
6.5639892 -3.6062055 -0.68499309 5.5317378e-40
6.5407276 -3.6103625 -0.67919928 8.2976067e-40
6.5254016 -3.5851636 -0.69255257 5.5317378e-40
6.5044465 -3.5897105 -0.691383 6.4536941e-40
6.490644 -3.5617826 -0.69798583 5.5317378e-40
6.4736552 -3.4991169 -0.69957936 5.5317378e-40
6.4655032 -3.4700785 -0.71235669 5.5317378e-40
6.4571638 -3.4401033 -0.72546226 3.6878252e-40
6.4468794 -3.4719188 -0.70020312 5.5317378e-40
6.4364147 -3.4428096 -0.71523523 4.6097815e-40
6.4301705 -3.4134035 -0.7389015 3.6878252e-40
6.4065666 -3.4501224 -0.71779197 2.7658689e-40
6.3804069 -3.4222968 -0.72650659 1.8439126e-40
6.3582816 -3.3922441 -0.73389846 1.8439126e-40
6.3373294 -3.4321196 -0.72650671 1.8439126e-40
6.3059616 -3.4045293 -0.7356872 2.7658689e-40
6.6309428 -3.555074 -0.66214323 5.5317378e-40
6.6186342 -3.5880075 -0.65602356 5.5317378e-40
6.619329 -3.5577226 -0.66214323 8.2976067e-40
6.5915117 -3.5941925 -0.65602356 3.6878252e-40
6.5627456 -3.6007521 -0.65602356 4.6097815e-40
6.5350308 -3.6066129 -0.65370601 5.5317378e-40
6.519011 -3.5821431 -0.66994047 4.6097815e-40
6.5162225 -3.6090662 -0.64443576 4.6097815e-40
6.4973841 -3.5855305 -0.66214323 4.6097815e-40
6.4773984 -3.5577881 -0.66256297 4.6097815e-40
6.4584255 -3.4668789 -0.68804961 4.6097815e-40
6.4604096 -3.4961774 -0.66948384 2.2126951e-39
6.441987 -3.469023 -0.67994726 5.5317378e-40
6.4314747 -3.4398856 -0.69478118 5.5317378e-40
6.4219604 -3.4739909 -0.68197286 3.6878252e-40
6.4007454 -3.4456778 -0.68864495 1.8439126e-40
6.3827295 -3.4510014 -0.69478118 2.7658689e-40
6.364254 -3.4195981 -0.69427985 2.7658689e-40
6.335999 -3.4262867 -0.69551933 1.8439126e-40
6.3133459 -3.4310436 -0.69345343 1.8439126e-40
6.3012576 -3.4002888 -0.70885628 3.6878252e-40
6.6299386 -3.5506706 -0.63875139 6.4536941e-40
6.6166835 -3.5824859 -0.62589526 4.6097815e-40
6.5902681 -3.5887389 -0.62705404 3.6878252e-40
6.561502 -3.5952988 -0.62705398 3.6878252e-40
6.5327358 -3.6018584 -0.62705404 6.4536941e-40
6.5138006 -3.5771544 -0.63875139 3.6878252e-40
6.5152278 -3.6047037 -0.62126011 4.6097815e-40
6.496129 -3.5800261 -0.6329034 6.4536941e-40
6.4763851 -3.5533426 -0.63894773 3.6878252e-40
6.4618912 -3.5232751 -0.63922566 3.6878252e-40
6.4517512 -3.4949729 -0.65343291 4.6097815e-40
6.4329848 -3.4666634 -0.65766579 1.1063476e-39
6.420917 -3.4694152 -0.65766579 3.6878252e-40
6.3996921 -3.4410574 -0.66410011 1.8439126e-40
6.3750558 -3.4454601 -0.65796387 1.8439126e-40
6.3659706 -3.4157703 -0.67692685 2.7658689e-40
6.3488278 -3.4522512 -0.66205472 1.8439126e-40
6.3287811 -3.4230232 -0.67072946 2.7658689e-40
6.312459 -3.4271548 -0.67279524 1.8439126e-40
6.2996454 -3.3932178 -0.67129314 1.8439126e-40
6.6408038 -3.5714779 -0.59808457 4.6097815e-40
6.6192913 -3.5766706 -0.5995329 4.6097815e-40
6.5939007 -3.6116498 -0.58867878 3.6878252e-40
6.5837688 -3.5867789 -0.60967231 3.6878252e-40
6.5726738 -3.6149747 -0.5810256 6.4536941e-40
6.5588822 -3.5904462 -0.5995329 4.6097815e-40
6.5314927 -3.5964055 -0.59808445 6.4536941e-40
6.5059428 -3.6019037 -0.59642905 5.5317378e-40
6.4893179 -3.5769472 -0.60951161 4.6097815e-40
6.4774532 -3.5784945 -0.60366362 5.5317378e-40
6.459147 -3.5498693 -0.60155696 4.6097815e-40
6.4533162 -3.5220826 -0.62332845 4.6097815e-40
6.4346933 -3.4936979 -0.62735003 4.6097815e-40
6.4366775 -3.5219414 -0.60345691 4.6097815e-40
6.419364 -3.4954057 -0.61832136 2.7658689e-40
6.4004078 -3.4685564 -0.6297127 1.8439126e-40
6.3773737 -3.4733279 -0.62728202 1.8439126e-40
6.3496299 -3.4463975 -0.63341904 1.8439126e-40
6.3274508 -3.4171903 -0.63974202 2.7658689e-40
6.311933 -3.4201152 -0.63664335 2.7658689e-40
6.2988391 -3.3896823 -0.6525116 1.8439126e-40
6.6393113 -3.5649338 -0.56332105 5.5317378e-40
6.6167917 -3.5980937 -0.54658645 6.4536941e-40
6.6201339 -3.5693076 -0.56332093 4.6097815e-40
6.5944862 -3.6054535 -0.55806619 5.5317378e-40
6.5822763 -3.5802348 -0.57490885 3.6878252e-40
6.56703 -3.6112604 -0.55577022 4.6097815e-40
6.5535107 -3.5867946 -0.57490885 4.6097815e-40
6.5447617 -3.6152771 -0.55041301 3.6878252e-40
6.5289488 -3.5905597 -0.5656386 4.6097815e-40
6.5012341 -3.596421 -0.56332093 5.5317378e-40
6.4779725 -3.6005781 -0.55752712 3.6878252e-40
6.4642076 -3.5739875 -0.56565189 7.3756504e-40
6.4543939 -3.5470562 -0.58187759 5.5317378e-40
6.4359097 -3.5185747 -0.58557254 3.6878252e-40
6.4171185 -3.4901562 -0.58922905 2.7658689e-40
6.3982816 -3.462944 -0.5989238 2.7658689e-40
6.3781681 -3.4675307 -0.5989238 1.8439126e-40
6.3663287 -3.4352987 -0.59660172 2.7658689e-40
6.3507366 -3.4057438 -0.60875475 2.7658689e-40
6.342483 -3.4431667 -0.60887414 1.8439126e-40
6.3301344 -3.4100327 -0.60668886 2.7658689e-40
6.3076587 -3.4155672 -0.60875475 1.8439126e-40
6.6619544 -3.6125984 -0.5188607 5.5317378e-40
6.65025 -3.5870543 -0.52936685 5.5317378e-40
6.6380677 -3.5594807 -0.53435147 9.219563e-40
6.6170168 -3.6239722 -0.52454835 6.4536941e-40
6.6274519 -3.5922532 -0.52936685 1.1063476e-39
6.5981097 -3.627908 -0.52265251 3.6878252e-40
6.5895367 -3.6012778 -0.5312801 4.6097815e-40
6.5647564 -3.60655 -0.52936685 5.5317378e-40
6.5457678 -3.5793815 -0.52855754 5.5317378e-40
6.5479045 -3.6115296 -0.53510672 6.4536941e-40
6.5287566 -3.5844078 -0.53435147 4.6097815e-40
6.5057435 -3.5896556 -0.53435147 4.6097815e-40
6.4863057 -3.5637372 -0.53933609 4.6097815e-40
6.463078 -3.5690339 -0.53933609 4.6097815e-40
6.4376626 -3.545805 -0.55629444 5.5317378e-40
6.4341183 -3.5107193 -0.54384232 4.6097815e-40
6.4139209 -3.4853232 -0.56113976 2.7658689e-40
6.3911057 -3.4900491 -0.55873215 1.8439126e-40
6.3718786 -3.4631488 -0.56955278 2.7658689e-40
6.3469958 -3.4348464 -0.57205689 1.8439126e-40
6.3247905 -3.4055243 -0.57776737 2.7658689e-40
6.3122163 -3.4071639 -0.57156998 2.7658689e-40
6.3088536 -3.3762407 -0.59616685 2.7658689e-40
6.6607337 -3.6072452 -0.49042264 6.4536941e-40
6.6458316 -3.5827029 -0.50230753 6.4536941e-40
6.6184978 -3.6174395 -0.49326643 5.5317378e-40
6.6264663 -3.5879312 -0.50640738 8.2976067e-40
6.5988531 -3.6224825 -0.49611026 5.5317378e-40
6.5806231 -3.5972483 -0.50066751 3.6878252e-40
6.5635247 -3.6011474 -0.50066751 4.6097815e-40
6.5418663 -3.6060863 -0.50066751 4.6097815e-40
6.5246363 -3.5796106 -0.50538188 3.6878252e-40
6.500123 -3.584914 -0.50393337 4.6097815e-40
6.4855523 -3.5604343 -0.52179217 3.6878252e-40
6.472733 -3.5908728 -0.50248492 3.6878252e-40
6.4549551 -3.5655591 -0.51243538 3.6878252e-40
6.4322863 -3.5679488 -0.49840036 3.6878252e-40
6.4321494 -3.5396576 -0.51890361 2.7658689e-40
6.4155922 -3.5114026 -0.52595794 2.7658689e-40
6.4069104 -3.4821539 -0.53706336 3.6878252e-40
6.3906279 -3.4842775 -0.52903795 1.8439126e-40
6.3715367 -3.4570091 -0.53815615 2.7658689e-40
6.3420753 -3.430136 -0.54260308 1.8439126e-40
6.323194 -3.398524 -0.5405826 1.8439126e-40
6.3114185 -3.4036641 -0.55297756 2.7658689e-40
6.6928644 -3.534364 -0.47061843 3.6878252e-40
6.6756048 -3.5382998 -0.47061843 4.6097815e-40
6.6486297 -3.631695 -0.45224994 4.6097815e-40
6.6543531 -3.6053212 -0.47335976 5.5317378e-40
6.6589389 -3.5725694 -0.46622831 4.6097815e-40
6.6318369 -3.6355245 -0.45224994 1.1985432e-39
6.6261148 -3.6117601 -0.47335982 4.6097815e-40
6.6039529 -3.6423614 -0.45466587 4.6097815e-40
6.5922289 -3.6194878 -0.47335976 3.6878252e-40
6.5693941 -3.6235688 -0.46767217 4.6097815e-40
6.5468035 -3.62872 -0.46767217 3.6878252e-40
6.5337949 -3.6022434 -0.47196817 5.5317378e-40
6.5205164 -3.5748134 -0.47641233 4.6097815e-40
6.4998541 -3.5797541 -0.4775711 3.6878252e-40
6.4879518 -3.6115608 -0.46622831 3.6878252e-40
6.4687371 -3.5866208 -0.47641233 3.6878252e-40
6.4489541 -3.5606737 -0.48085648 3.6878252e-40
6.4402199 -3.5942712 -0.48220623 2.7658689e-40
6.4295139 -3.5647209 -0.47890717 3.6878252e-40
6.4114256 -3.5389276 -0.49135253 1.8439126e-40
6.3962979 -3.508719 -0.49018919 1.8439126e-40
6.3939233 -3.4803474 -0.51298696 2.7658689e-40
6.3721571 -3.4504495 -0.50574678 1.8439126e-40
6.347012 -3.389411 -0.52199024 1.8439126e-40
6.3387952 -3.4269953 -0.52296716 1.8439126e-40
6.3226624 -3.3961909 -0.52818769 1.8439126e-40
6.3242784 -3.3578455 -0.52104062 1.8439126e-40
6.7035499 -3.5578496 -0.44326887 6.4536941e-40
6.6918693 -3.5300009 -0.44744283 3.6878252e-40
6.6746097 -3.5339372 -0.44744271 5.5317378e-40
6.6476617 -3.6274502 -0.42970124 8.2976067e-40
6.6579533 -3.5682473 -0.44326887 1.1063476e-39
6.6308689 -3.6312797 -0.42970124 5.5317378e-40
6.602881 -3.6376619 -0.42970124 5.5317378e-40
6.5681734 -3.6182156 -0.43923408 3.6878252e-40
6.5455828 -3.6233668 -0.43923405 4.6097815e-40
6.530663 -3.5972743 -0.44326887 4.6097815e-40
6.5192728 -3.5693598 -0.44744277 7.3756504e-40
6.4962597 -3.5746076 -0.44744271 4.6097815e-40
6.4674935 -3.5811675 -0.44744271 3.6878252e-40
6.4476986 -3.5551696 -0.4516167 3.6878252e-40
6.4302783 -3.5591421 -0.45161667 2.7658689e-40
6.4101586 -3.5333705 -0.46183348 2.7658689e-40
6.3950181 -3.5031078 -0.4603819 2.7658689e-40
6.3842316 -3.4746106 -0.47285959 1.8439126e-40
6.3650794 -3.4472499 -0.48143974 3.6878252e-40
6.3610606 -3.4121966 -0.47387746 2.7658689e-40
6.3456817 -3.3835778 -0.4910028 1.8439126e-40
6.336688 -3.4177544 -0.47387746 1.8439126e-40
6.3260956 -3.388535 -0.49348184 1.8439126e-40
6.7025642 -3.5535276 -0.42030939 1.9361082e-39
6.6906257 -3.5245478 -0.41847321 7.3756504e-40
6.6907487 -3.6098108 -0.39024106 6.4536941e-40
6.6698647 -3.529053 -0.41731441 3.6878252e-40
6.6462641 -3.5959022 -0.41648358 1.1063476e-39
6.6510215 -3.5641448 -0.41456953 8.2976067e-40
6.6301432 -3.6280963 -0.41278973 4.6097815e-40
6.6214323 -3.5986691 -0.4018583 6.4536941e-40
6.6016712 -3.6323562 -0.40151539 7.3756504e-40
6.5938172 -3.6056097 -0.40510836 5.5317378e-40
6.5667086 -3.6117916 -0.40510833 4.6097815e-40
6.5443621 -3.6180136 -0.41079599 6.4536941e-40
6.5276132 -3.5926652 -0.41648284 3.6878252e-40
6.5177803 -3.5628159 -0.41267928 2.7658689e-40
6.4950161 -3.5691543 -0.41847315 4.6097815e-40
6.4662499 -3.5757139 -0.41847321 3.6878252e-40
6.4464436 -3.5496652 -0.42237687 2.7658689e-40
6.4310422 -3.5535636 -0.42432618 3.6878252e-40
6.4147539 -3.5264766 -0.43231446 1.8439126e-40
6.4055781 -3.4947972 -0.4305746 1.8439126e-40
6.3879633 -3.4679987 -0.44376716 1.8439126e-40
6.3677111 -3.4402318 -0.44903034 2.7658689e-40
6.348084 -3.41151 -0.45546883 2.7658689e-40
6.3323097 -3.3817179 -0.46621299 2.7658689e-40
6.3278074 -3.3446429 -0.45843536 2.7658689e-40
6.6900225 -3.606627 -0.37332952 4.6097815e-40
6.6781969 -3.5796099 -0.37098265 3.6878252e-40
6.6715465 -3.5542355 -0.38816619 4.6097815e-40
6.6482387 -3.5871921 -0.37477446 5.5317378e-40
6.6520181 -3.5597496 -0.39352337 5.5317378e-40
6.6228514 -3.6219444 -0.37332952 6.4536941e-40
6.6332598 -3.5909834 -0.37667027 3.6878252e-40
6.600461 -3.6270502 -0.37332952 5.5317378e-40
6.5654879 -3.6064382 -0.37667027 3.6878252e-40
6.5426526 -3.6105189 -0.37098265 5.5317378e-40
6.5300989 -3.5860357 -0.38587031 3.6878252e-40
6.517283 -3.5606344 -0.40109149 4.6097815e-40
6.5013547 -3.5914543 -0.38013038 4.6097815e-40
6.4912691 -3.5659928 -0.39819452 4.6097815e-40
6.4840097 -3.5942729 -0.37439051 4.6097815e-40
6.4650064 -3.5702608 -0.38950363 4.6097815e-40
6.4451885 -3.5441611 -0.3931371 3.6878252e-40
6.4305458 -3.546921 -0.3902131 4.6097815e-40
6.4153562 -3.5201044 -0.40082747 1.8439126e-40
6.4048104 -3.4914308 -0.41269022 2.7658689e-40
6.3895307 -3.4610856 -0.41066206 1.8439126e-40
6.3697119 -3.4341595 -0.42067212 2.7658689e-40
6.3589535 -3.4029558 -0.42478776 2.7658689e-40
6.3430214 -3.3719113 -0.42902818 3.6878252e-40
6.3498807 -3.436275 -0.40851861 2.7658689e-40
6.3472939 -3.4080446 -0.43706021 2.7658689e-40
6.6888127 -3.6013215 -0.34514365 3.6878252e-40
6.6774645 -3.5763979 -0.35391977 4.6097815e-40
6.6681366 -3.5471702 -0.34856108 4.6097815e-40
6.6433344 -3.5830543 -0.34823221 6.4536941e-40
6.6540108 -3.5509593 -0.35143104 4.6097815e-40
6.6216416 -3.6166389 -0.34514365 5.5317378e-40
6.6320391 -3.5856302 -0.34823221 5.5317378e-40
6.602519 -3.6213183 -0.34675425 3.6878252e-40
6.5866137 -3.5948627 -0.34254456 3.6878252e-40
6.567564 -3.6006551 -0.34985721 3.6878252e-40
6.5511723 -3.5732739 -0.34569117 3.6878252e-40
6.5372558 -3.6076951 -0.3505072 4.6097815e-40
6.519948 -3.5809627 -0.34856108 3.6878252e-40
6.500123 -3.5860517 -0.35143104 3.6878252e-40
6.4730501 -3.5922253 -0.35143107 3.6878252e-40
6.4577608 -3.5650287 -0.35474014 2.7658689e-40
6.4407501 -3.570055 -0.36053407 2.7658689e-40
6.4207058 -3.5439537 -0.36389726 2.7658689e-40
6.4066105 -3.5178113 -0.37918016 1.8439126e-40
6.4088411 -3.545501 -0.3580493 2.7658689e-40
6.3914356 -3.487397 -0.37692145 1.8439126e-40
6.3762851 -3.4581459 -0.38056657 2.7658689e-40
6.3611665 -3.4300911 -0.39028829 2.7658689e-40
6.349359 -3.4339871 -0.39636508 2.7658689e-40
6.6929584 -3.5936778 -0.3113206 4.6097815e-40
6.6757555 -3.5689032 -0.31410646 4.6097815e-40
6.6718597 -3.5415847 -0.32464501 4.6097815e-40
6.6423383 -3.6041048 -0.30568343 9.219563e-40
6.649725 -3.5763407 -0.32169002 5.5317378e-40
6.6245708 -3.6088262 -0.30906576 4.6097815e-40
6.6310625 -3.5813477 -0.32548171 5.5317378e-40
6.5977993 -3.6153774 -0.31132063 6.4536941e-40
6.5749249 -3.6183612 -0.30004627 3.6878252e-40
6.5652566 -3.5950022 -0.31865656 4.6097815e-40
6.5504332 -3.5700324 -0.32847157 4.6097815e-40
6.5404553 -3.600883 -0.31979409 4.6097815e-40
6.5273886 -3.5741508 -0.32273173 3.6878252e-40
6.510253 -3.6073949 -0.31789827 3.6878252e-40
6.5008731 -3.5805762 -0.32464501 3.6878252e-40
6.4839787 -3.6137619 -0.31979409 5.5317378e-40
6.4666753 -3.5883744 -0.32464501 3.6878252e-40
6.4562688 -3.5584848 -0.31997669 3.6878252e-40
6.4395065 -3.5646021 -0.33156446 2.7658689e-40
6.4194508 -3.5384493 -0.33465746 2.7658689e-40
6.4069977 -3.6566551 -0.30004627 3.6878252e-40
6.4078369 -3.5410976 -0.33465746 2.7658689e-40
6.3931117 -3.5127058 -0.33785349 2.7658689e-40
6.3842363 -3.4831359 -0.34711415 3.6878252e-40
6.3752518 -3.4536138 -0.35649005 2.7658689e-40
6.3601232 -3.4255157 -0.36598128 2.7658689e-40
6.3876262 -3.68979 -0.29736128 3.6878252e-40
6.3958025 -3.6592078 -0.30004627 2.7658689e-40
6.3662219 -3.4860632 -0.3411527 4.6097815e-40
6.3477941 -3.4271235 -0.3599045 2.7658689e-40
6.3686557 -3.7228332 -0.2946763 2.7658689e-40
6.3654366 -3.6948502 -0.29736128 2.7658689e-40
6.3181911 -3.5899715 -0.31997669 2.7658689e-40
6.3028107 -3.5627315 -0.32296157 2.7658689e-40
6.2877607 -3.6276581 -0.31699187 2.7658689e-40
6.2951784 -3.5952194 -0.31997669 2.7658689e-40
6.6968813 -3.5573277 -0.27998078 9.219563e-40
6.6863928 -3.5907097 -0.2887719 4.6097815e-40
6.6700654 -3.5647943 -0.2868059 6.4536941e-40
6.6822729 -3.5346634 -0.30168554 4.6097815e-40
6.6469679 -3.5985839 -0.28313473 6.4536941e-40
6.6526766 -3.5719135 -0.30273122 4.6097815e-40
6.6245775 -3.6036897 -0.28313476 7.3756504e-40
6.5965896 -3.6100719 -0.28313473 5.5317378e-40
6.5703869 -3.615675 -0.28125566 6.4536941e-40
6.5564218 -3.5927367 -0.29704362 3.6878252e-40
6.5403719 -3.6217754 -0.27749756 3.6878252e-40
6.5338311 -3.5978882 -0.29704362 2.7658689e-40
6.509706 -3.6293263 -0.28031614 5.5317378e-40
6.5033827 -3.6050568 -0.29818115 4.6097815e-40
6.4766221 -3.6075552 -0.27998078 3.6878252e-40
6.4751072 -3.5815263 -0.29977226 2.7658689e-40
6.4555225 -3.5552127 -0.30259499 3.6878252e-40
6.442142 -3.6729329 -0.27501434 2.7658689e-40
6.456408 -3.6409223 -0.27749756 2.7658689e-40
6.4314923 -3.5918508 -0.30168554 1.8439126e-40
6.444016 -3.5578365 -0.30259499 2.7658689e-40
6.4331989 -3.7015369 -0.26145861 2.7658689e-40
6.4254994 -3.676728 -0.27501434 2.7658689e-40
6.4177089 -3.6519797 -0.2887719 1.8439126e-40
6.4208775 -3.6236458 -0.29704362 2.7658689e-40
6.3867426 -3.5118198 -0.3260459 2.7658689e-40
6.4112091 -3.7065513 -0.26145861 2.7658689e-40
6.3980017 -3.6841047 -0.28060108 2.7658689e-40
6.3691554 -3.5158303 -0.3260459 2.7658689e-40
6.3672299 -3.7165802 -0.26145861 2.7658689e-40
6.364717 -3.691695 -0.28060108 2.7658689e-40
6.3272023 -3.6427548 -0.28566837 2.7658689e-40
6.3188901 -3.6169224 -0.29862428 2.7658689e-40
6.2961402 -3.649838 -0.2856684 2.7658689e-40
6.2929678 -3.6241975 -0.30551213 2.7658689e-40
6.6824117 -3.5835798 -0.24818425 6.4536941e-40
6.6738024 -3.5603378 -0.26860556 4.6097815e-40
6.6498957 -3.5920551 -0.25353956 4.6097815e-40
6.6237707 -3.6248765 -0.24149397 7.3756504e-40
6.6236095 -3.5994451 -0.26058605 5.5317378e-40
6.5980315 -3.6862648 -0.23172316 5.5317378e-40
6.6018205 -3.6309884 -0.24708071 4.6097815e-40
6.6031656 -3.6044788 -0.26246512 5.5317378e-40
6.5834222 -3.6892338 -0.22989397 5.5317378e-40
6.5696836 -3.6660278 -0.23931345 4.6097815e-40
6.5772166 -3.6382587 -0.2554608 4.6097815e-40
6.5678754 -3.6132708 -0.26622322 3.6878252e-40
6.554203 -3.6951723 -0.22623552 6.4536941e-40
6.5476937 -3.6710422 -0.23931345 4.6097815e-40
6.538384 -3.647114 -0.2554608 4.6097815e-40
6.5454855 -3.6183765 -0.26622322 4.6097815e-40
6.5269575 -3.7013855 -0.22623552 3.6878252e-40
6.5202069 -3.6773102 -0.23931345 3.6878252e-40
6.5135403 -3.6533322 -0.25825414 3.6878252e-40
6.4951072 -3.6298647 -0.26622322 3.6878252e-40
6.4982171 -3.6823246 -0.23931345 4.6097815e-40
6.4831519 -3.6582704 -0.24819802 2.7658689e-40
6.4783144 -3.6336939 -0.26622322 3.6878252e-40
6.4599729 -3.6921422 -0.24484971 2.7658689e-40
6.4583049 -3.6670344 -0.26384088 1.8439126e-40
6.4324856 -3.6984103 -0.24484971 2.7658689e-40
6.3995013 -3.7059319 -0.24484971 2.7658689e-40
6.3917351 -3.6822147 -0.26384088 3.6878252e-40
6.3720145 -3.7121999 -0.24484974 2.7658689e-40
6.3639975 -3.68854 -0.26384088 2.7658689e-40
6.3500247 -3.7172146 -0.24484974 2.7658689e-40
6.3418074 -3.6936002 -0.26384088 2.7658689e-40
6.3266954 -3.6660364 -0.25494888 2.7658689e-40
6.3155003 -3.6685891 -0.25494888 2.7658689e-40
6.2971277 -3.645483 -0.26481381 2.7658689e-40
6.2852969 -3.6168532 -0.25959319 2.7658689e-40
6.7056289 -3.6825252 -0.19431563 4.6097815e-40
6.6949377 -3.6587329 -0.20428498 5.5317378e-40
6.6989965 -3.632885 -0.22085917 4.6097815e-40
6.6787658 -3.6101229 -0.23032053 6.4536941e-40
6.6705236 -3.6905305 -0.19431563 4.6097815e-40
6.6756039 -3.6644456 -0.21087016 5.5317378e-40
6.6565757 -3.6151831 -0.23032053 5.5317378e-40
6.646337 -3.6965845 -0.19703513 4.6097815e-40
6.6409178 -3.6732244 -0.21526027 5.5317378e-40
6.6343861 -3.6202431 -0.23032053 3.6878252e-40
6.6194329 -3.7031817 -0.19936611 4.6097815e-40
6.6027741 -3.6819229 -0.21526027 4.6097815e-40
6.6131873 -3.6539147 -0.22824089 5.5317378e-40
6.5942068 -3.7088311 -0.19884814 4.6097815e-40
6.5790043 -3.6866188 -0.21160185 4.6097815e-40
6.5627604 -3.6610286 -0.20609576 7.3756504e-40
6.5646305 -3.6906211 -0.21526027 6.4536941e-40
6.5467429 -3.6668735 -0.21716832 4.6097815e-40
6.5391192 -3.637542 -0.2079736 2.7658689e-40
6.5194144 -3.6738362 -0.22085917 3.6878252e-40
6.5096927 -3.6449902 -0.21169809 4.6097815e-40
6.4975042 -3.6791983 -0.2227046 3.6878252e-40
6.4822745 -3.6527176 -0.21914704 2.7658689e-40
6.4539723 -3.6608312 -0.22752716 1.8439126e-40
6.4427929 -3.6328635 -0.22112584 1.8439126e-40
6.4262757 -3.6965375 -0.22824089 2.7658689e-40
6.4148049 -3.6392457 -0.22112584 3.6878252e-40
6.3959208 -3.7029111 -0.22547275 2.7658689e-40
6.3953638 -3.6725364 -0.21914704 2.7658689e-40
6.3897877 -3.7283185 -0.20428498 2.7658689e-40
6.3710637 -3.7080314 -0.2227046 2.7658689e-40
6.350986 -3.7129755 -0.22455004 1.8439126e-40
6.3396492 -3.6841352 -0.21356034 2.7658689e-40
6.3162894 -3.63398 -0.22879221 1.8439126e-40
6.2936988 -3.6391315 -0.22879218 2.7658689e-40
6.2922392 -3.6122391 -0.24428692 2.7658689e-40
6.704812 -3.6789417 -0.17527916 7.3756504e-40
6.6724072 -3.6863313 -0.17527916 5.5317378e-40
6.650804 -3.6912577 -0.17527916 6.4536941e-40
6.6355577 -3.6664777 -0.17501758 4.6097815e-40
6.6240335 -3.6984394 -0.18071815 5.5317378e-40
6.6066527 -3.6737936 -0.17867602 4.6097815e-40
6.5998158 -3.6460001 -0.17287807 5.5317378e-40
6.5852489 -3.6804857 -0.18782206 4.6097815e-40
6.5783019 -3.6530991 -0.18395062 4.6097815e-40
6.564208 -3.6281331 -0.18935119 4.6097815e-40
6.5383997 -3.634387 -0.1912134 4.6097815e-40
6.5125914 -3.6406412 -0.19307566 3.6878252e-40
6.4973168 -3.6137321 -0.1873028 3.6878252e-40
6.4942594 -3.6455591 -0.19680014 4.6097815e-40
6.474194 -3.620791 -0.19632225 2.7658689e-40
6.4513154 -3.6271987 -0.20233525 1.8439126e-40
6.4390736 -3.5992224 -0.19466648 2.7658689e-40
6.4196224 -3.5748551 -0.20219457 3.6878252e-40
6.422863 -3.6062982 -0.21172933 2.7658689e-40
6.4030166 -3.5809155 -0.21367428 2.7658689e-40
6.3995156 -3.5484788 -0.20409848 2.7658689e-40
6.3889771 -3.6140254 -0.21172933 3.6878252e-40
6.7036443 -3.6738224 -0.14808416 9.219563e-40
6.6712399 -3.6812119 -0.14808416 7.3756504e-40
6.6489892 -3.6583433 -0.14940859 5.5317378e-40
6.6378226 -3.6351402 -0.16180548 5.5317378e-40
6.6234541 -3.6081324 -0.15657572 6.4536941e-40
6.5979834 -3.6141617 -0.15769306 4.6097815e-40
6.5690389 -3.6215918 -0.1618831 4.6097815e-40
6.5301237 -3.6322176 -0.17072879 3.6878252e-40
6.5391026 -3.5989938 -0.16099598 4.6097815e-40
6.5152507 -3.6352406 -0.16886653 4.6097815e-40
6.4986787 -3.6086371 -0.16314347 4.6097815e-40
6.4742002 -3.6156542 -0.17039129 1.8439126e-40
6.4547958 -3.5900056 -0.1662284 2.7658689e-40
6.4571657 -3.6184225 -0.16475411 2.7658689e-40
6.4437447 -3.593652 -0.17191601 1.8439126e-40
6.4300361 -3.5679338 -0.1792351 2.7658689e-40
6.4157801 -3.5401802 -0.18092288 2.7658689e-40
6.404274 -3.5428042 -0.18092288 2.7658689e-40
6.3901982 -3.5173259 -0.19430646 2.7658689e-40
6.3811669 -3.4873703 -0.1961621 3.6878252e-40
6.3719192 -3.4564304 -0.19807766 2.7658689e-40
6.3568382 -3.4280131 -0.20601229 2.7658689e-40
6.7238469 -3.6627531 -0.11545016 1.3829344e-39
6.7238631 -3.6347489 -0.1164827 6.4536941e-40
6.710228 -3.6653202 -0.11273065 4.6097815e-40
6.6968532 -3.641995 -0.12197036 1.0141519e-39
6.6667881 -3.6741488 -0.10729162 9.219563e-40
6.6718345 -3.6479175 -0.12306791 5.5317378e-40
6.6423678 -3.679179 -0.10457214 1.5673257e-39
6.6441002 -3.6536622 -0.12014113 4.6097815e-40
6.6363964 -3.6288874 -0.12858778 4.6097815e-40
6.6214199 -3.6036015 -0.13135563 6.4536941e-40
6.5977979 -3.6082299 -0.12752469 7.3756504e-40
6.5905399 -3.5835428 -0.14220542 3.6878252e-40
6.5704947 -3.6142662 -0.12656698 4.6097815e-40
6.562552 -3.5899253 -0.14220542 1.3829344e-39
6.535522 -3.621767 -0.12417264 3.6878252e-40
6.534564 -3.5963075 -0.14220539 3.6878252e-40
6.5095534 -3.6273203 -0.12231042 3.6878252e-40
6.4985461 -3.6036279 -0.1376957 3.6878252e-40
6.4727488 -3.6092873 -0.13656823 1.8439126e-40
6.4654403 -3.5845745 -0.15106149 1.8439126e-40
6.4557137 -3.6120555 -0.13093108 2.7658689e-40
6.442524 -3.5882988 -0.14347798 1.8439126e-40
6.4283113 -3.5603704 -0.13905606 1.8439126e-40
6.4184551 -3.5342157 -0.15388463 2.7658689e-40
6.4000549 -3.5069718 -0.15337074 4.6097815e-40
6.3857622 -3.4804766 -0.16664305 1.8439126e-40
6.3646412 -3.4208703 -0.17892632 2.7658689e-40
6.3520365 -3.3900542 -0.17760167 3.6878252e-40
6.7080097 -3.6862085 -0.078508176 4.6097815e-40
6.69732 -3.6626985 -0.084629163 5.5317378e-40
6.6906977 -3.6401386 -0.10550741 5.5317378e-40
6.6686678 -3.6948242 -0.076710761 9.219563e-40
6.6685047 -3.6692183 -0.084370166 6.4536941e-40
6.6414337 -3.6750836 -0.082816124 6.4536941e-40
6.6246014 -3.6519506 -0.089044489 5.5317378e-40
6.6244512 -3.6272264 -0.10644262 5.5317378e-40
6.6247644 -3.6767304 -0.071938165 4.6097815e-40
6.6134677 -3.653403 -0.083556831 4.6097815e-40
6.6074839 -3.6289027 -0.095370032 5.5317378e-40
6.5938158 -3.6044173 -0.10368794 8.2976067e-40
6.5678477 -3.6099703 -0.10182574 9.219563e-40
6.5345626 -3.6175606 -0.10182571 6.4536941e-40
6.506825 -3.6238856 -0.10182571 4.6097815e-40
6.4888153 -3.6022744 -0.11965667 2.7658689e-40
6.4846349 -3.6289458 -0.10182571 2.7658689e-40
6.4688606 -3.6051502 -0.11120092 2.7658689e-40
6.4547458 -3.607811 -0.10838233 2.7658689e-40
6.4366384 -3.5833333 -0.11162725 2.7658689e-40
6.4159265 -3.5586479 -0.11609656 2.7658689e-40
6.4137907 -3.5314548 -0.13457154 2.7658689e-40
6.4017868 -3.5318973 -0.12298375 6.4536941e-40
6.3844953 -3.47492 -0.137124 3.6878252e-40
6.3659501 -3.4128237 -0.13980208 2.7658689e-40
6.3630614 -3.3827269 -0.15329462 2.7658689e-40
6.3476267 -3.3532863 -0.16093057 2.7658689e-40
6.3351774 -3.3549101 -0.15479438 2.7658689e-40
6.6996756 -3.6564169 -0.055621143 3.6878252e-40
6.6679735 -3.6917791 -0.060534317 3.6878252e-40
6.6672239 -3.6636016 -0.054533362 3.6878252e-40
6.6402664 -3.6699643 -0.055621143 7.3756504e-40
6.6203856 -3.6741388 -0.053808134 3.6878252e-40
6.606081 -3.6511753 -0.063801363 3.6878252e-40
6.5898032 -3.6274526 -0.067688629 4.6097815e-40
6.5893183 -3.6017549 -0.085065559 1.1063476e-39
6.5785708 -3.6289175 -0.062152337 4.6097815e-40
6.5653214 -3.6052911 -0.075288802 5.5317378e-40
6.5333633 -3.6123021 -0.073892079 5.5317378e-40
6.5056262 -3.6186273 -0.073892139 7.3756504e-40
6.4778886 -3.6249526 -0.073892139 6.4536941e-40
6.448719 -3.6020408 -0.072304428 3.6878252e-40
6.4400826 -3.5775924 -0.086601712 3.6878252e-40
6.423367 -3.5518363 -0.090267204 2.7658689e-40
6.4118009 -3.5227296 -0.088220231 2.7658689e-40
6.4005432 -3.5264442 -0.094014145 3.6878252e-40
6.3861818 -3.4997127 -0.10073906 3.6878252e-40
6.3712497 -3.4709253 -0.10170113 3.6878252e-40
6.3685927 -3.4418418 -0.12057867 3.6878252e-40
6.3529625 -3.4110172 -0.11572562 4.6097815e-40
6.3499498 -3.380903 -0.12898757 2.7658689e-40
6.3468366 -3.3498211 -0.14252198 3.6878252e-40
6.3307838 -3.3182464 -0.1439447 2.7658689e-40
6.3500662 -3.4425251 -0.10269427 2.7658689e-40
6.3410091 -3.4137433 -0.11572562 3.6878252e-40
6.3378816 -3.3836551 -0.12898757 2.7658689e-40
6.6982474 -3.676333 -0.017397074 3.6878252e-40
6.6921206 -3.6531849 -0.030601753 3.6878252e-40
6.6661034 -3.6586871 -0.028426191 3.6878252e-40
6.6390991 -3.664845 -0.028426191 4.6097815e-40
6.6151147 -3.670007 -0.026872149 6.4536941e-40
6.5950003 -3.6478336 -0.034168076 3.6878252e-40
6.5890903 -3.6243262 -0.051079754 6.4536941e-40
6.573204 -3.6528041 -0.034168076 3.6878252e-40
6.5671005 -3.6293406 -0.051079754 9.219563e-40
6.5531454 -3.6570158 -0.032338858 7.3756504e-40
6.539257 -3.6340454 -0.042775344 9.219563e-40
6.5246878 -3.6083801 -0.044096209 7.3756504e-40
6.5221705 -3.6352007 -0.028934643 3.6878252e-40
6.5041871 -3.6123173 -0.040371757 7.3756504e-40
6.4803081 -3.6185005 -0.044096209 5.5317378e-40
6.463037 -3.5925241 -0.040736284 7.3756504e-40
6.4484329 -3.5973427 -0.048252493 3.6878252e-40
6.4300241 -3.5725648 -0.049632177 4.6097815e-40
6.4134626 -3.547843 -0.05869795 6.4536941e-40
6.4113035 -3.5205483 -0.076632403 2.7658689e-40
6.3992996 -3.5209908 -0.065044634 2.7658689e-40
6.3849263 -3.4942083 -0.071499236 2.7658689e-40
6.3702359 -3.46648 -0.078085907 1.8439126e-40
6.3552179 -3.4378085 -0.084809922 1.8439126e-40
6.3397174 -3.408078 -0.085630052 1.8439126e-40
6.6917062 -3.6463861 0.0042077298 4.6097815e-40
6.6616831 -3.6535404 0.0026537473 3.6878252e-40
6.6750879 -3.6219633 0.0042454195 6.4536941e-40
6.6376982 -3.6587019 0.004207788 3.6878252e-40
6.6106939 -3.66486 0.004207788 3.6878252e-40
6.5886092 -3.6449442 -0.012217498 4.6097815e-40
6.5888577 -3.6687622 0.0096468143 3.6878252e-40
6.5774751 -3.6463964 -0.0067298398 4.6097815e-40
6.562058 -3.6217196 -0.0067895325 3.6878252e-40
6.5434475 -3.6270597 -0.012325766 2.7658689e-40
6.5271072 -3.6019278 -0.014300343 3.6878252e-40
6.5212202 -3.631032 -0.0067895325 3.6878252e-40
6.5029879 -3.607059 -0.012438116 5.5317378e-40
6.4863453 -3.6108541 -0.012438116 3.6878252e-40
6.4676671 -3.587003 -0.018187594 4.6097815e-40
6.4508743 -3.5908325 -0.018187536 3.6878252e-40
6.437397 -3.5658152 -0.024037967 3.6878252e-40
6.4179301 -3.5411408 -0.029998643 2.7658689e-40
6.398056 -3.5155377 -0.036075003 3.6878252e-40
6.3836713 -3.4887042 -0.042259518 2.7658689e-40
6.3692222 -3.4620345 -0.054470677 2.7658689e-40
6.3652658 -3.4272532 -0.043079708 4.6097815e-40
6.3541942 -3.4333198 -0.060964052 6.4536941e-40
6.3327069 -3.4049087 -0.061553601 1.8439126e-40
6.3181648 -3.4391747 -0.049041174 3.6878252e-40
6.6851382 -3.6424985 0.0314028 5.5317378e-40
6.6635351 -3.6474247 0.0314028 4.6097815e-40
6.6746168 -3.6198974 0.015220678 3.6878252e-40
6.6365309 -3.6535826 0.0314028 7.3756504e-40
6.6095266 -3.6597407 0.03140286 4.6097815e-40
6.5869598 -3.637713 0.026195938 4.6097815e-40
6.5822892 -3.6648746 0.036841825 8.2976067e-40
6.5725861 -3.641715 0.0225375 6.4536941e-40
6.5587511 -3.618088 0.015355636 3.6878252e-40
6.5542655 -3.6451685 0.026195938 4.6097815e-40
6.5382771 -3.621295 0.0227373 5.5317378e-40
6.5259881 -3.5970199 0.011771071 3.6878252e-40
6.5017891 -3.6018007 0.015495525 3.6878252e-40
6.4830079 -3.5768065 0.015635472 2.7658689e-40
6.4856262 -3.6076992 0.0043221037 3.6878252e-40
6.4664569 -3.581697 0.0099982843 2.7658689e-40
6.447227 -3.5568151 0.010087725 2.7658689e-40
6.43642 -3.5615325 -0.0012874278 1.8439126e-40
6.4226441 -3.5355191 -0.0070391735 2.7658689e-40
6.4110713 -3.5062592 -0.0042085066 1.8439126e-40
6.3968124 -3.5100844 -0.0071054343 2.7658689e-40
6.3937788 -3.4794507 -0.0071717533 2.7658689e-40
6.3791733 -3.4515812 -0.013144044 3.6878252e-40
6.3647537 -3.425009 -0.031156771 3.6878252e-40
6.3522048 -3.3939066 -0.028448565 2.7658689e-40
6.3285556 -3.4004915 -0.034467619 2.7658689e-40
6.3337078 -3.3653524 -0.031759411 2.7658689e-40
6.6619554 -3.6653879 0.079661824 4.6097815e-40
6.6623673 -3.6423054 0.058597811 4.6097815e-40
6.6353636 -3.6484632 0.058597811 4.6097815e-40
6.6083593 -3.6546214 0.058597811 3.6878252e-40
6.5823421 -3.6601233 0.060773432 4.6097815e-40
6.5694351 -3.6362758 0.053634174 2.7658689e-40
6.5563211 -3.6125028 0.04635885 5.5317378e-40
6.5358109 -3.6189339 0.037500747 3.6878252e-40
6.5254335 -3.5903237 0.046222564 6.4536941e-40
6.5005898 -3.5965424 0.043429166 3.6878252e-40
6.4820399 -3.572562 0.038184103 5.5317378e-40
6.4652472 -3.5763912 0.038184103 2.7658689e-40
6.4462504 -3.5525327 0.032838263 2.7658689e-40
6.4325647 -3.5264366 0.02739997 1.8439126e-40
6.4128284 -3.500695 0.021864077 2.7658689e-40
6.3927751 -3.4750473 0.016220089 3.6878252e-40
6.3748016 -3.4144535 0.010573443 2.7658689e-40
6.3600073 -3.3867633 -0.0013625242 3.6878252e-40
6.3444719 -3.3568809 -0.0013756148 2.7658689e-40
6.327733 -3.3614202 -0.0050216471 1.8439126e-40
6.6614923 -3.663358 0.090446122 9.219563e-40
6.6501651 -3.6386254 0.091231845 4.6097815e-40
6.6339626 -3.6423202 0.091231734 4.6097815e-40
6.608367 -3.6484261 0.089872047 6.4536941e-40
6.5820661 -3.6555908 0.083979815 8.2976067e-40
6.5680213 -3.6300778 0.086560011 3.6878252e-40
6.5560184 -3.6061032 0.079022966 4.6097815e-40
6.5309863 -3.5848167 0.067638353 3.6878252e-40
6.5175824 -3.5562704 0.079523437 3.6878252e-40
6.5054178 -3.5921223 0.060189441 1.1985432e-39
6.4903231 -3.5636957 0.073416479 3.6878252e-40
6.4667149 -3.5699167 0.069188602 3.6878252e-40
6.4558368 -3.5424621 0.072651587 3.6878252e-40
6.4424858 -3.5173545 0.061839174 3.6878252e-40
6.4315791 -3.5221145 0.050359439 3.6878252e-40
6.4211736 -3.4930549 0.050833527 2.7658689e-40
6.4033842 -3.4679956 0.039611932 2.7658689e-40
6.3944793 -3.4375684 0.039990291 3.6878252e-40
6.3821058 -3.3733802 0.040771268 2.7658689e-40
6.3666844 -3.3792806 0.028732983 3.6878252e-40
6.3473644 -3.3510067 0.02495699 2.7658689e-40
6.3274245 -3.3563561 0.020905798 2.7658689e-40
6.649231 -3.6345301 0.11298783 4.6097815e-40
6.6330285 -3.6382248 0.11298783 5.5317378e-40
6.6114254 -3.6431513 0.11298783 3.6878252e-40
6.5888758 -3.6209753 0.10851059 3.6878252e-40
6.5712032 -3.5966103 0.10947248 6.4536941e-40
6.5522213 -3.5721562 0.10711791 5.5317378e-40
6.537024 -3.5771704 0.099296562 3.6878252e-40
6.5185614 -3.551954 0.10019311 3.6878252e-40
6.4905734 -3.5583363 0.10019305 3.6878252e-40
6.468183 -3.5634422 0.10019305 3.6878252e-40
6.4519143 -3.5382881 0.098245859 4.6097815e-40
6.4410071 -3.5108714 0.096278436 2.7658689e-40
6.438859 -3.4821382 0.085597187 1.8439126e-40
6.4246039 -3.4538922 0.086395614 3.6878252e-40
6.4278498 -3.4869432 0.074009359 2.7658689e-40
6.4134922 -3.4587424 0.074699812 2.7658689e-40
6.3959212 -3.3978322 0.07018806 2.7658689e-40
6.381331 -3.3699811 0.058828611 2.7658689e-40
6.3659997 -3.3399379 0.059392039 2.7658689e-40
6.3541923 -3.3438337 0.053315278 2.7658689e-40
6.3389344 -3.3151679 0.041564498 3.6878252e-40
6.5814853 -3.5909765 0.1260813 8.2976067e-40
6.5691099 -3.5643218 0.12723014 4.6097815e-40
6.5489097 -3.5387075 0.13213703 4.6097815e-40
6.5229487 -3.5453715 0.12837893 3.6878252e-40
6.5008006 -3.5515385 0.1227418 2.7658689e-40
6.4818778 -3.526387 0.12384018 3.6878252e-40
6.4598322 -3.5612531 0.12086271 2.7658689e-40
6.4646907 -3.5291798 0.12952776 3.6878252e-40
6.4241018 -3.4516907 0.098091535 2.7658689e-40
6.4369578 -3.5642366 0.13213703 2.7658689e-40
6.4254012 -3.5392656 0.12384018 1.8439126e-40
6.4172235 -3.5117481 0.11923785 2.7658689e-40
6.41185 -3.4831338 0.11166971 1.8439126e-40
6.412488 -3.454339 0.098091535 1.8439126e-40
6.398314 -3.427341 0.087220751 2.7658689e-40
6.3946414 -3.392221 0.099995337 2.7658689e-40
6.3709903 -3.3339863 0.083699077 3.6878252e-40
6.3738513 -3.4282429 0.11083598 2.7658689e-40
6.3490133 -3.303148 0.090654194 3.6878252e-40
6.5195484 -3.5407887 0.15543739 6.4536941e-40
6.4881535 -3.5477247 0.1565648 2.7658689e-40
6.486793 -3.5218871 0.14090291 7.3756504e-40
6.4582191 -3.5541787 0.15844388 2.7658689e-40
6.4602747 -3.5271833 0.14469473 2.7658689e-40
6.4287438 -3.5885863 0.16633733 2.7658689e-40
6.4350972 -3.5603817 0.15374617 3.6878252e-40
6.4023495 -3.4812841 0.13194844 1.8439126e-40
6.3641739 -3.3319306 0.10192935 1.8439126e-40
6.4118614 -3.5913296 0.171924 1.8439126e-40
6.4097872 -3.5655951 0.1565648 1.8439126e-40
