# .PCD v0.7 - Point Cloud Data file format
VERSION 0.7
FIELDS x y z rgb
SIZE 4 4 4 4
TYPE F F F F
COUNT 1 1 1 1
WIDTH 1012
HEIGHT 1
VIEWPOINT 0 0 0 1 0 0 0
POINTS 1012
DATA ascii
2.4427915 -0.79349238 -1.0331562 8.385122e-39
2.4601054 -0.80439067 -1.0457042 1.1155605e-38
2.3916652 -0.76153433 -0.99632436 7.7401197e-39
2.4164896 -0.76310873 -1.0230762 7.3709911e-39
2.3908141 -0.73952907 -0.99935675 7.5543019e-39
2.4223092 -0.73545295 -1.0193868 6.7263377e-39
2.4434865 -0.72499293 -1.0303644 7.001826e-39
2.4465268 -0.71148306 -1.0191972 7.6468339e-39
2.4630029 -0.71041721 -1.0347646 7.2776702e-39
2.5039451 -0.70577985 -1.0404649 7.9212726e-39
2.5228333 -0.70051259 -1.0509865 9.0247278e-39
2.543303 -0.69449639 -1.0595154 1.1510746e-38
2.4171867 -1.0806869 -0.976197 2.0214978e-39
2.3969381 -1.0586119 -0.97813004 7.4646034e-39
2.41466 -1.0603304 -0.9853614 8.1063897e-39
2.3985698 -1.0318885 -0.97206527 8.0167122e-39
2.4137943 -1.0300188 -0.98841619 7.6493758e-39
2.4273241 -1.0087677 -0.9894098 6.8181466e-39
2.4512699 -1.0009097 -1.0029117 8.0163339e-39
2.4773676 -0.99446011 -0.99843901 7.2780612e-39
2.4493418 -0.9816162 -1.0098912 7.0029218e-39
2.4886661 -0.98062217 -1.0050927 7.6468367e-39
2.3983498 -0.81182742 -0.97206527 1.0329852e-38
2.3962529 -0.7882514 -0.97964627 8.2032685e-39
2.4118986 -0.80516553 -0.99452579 9.4007172e-39
2.3845186 -0.7600112 -0.97923613 7.3738385e-39
2.3947124 -0.73725599 -0.976089 7.6468479e-39
2.4175496 -0.72456747 -0.98873079 7.2769864e-39
2.4329681 -0.71563983 -0.99297333 6.9085444e-39
2.4522505 -0.70906544 -0.99825871 7.0007624e-39
2.4797738 -0.69953799 -1.0037264 8.0148849e-39
2.5084946 -0.69837165 -1.0238016 8.2021741e-39
2.4237103 -1.0882812 -0.95236951 3.588794e-39
2.4040482 -1.0606257 -0.95213819 7.3706085e-39
2.4043777 -1.0350263 -0.95083857 7.7415673e-39
2.4208889 -1.0236777 -0.96245039 7.2791388e-39
2.406842 -1.0114459 -0.94174141 6.3593293e-39
2.4291008 -1.0029851 -0.96267509 6.1742219e-39
2.4608037 -0.99125254 -0.96801418 6.0780746e-39
2.4808042 -0.98907089 -0.97068995 6.3546601e-39
2.4246101 -0.98567027 -0.94870377 6.2614009e-39
2.499527 -0.98184681 -0.97801864 6.7241615e-39
2.406677 -0.84640008 -0.94174141 9.3074412e-39
2.4219663 -0.84790957 -0.95786816 9.2181196e-39
2.3990662 -0.82237959 -0.94547421 8.3880115e-39
2.4194458 -0.83366072 -0.96703261 9.7648306e-39
2.3685753 -0.78278315 -0.9367795 7.7393938e-39
2.3847184 -0.79646003 -0.9498291 7.8316021e-39
2.3685567 -0.76419967 -0.9367795 8.0170765e-39
2.3838615 -0.76291555 -0.95283902 7.6493674e-39
2.3941276 -0.73605466 -0.94844264 7.7412029e-39
2.4193318 -0.71964967 -0.96703261 7.2759158e-39
2.4053011 -0.71436465 -0.94629002 7.9237837e-39
2.4318106 -0.71049511 -0.9592768 7.6461164e-39
2.4603364 -0.70595634 -0.96867889 7.6464695e-39
2.4787998 -0.69419944 -0.97694111 8.3829598e-39
2.4042575 -1.0846059 -0.92264891 4.2363481e-39
2.4272113 -1.0806769 -0.93953937 7.835181e-39
2.4084554 -1.0625974 -0.9200232 7.8334056e-39
2.4098592 -1.0341686 -0.9227885 7.463523e-39
2.4118156 -1.0094199 -0.92354709 6.9092772e-39
2.4296358 -0.99896652 -0.93037492 6.2657099e-39
2.4358764 -0.98342842 -0.93277061 6.0798627e-39
2.4697011 -0.98159581 -0.93544316 6.1716996e-39
2.5010061 -0.97938657 -0.94732732 6.0809543e-39
2.4116526 -0.84639513 -0.92354709 8.8468302e-39
2.405688 -0.82551676 -0.92127109 8.5709748e-39
2.3751955 -0.78556412 -0.91258031 7.9266928e-39
2.3913093 -0.80269444 -0.9257493 8.019973e-39
2.3751717 -0.76140553 -0.91258031 8.1107015e-39
2.3912623 -0.75588709 -0.9257493 8.6617075e-39
2.3996522 -0.73427045 -0.91900092 8.2011021e-39
2.4115181 -0.71200067 -0.92354709 7.4631699e-39
2.4346671 -0.70674086 -0.92986286 7.5550054e-39
2.4719758 -0.71145761 -0.92613715 5.9923404e-39
2.386039 -1.0893935 -0.87404096 1.4014867e-38
2.4014678 -1.0835284 -0.88962966 1.0415287e-38
2.3851926 -1.0599703 -0.87702852 7.833051e-39
2.3998089 -1.071048 -0.89564961 8.3840584e-39
2.3841565 -1.0452595 -0.88076293 7.6490073e-39
2.4076972 -1.0335274 -0.89286005 7.0029148e-39
2.4201088 -1.0098609 -0.89322329 6.3593335e-39
2.4363215 -1.0014935 -0.90593648 6.3568265e-39
2.4427884 -0.97921038 -0.90116221 6.0798543e-39
2.4773264 -0.97194052 -0.90752518 6.2638868e-39
2.4953189 -0.97285461 -0.91755474 6.0830899e-39
2.4104896 -0.8514936 -0.89180547 5.1561324e-39
2.3845441 -0.81993413 -0.87852228 8.018164e-39
2.398741 -0.82609069 -0.89865959 8.0195905e-39
2.3671627 -0.79719186 -0.87376004 8.479861e-39
2.3832896 -0.7913965 -0.88300359 8.5713279e-39
2.3651099 -0.77259213 -0.88117582 8.5702545e-39
2.3832579 -0.75953913 -0.88300353 8.2025356e-39
2.3840535 -0.73785752 -0.88001609 8.0177744e-39
2.4008389 -0.7288332 -0.89063305 7.7408372e-39
2.478348 -0.72109902 -0.9028722 6.8185193e-39
2.4189839 -0.714351 -0.89625567 7.1876522e-39
2.4450285 -0.71287549 -0.91095126 7.18512e-39
2.4959176 -0.71686488 -0.91442913 7.1732637e-39
2.3676264 -1.0868092 -0.84582812 1.1245018e-38
2.3742211 -1.062039 -0.84891719 8.5720482e-39
2.390312 -1.0731286 -0.85835636 7.8330454e-39
2.3742361 -1.0335383 -0.84875828 7.3724246e-39
2.3908775 -1.025895 -0.8561157 6.9121261e-39
2.4075804 -1.0226725 -0.86705494 6.5422674e-39
2.3933132 -1.0104063 -0.84715301 6.6348371e-39
2.4162624 -0.99764752 -0.865228 6.1724311e-39
2.4279554 -0.97841561 -0.86441559 5.8961707e-39
2.4536228 -0.97537571 -0.87100673 5.9880034e-39
2.4836934 -0.976758 -0.88426018 6.1727478e-39
2.5013037 -0.97446883 -0.89567554 6.1709807e-39
2.4206192 -0.87251824 -0.86684519 2.8519409e-39
2.4186103 -0.85301495 -0.8661164 6.8181732e-39
2.3760979 -0.80948389 -0.84113061 8.5713489e-39
2.3906701 -0.81837946 -0.8561157 8.5702615e-39
2.4073887 -0.83076274 -0.86705494 8.4777058e-39
2.3715649 -0.79285198 -0.84789795 8.5706077e-39
2.3890021 -0.78431135 -0.86209083 8.3873024e-39
2.3750801 -0.76520163 -0.8446902 8.1114218e-39
2.388773 -0.75953352 -0.86283767 8.1096253e-39
2.3748121 -0.74029237 -0.8455801 7.8337517e-39
2.3899729 -0.73398006 -0.85835636 7.4660482e-39
2.4085157 -0.7231046 -0.86254001 7.6472052e-39
2.4468999 -0.71962214 -0.86622405 7.0032679e-39
2.4264472 -0.71434355 -0.8689642 6.911438e-39
2.4668047 -0.70986134 -0.86922151 8.1996489e-39
2.483849 -0.70822984 -0.88270915 8.1020597e-39
2.3766861 -1.0923531 -0.82295543 9.2163848e-39
2.3809991 -1.0644436 -0.82414174 7.6493786e-39
2.3797243 -1.0319889 -0.82185966 7.1876732e-39
2.3982244 -1.019693 -0.82922775 6.7263321e-39
2.3827782 -1.0001415 -0.8174001 6.6330435e-39
2.3973854 -0.99801308 -0.83221525 6.1731471e-39
2.4251876 -0.98886985 -0.83856148 5.8961987e-39
2.4362447 -0.9752636 -0.83409172 5.4366583e-39
2.4651415 -0.96815985 -0.84375238 5.8025583e-39
2.5141201 -0.96959543 -0.84879154 7.4437255e-39
2.3834634 -0.87405634 -0.81443381 1.1887483e-38
2.4160743 -0.87381685 -0.83545023 8.3898205e-39
2.3984637 -0.85089272 -0.82773393 8.019959e-39
2.4135807 -0.84947944 -0.84448016 8.4769813e-39
2.3812773 -0.81755114 -0.82222039 8.3873052e-39
2.3955877 -0.83386075 -0.83819038 8.7535836e-39
2.3638968 -0.78994381 -0.81743777 8.3873052e-39
2.3638694 -0.76246488 -0.81743777 8.2025426e-39
2.3723691 -0.73761964 -0.82038534 8.0185073e-39
2.3979363 -0.73164916 -0.82922775 8.1096253e-39
2.4159238 -0.72309721 -0.83545035 7.2812982e-39
2.4368885 -0.70678818 -0.83075613 7.555004e-39
2.462625 -0.70810741 -0.84658796 8.1938826e-39
2.4897902 -0.71143985 -0.86099517 9.016435e-39
2.508729 -0.70713103 -0.86754513 1.4562228e-38
2.3910038 -1.1139169 -0.78773701 1.3107296e-38
2.384748 -1.0937397 -0.79537553 9.3993188e-39
2.3733144 -1.0610024 -0.79157299 7.3738595e-39
2.378509 -1.0311513 -0.7933194 7.0032833e-39
2.3884609 -1.0043643 -0.79663599 6.3578985e-39
2.4080052 -0.99645394 -0.79337716 6.1709807e-39
2.4261813 -0.99360955 -0.80922067 5.5292084e-39
2.4104421 -0.9825139 -0.78441453 5.895484e-39
2.4391942 -0.97297823 -0.80365425 5.0689492e-39
2.4596777 -0.96663338 -0.82040197 5.3444529e-39
2.4653378 -0.95359963 -0.81229377 5.0628381e-39
2.5002112 -0.95262218 -0.82377112 8.8471231e-39
2.390764 -0.87404907 -0.78773701 1.1429039e-38
2.4042032 -0.87101912 -0.80682111 9.4025473e-39
2.4210076 -0.868195 -0.81739044 7.7415645e-39
2.3907547 -0.8648234 -0.78773701 9.034848e-39
2.4059041 -0.85615069 -0.80054724 7.9259725e-39
2.3882797 -0.8233102 -0.79663593 8.2032713e-39
2.3711452 -0.78993654 -0.79093212 8.2032741e-39
2.3711178 -0.76245767 -0.79093212 7.9270249e-39
2.3881977 -0.74120152 -0.79663599 8.2943655e-39
2.4062717 -0.73349911 -0.79875475 8.5691643e-39
2.4237454 -0.72464973 -0.80685562 7.7401197e-39
2.4089472 -0.71305466 -0.78889585 8.2025174e-39
2.4243038 -0.70717436 -0.80474859 7.4631475e-39
2.3958712 -1.113912 -0.76993918 1.3283048e-38
2.3879902 -1.0949444 -0.76229542 9.1266723e-39
2.3645036 -1.0547634 -0.74794942 7.8341174e-39
2.3807173 -1.0629508 -0.76830095 7.6500849e-39
2.3656847 -1.0365751 -0.74356365 7.6500919e-39
2.3801074 -1.0315592 -0.76586771 7.4649818e-39
2.3662641 -1.0161139 -0.7413708 7.5564529e-39
2.3841007 -1.0046852 -0.76140302 6.6352057e-39
2.3929894 -0.98135209 -0.75724638 5.713241e-39
2.4141142 -0.97786438 -0.77097052 5.8025653e-39
2.4422655 -0.96723771 -0.77603322 5.0667898e-39
2.4515564 -0.94538271 -0.77799261 5.1521401e-39
2.396848 -0.87404299 -0.7654897 9.0351787e-39
2.4177022 -0.88958913 -0.75752658 9.5901434e-39
2.3968296 -0.85559165 -0.7654897 7.5575487e-39
2.3853507 -0.82397366 -0.76185709 8.1107113e-39
2.3629487 -0.7848804 -0.75264841 8.3887401e-39
2.3788869 -0.80000442 -0.76265943 8.5713321e-39
2.3645737 -0.76513273 -0.74663365 8.0184947e-39
2.3785822 -0.75870305 -0.76362324 7.833023e-39
2.3911226 -0.73695499 -0.763179 7.8319412e-39
2.4150877 -0.72605693 -0.76648921 8.2014328e-39
2.4319701 -0.71840042 -0.77675587 8.202523e-39
2.4307261 -0.70904016 -0.78127086 9.5707158e-39
2.3564379 -1.2344139 -0.70986217 3.3227197e-39
2.399539 -1.2339964 -0.72284752 1.003601e-38
2.4253991 -1.2333761 -0.73063862 7.3562662e-39
2.3377731 -1.2169207 -0.71360427 1.9343846e-39
2.3638496 -1.2253238 -0.71684492 4.2374453e-39
2.4007835 -1.221665 -0.72962451 2.3045684e-39
2.3883836 -1.1150864 -0.72908562 1.4845324e-38
2.3727274 -1.0827938 -0.71798009 7.8344972e-39
2.387563 -1.0998212 -0.73203069 8.9412217e-39
2.3596182 -1.060961 -0.72034377 7.6504604e-39
2.3581612 -1.0331588 -0.71988446 7.5575305e-39
2.3718548 -1.0100459 -0.72090393 7.0947531e-39
2.3874652 -1.0021186 -0.73203069 6.450097e-39
2.4011643 -0.97835064 -0.73302895 5.8029227e-39
2.4202278 -0.96392059 -0.74856389 5.2515271e-39
2.4073844 -0.94599277 -0.72722429 5.0671569e-39
2.4220498 -0.94765818 -0.74184191 4.5143503e-39
2.4471138 -0.942119 -0.75101012 6.3499644e-39
2.4226136 -0.89887589 -0.73960125 8.017787e-39
2.442049 -0.91966212 -0.74063629 1.0879437e-38
2.4059763 -0.87634021 -0.73211873 6.8210571e-39
2.4213789 -0.88958549 -0.74408257 6.8203522e-39
2.3976858 -0.85287517 -0.7320208 7.2816793e-39
2.3880906 -0.82197839 -0.72908562 7.925604e-39
2.3708296 -0.78422302 -0.72382778 9.0319431e-39
2.3880723 -0.80365908 -0.72908562 8.3880185e-39
2.3708069 -0.76148909 -0.72382778 8.7560681e-39
2.3880172 -0.74870121 -0.72908562 8.3880031e-39
2.4013038 -0.74011838 -0.7350589 8.4787483e-39
2.4239151 -0.72976476 -0.73422366 7.6468283e-39
2.4381576 -0.73243648 -0.75418115 7.83193e-39
2.3636091 -1.2614893 -0.68373883 2.5876307e-39
2.3448913 -1.2408204 -0.68766141 4.4222093e-39
2.366962 -1.2434382 -0.69415671 8.7442131e-39
2.4078209 -1.246201 -0.70398021 1.1414619e-38
2.4294903 -1.2395666 -0.71570086 1.012066e-38
2.4460759 -1.2426289 -0.72709143 1.077608e-38
2.4088659 -1.2155505 -0.70004636 7.4560107e-39
2.3685164 -1.1120787 -0.69936562 1.392301e-38
2.3751907 -1.0931873 -0.69660366 8.4802211e-39
2.3634932 -1.0614179 -0.69317949 7.373512e-39
2.3452682 -1.0264037 -0.68549949 7.0039854e-39
2.3606989 -1.0301617 -0.69353503 7.0043609e-39
2.3724837 -1.0045555 -0.69583857 6.5412248e-39
2.3955131 -0.99600405 -0.70257998 6.0805928e-39
2.3999805 -0.97625917 -0.70478243 5.6195992e-39
2.3805928 -0.95244461 -0.68874174 4.9760249e-39
2.4021206 -0.94191593 -0.70551562 5.5266931e-39
2.4038701 -0.91374445 -0.70096487 4.8827656e-39
2.4275296 -0.9128086 -0.72167599 6.9089171e-39
2.380511 -0.87060243 -0.68874174 8.477319e-39
2.4000134 -0.87964624 -0.70275819 6.9107248e-39
2.3953664 -0.84944987 -0.70257998 8.2007489e-39
2.395339 -0.82197118 -0.70257998 9.0308571e-39
2.3786278 -0.78648865 -0.69532037 9.5840267e-39
2.3948302 -0.79632461 -0.70434701 9.4918353e-39
2.3768058 -0.76375645 -0.70189899 9.308516e-39
2.3958802 -0.7589981 -0.70037115 9.032641e-39
2.4095604 -0.74011016 -0.70486623 8.5705754e-39
2.4288192 -0.73161829 -0.7162984 8.4758575e-39
2.4228251 -1.2983989 -0.67205089 1.8805061e-38
2.3770466 -1.268373 -0.66874504 1.0881664e-38
2.3729885 -1.2468158 -0.66644567 1.2893022e-38
2.4084849 -1.2450496 -0.68335116 8.7412914e-39
2.3843606 -1.2146574 -0.66454911 1.2159035e-38
2.4049952 -1.2138927 -0.68235052 1.0864697e-38
2.400547 -1.1975111 -0.68490952 6.8189089e-39
2.3542194 -1.1093225 -0.65307099 1.1802006e-38
2.3867531 -1.1161228 -0.66681302 1.153668e-38
2.3541925 -1.082427 -0.65307099 6.2721727e-39
2.3789606 -1.0983105 -0.67249739 7.5561054e-39
2.337786 -1.0570894 -0.64852649 5.7139879e-39
2.3518097 -1.0644993 -0.66171861 6.9121765e-39
2.3657918 -1.0628815 -0.67503101 7.2816723e-39
2.3377502 -1.0214784 -0.64852649 4.7001807e-39
2.3521168 -1.0337611 -0.66048324 5.8969358e-39
2.3657618 -1.0327898 -0.67503101 6.9117912e-39
2.3377326 -1.0036728 -0.64852649 4.5154321e-39
2.3517468 -1.0017433 -0.66171861 5.251195e-39
2.3736007 -0.99535215 -0.67352355 5.0678632e-39
2.354085 -0.97484547 -0.65307099 3.8711347e-39
2.3769538 -0.97017616 -0.67286849 5.0671485e-39
2.3540668 -0.9569152 -0.65307099 4.3313995e-39
2.3804171 -0.94308907 -0.66887802 5.2519069e-39
2.3853495 -0.91151857 -0.67119884 6.0809501e-39
2.3853176 -0.87969106 -0.67119879 7.1883711e-39
2.3855913 -0.8535468 -0.67010236 7.740826e-39
2.4001944 -0.84486532 -0.68490952 8.2010852e-39
2.3857462 -0.8287667 -0.66944444 8.386201e-39
2.4025829 -0.81738406 -0.67607433 8.7557066e-39
2.385222 -0.7842086 -0.67119879 9.0319277e-39
2.4025693 -0.8036446 -0.67607433 8.9408013e-39
2.4054184 -0.76332605 -0.67688161 9.0308459e-39
2.4396222 -0.75019097 -0.67686272 9.3074034e-39
2.4182124 -0.74178666 -0.68688244 9.0286403e-39
2.4359314 -0.73625708 -0.69030672 8.3858212e-39
2.457927 -0.74645889 -0.68194193 9.2145113e-39
2.4252586 -1.2983965 -0.66315198 1.7788762e-38
2.4450815 -1.3076904 -0.65893745 1.7696909e-38
2.3915424 -1.2638502 -0.63278067 1.4364167e-38
2.409086 -1.2799392 -0.65398628 1.5954911e-38
2.3876917 -1.24277 -0.63947481 1.3442223e-38
2.4146903 -1.234074 -0.64697146 1.1783391e-38
2.4166598 -1.2184498 -0.6465373 1.1972108e-38
2.3822265 -1.1207708 -0.63789123 4.6990975e-39
2.3448579 -1.0837907 -0.62276423 5.2540887e-39
2.3605139 -1.0973626 -0.63001066 4.8838559e-39
2.3119631 -1.0510454 -0.6140362 5.3430291e-39
2.329824 -1.067096 -0.6261189 4.7894924e-39
2.2998526 -1.0292659 -0.61412799 4.3306919e-39
2.3237109 -1.0319986 -0.63545465 3.7749818e-39
2.3019166 -1.0001678 -0.61592674 3.4105124e-39
2.3254201 -0.99221534 -0.6290592 3.5913038e-39
2.3090463 -0.97861278 -0.6042189 3.3197461e-39
2.3353534 -0.96908438 -0.62487596 3.593103e-39
2.3564408 -0.96587795 -0.64442337 3.9622541e-39
2.3447242 -0.95024931 -0.62276423 3.4105054e-39
2.35969 -0.94035852 -0.63244981 3.7774985e-39
2.3611166 -0.91208249 -0.62712812 3.9611737e-39
2.3760726 -0.9089886 -0.64824772 5.7118117e-39
2.3622811 -0.89415097 -0.62280434 3.8693424e-39
2.3835199 -0.87944198 -0.63682765 5.1604315e-39
2.3922369 -0.85188603 -0.64010823 6.725965e-39
2.392946 -0.83239692 -0.64312994 7.7397512e-39
2.4113727 -0.82112235 -0.64394623 8.293648e-39
2.3936176 -0.78420031 -0.64049852 8.7549751e-39
2.4110258 -0.80363613 -0.64515102 8.6616822e-39
2.397202 -0.77055627 -0.62734127 8.8464322e-39
2.4138243 -0.76715887 -0.64719021 8.7549737e-39
2.4433079 -0.75947899 -0.66341877 9.2155665e-39
2.4686952 -0.75720406 -0.66061169 9.2155847e-39
2.6190872 -0.73026222 -0.69912362 1.3635235e-38
2.6183646 -0.70771271 -0.70168257 1.1040074e-38
2.6374927 -0.70142275 -0.71511614 1.4457056e-38
2.6212225 -0.67885888 -0.6911267 1.6684124e-38
2.3685372 -1.2378086 -0.60118532 1.3443616e-38
2.3937452 -1.2388766 -0.60757548 1.3811342e-38
2.425735 -1.2340215 -0.61568308 1.3809533e-38
2.4048529 -1.2252277 -0.60102677 1.3995005e-38
2.4230514 -1.2225839 -0.6197688 1.3074852e-38
2.3678219 -1.1137915 -0.60334724 4.6998093e-39
2.354269 -1.1015867 -0.58841449 5.344834e-39
2.3683996 -1.1003431 -0.60118532 5.619993e-39
2.3085649 -1.0521643 -0.58602887 4.7934595e-39
2.3348296 -1.0739793 -0.5949502 5.4377569e-39
2.304997 -1.0303686 -0.58429086 3.9655051e-39
2.3063765 -0.99844438 -0.58464372 3.4094545e-39
2.3169522 -0.97610664 -0.58685488 3.2253911e-39
2.3402786 -0.96448737 -0.5961079 3.1346388e-39
2.3517616 -0.94245243 -0.59700197 3.1339241e-39
2.369416 -0.93448699 -0.59686154 3.226103e-39
2.3505685 -0.92353523 -0.60129559 3.0428061e-39
2.3682113 -0.9120754 -0.60118532 3.4108628e-39
2.3681912 -0.89190382 -0.60118532 3.0431662e-39
2.3896518 -0.87970227 -0.60758102 3.4087174e-39
2.3965285 -0.85333133 -0.60736132 3.4087202e-39
2.4195189 -0.84026623 -0.61422777 3.7767908e-39
2.3846166 -0.83717442 -0.60536873 3.7775041e-39
2.4195008 -0.82194698 -0.61422777 4.1455579e-39
2.4020131 -0.78419185 -0.60979825 5.6203237e-39
2.4194825 -0.80362767 -0.61422777 4.8838334e-39
2.3996007 -0.77055389 -0.61856979 8.5719977e-39
2.4262922 -0.76789337 -0.61478448 5.7118088e-39
2.4543374 -0.75946796 -0.62308687 7.0007344e-39
2.4715178 -0.75580686 -0.63227743 7.6500569e-39
2.5884123 -0.73199815 -0.65207666 1.429788e-38
2.6074746 -0.72788733 -0.66196829 1.1313478e-38
2.6273975 -0.73025393 -0.66873544 1.1785213e-38
2.6438601 -0.71946925 -0.69189823 1.0570483e-38
2.6285596 -0.70514429 -0.66439432 1.0859983e-38
2.6457283 -0.69797587 -0.68498814 1.2327221e-38
2.6277831 -0.67885232 -0.66713601 1.4916971e-38
2.3402379 -1.2353108 -0.57576382 6.5250496e-39
2.3980005 -1.241886 -0.58065283 1.1323128e-38
2.4096503 -1.2252229 -0.58348376 1.2795385e-38
2.3589838 -1.1193875 -0.57123959 3.3075338e-39
2.3763978 -1.1171448 -0.57199961 4.787347e-39
2.3944309 -1.1260455 -0.57053757 7.1023075e-39
2.3601267 -1.0882267 -0.56694597 5.4359534e-39
2.3731291 -1.1003383 -0.58389008 5.5299666e-39
2.3275149 -1.0560459 -0.55718577 4.8845775e-39
2.3470747 -1.0761771 -0.5501821 5.6192573e-39
2.297163 -1.0192143 -0.54293793 3.7782356e-39
2.3100224 -1.0304382 -0.56040066 4.1463104e-39
2.2971499 -1.0062289 -0.54293793 3.5023577e-39
2.3120763 -0.99783552 -0.55828464 3.4087244e-39
2.3213928 -0.98051846 -0.55655026 3.3165119e-39
2.3471789 -0.96711624 -0.56321317 3.225754e-39
2.3586192 -0.94218409 -0.56696826 3.2243289e-39
2.359962 -0.92352581 -0.56694591 3.3154469e-39
2.3764884 -0.91206723 -0.57091874 3.4087146e-39
2.377172 -0.88606739 -0.56832445 3.4094446e-39
2.3894246 -0.88230723 -0.58795315 3.132855e-39
2.3776169 -0.85827506 -0.5665949 3.3165301e-39
2.3977399 -0.8484925 -0.58301175 3.9604534e-39
2.4092593 -0.83419937 -0.58348376 4.0519344e-39
2.4267492 -0.82193977 -0.58772212 3.9601087e-39
2.4068151 -0.78873384 -0.59225529 4.2388452e-39
2.4270236 -0.79446048 -0.58661777 4.3299562e-39
2.435147 -0.77087617 -0.59094578 4.7898483e-39
2.4641507 -0.76874995 -0.58723629 5.1585916e-39
2.4801702 -0.76515961 -0.60067278 4.6086927e-39
2.5935795 -0.73199296 -0.63318151 1.3926211e-38
2.616153 -0.72623342 -0.63022858 1.1874508e-38
2.6330764 -0.72361588 -0.6479435 1.1419255e-38
2.6353543 -0.70495981 -0.63954681 1.1779442e-38
2.3874619 -1.2437662 -0.53200442 5.8839472e-39
2.4059958 -1.2426939 -0.54966867 1.0587728e-38
2.4426334 -1.2392285 -0.56040847 9.8512459e-39
2.4352059 -1.2249553 -0.55827141 7.5524592e-39
2.3825977 -1.1092942 -0.54929966 5.5248967e-39
2.4102154 -1.1291518 -0.5537706 6.5458897e-39
2.3494155 -1.0850152 -0.54165483 5.4341584e-39
2.3256552 -1.0630354 -0.52610099 5.0689688e-39
2.303447 -1.0235364 -0.51997471 3.9633457e-39
2.3190265 -1.0387609 -0.52750653 4.5158076e-39
2.30229 -1.008388 -0.52414984 3.593124e-39
2.3230302 -0.9973594 -0.52484483 3.0402964e-39
2.3319259 -0.97947448 -0.52864593 3.3154343e-39
2.355943 -0.96629566 -0.53492898 3.042083e-39
2.3681993 -0.94132304 -0.53688991 2.8569827e-39
2.3681815 -0.92351764 -0.53688985 3.1321221e-39
2.3847651 -0.91205883 -0.54065204 3.1332011e-39
2.3847384 -0.88516337 -0.54065204 3.4105194e-39
2.384716 -0.86275059 -0.54065204 3.3179665e-39
2.4110837 -0.85230488 -0.55128974 3.4076286e-39
2.437043 -0.84711832 -0.55017245 3.5001899e-39
2.4164555 -0.83419216 -0.55716926 3.6856574e-39
2.4395931 -0.81880027 -0.55780274 3.9626016e-39
2.4400718 -0.7876516 -0.55748957 4.3310128e-39
2.4678366 -0.77803802 -0.57379228 4.4243042e-39
2.4993389 -0.78207624 -0.56665558 4.423577e-39
2.4339519 -0.77613425 -0.56121647 4.515383e-39
2.4859385 -0.77139485 -0.57960302 4.4242846e-39
2.6026273 -0.73688114 -0.60011494 1.3904647e-38
2.6223545 -0.72787249 -0.6075573 1.3163798e-38
2.6461978 -0.72360277 -0.59996217 1.4087183e-38
2.6230786 -0.70812857 -0.6048367 1.4176871e-38
2.6429029 -0.70868307 -0.61195749 1.3257784e-38
2.6610363 -0.69939333 -0.62901634 1.3349978e-38
2.3921916 -1.2437614 -0.51470923 5.2389701e-39
2.4166651 -1.2383536 -0.51996922 1.0864671e-38
2.4522758 -1.2362502 -0.53001255 9.4817543e-39
2.4515562 -1.2248143 -0.52122843 8.2853734e-39
2.4451909 -1.1425085 -0.52145803 9.3333316e-39
2.3896923 -1.109287 -0.52335685 4.9659635e-39
2.3310266 -1.0788574 -0.48377225 3.4955068e-39
2.3765788 -1.1015644 -0.50683385 3.8625069e-39
2.3340931 -1.0644201 -0.49777827 4.9767844e-39
2.3112562 -1.0307428 -0.49144462 4.0562644e-39
2.3275278 -1.0301783 -0.49638784 3.871513e-39
2.3097136 -1.0105449 -0.49701145 3.6878042e-39
2.3284357 -0.99955565 -0.49762195 3.224682e-39
2.3391402 -0.97880381 -0.49619612 3.1328465e-39
2.3618028 -0.96568173 -0.51024342 3.132855e-39
2.34659 -0.94567496 -0.48702997 2.8580729e-39
2.3721478 -0.94175839 -0.50956458 2.9491741e-39
2.3918779 -0.92998195 -0.51470923 3.0428089e-39
2.3760037 -0.91757464 -0.50826508 2.9506021e-39
2.3911855 -0.91333318 -0.51717997 3.1335724e-39
2.3751941 -0.89086711 -0.51112759 3.2282876e-39
2.3921683 -0.88259435 -0.51347381 3.5023507e-39
2.3922844 -0.86363947 -0.51297969 3.5927583e-39
2.4156606 -0.85528022 -0.52116013 2.9488182e-39
2.4436853 -0.84482175 -0.52587563 3.5001843e-39
2.4612873 -0.82323724 -0.52966797 3.8686095e-39
2.455389 -0.79366153 -0.52838266 4.0547972e-39
2.4776475 -0.78499705 -0.53794169 4.4228441e-39
2.5008805 -0.78296828 -0.5430128 4.1466453e-39
2.6309154 -0.73279965 -0.576271 1.3077022e-38
2.6514463 -0.72359747 -0.5807696 1.3259939e-38
2.6729615 -0.71944016 -0.58548272 1.3165947e-38
2.6514366 -0.71364886 -0.58076966 1.261385e-38
2.3872893 -1.2439977 -0.4681904 1.8421021e-39
2.4016511 -1.243752 -0.48011878 4.8719813e-39
2.417588 -1.2399894 -0.4948025 1.0035266e-38
2.4866743 -1.2333149 -0.50657243 8.1013408e-39
2.4281411 -1.2237256 -0.49311703 1.0127467e-38
2.4580138 -1.2217324 -0.4976041 8.2860796e-39
2.4630151 -1.1479952 -0.50179207 7.297479e-39
2.4359365 -1.1251674 -0.48699728 2.6733187e-39
2.4512222 -1.1333429 -0.49936998 3.0370552e-39
2.3200328 -1.0538189 -0.45943525 5.2522866e-39
2.3468421 -1.0733591 -0.4714123 5.0668038e-39
2.3188751 -1.0375885 -0.46361038 4.4239665e-39
2.3355715 -1.0240461 -0.46695131 3.6863931e-39
2.3355479 -1.0003796 -0.46695128 3.1331941e-39
2.3467517 -0.9757852 -0.47000799 3.0406509e-39
2.3640635 -0.9641822 -0.48764884 3.1332011e-39
2.3481543 -0.94626784 -0.4661487 3.2246694e-39
2.3746388 -0.93621713 -0.4811005 2.9484511e-39
2.3966076 -0.92997724 -0.49741399 3.0391936e-39
2.3849049 -0.91459805 -0.47570446 3.0406551e-39
2.3989568 -0.9142859 -0.4887664 3.4094208e-39
2.3836489 -0.89145219 -0.48021281 3.3175881e-39
2.3996363 -0.88425195 -0.4861722 3.4094362e-39
2.4005949 -0.86337501 -0.48258954 3.5916639e-39
2.422827 -0.85527301 -0.49495488 3.1314032e-39
2.4509337 -0.84481448 -0.49936998 2.6704293e-39
2.4679844 -0.82784331 -0.50519598 3.3161574e-39
2.4870796 -0.8213802 -0.50358486 3.686372e-39
2.5073898 -0.82130134 -0.50134385 4.0526561e-39
2.4661312 -0.80016816 -0.51187015 4.0515476e-39
2.4862423 -0.80124903 -0.50657243 4.4228567e-39
2.5079985 -0.7926321 -0.51101851 4.7902015e-39
2.6392665 -0.7515474 -0.54580075 1.3732463e-38
2.638725 -0.73067653 -0.54770517 1.0952536e-38
2.6566951 -0.72359228 -0.56157714 1.1784088e-38
2.6566851 -0.71364361 -0.56157714 1.0679895e-38
2.4432693 -1.2615635 -0.46068275 9.398506e-39
2.4245508 -1.2415677 -0.46081942 9.4828291e-39
2.4352982 -1.2203482 -0.46343431 1.0403713e-38
2.4644578 -1.2110398 -0.47400105 7.9183733e-39
2.4419515 -1.1433485 -0.46506849 1.2278902e-38
2.459697 -1.1516536 -0.4684467 1.0025946e-38
2.4074287 -1.1092693 -0.45849976 3.6824274e-39
2.4368954 -1.1276654 -0.46644071 4.7916756e-39
2.3739009 -1.0849906 -0.45211861 4.9746292e-39
2.3470504 -1.0645912 -0.43725732 5.1593736e-39
2.3266337 -1.0324588 -0.43521947 4.1473768e-39
2.3470829 -1.0352451 -0.4248991 4.149895e-39
2.3268359 -1.0061992 -0.43438444 3.3161602e-39
2.3435934 -0.99601179 -0.43751472 3.0406271e-39
2.3525879 -0.97544187 -0.43921041 3.1328521e-39
2.3555913 -0.95101321 -0.4454712 3.2239464e-39
2.3879576 -0.93981999 -0.45031321 2.9484455e-39
2.3916566 -0.91459131 -0.45101556 3.3165231e-39
2.3916345 -0.89233452 -0.45101556 3.3175951e-39
2.4083824 -0.8806572 -0.45417595 3.5016179e-39
2.4083645 -0.86272693 -0.45417595 3.867892e-39
2.4327931 -0.8537721 -0.46337932 3.5927373e-39
2.4581821 -0.84480727 -0.47286433 3.0413558e-39
2.4729393 -0.83144945 -0.47571665 3.0402782e-39
2.4936187 -0.82447094 -0.4796845 3.4097768e-39
2.5196533 -0.81535506 -0.48348829 4.699075e-39
2.5098357 -0.79789513 -0.49231395 4.5132559e-39
2.6285074 -0.78093046 -0.50563896 1.71426e-38
2.6646276 -0.78327608 -0.53278834 1.7048986e-38
2.6269338 -0.75742525 -0.51130754 1.0128182e-38
2.6461313 -0.7591086 -0.52072638 1.2347359e-38
2.6465435 -0.73771983 -0.51913929 1.0865012e-38
2.667202 -0.73353028 -0.52319205 1.1325632e-38
2.4480667 -1.2615588 -0.44313976 3.2146039e-39
2.4182005 -1.239253 -0.4195855 1.0410534e-38
2.4345047 -1.2394881 -0.4341608 9.1133334e-39
2.442111 -1.2108805 -0.43061373 1.0404064e-38
2.4713252 -1.2125375 -0.44889361 8.6537957e-39
2.5260589 -1.2120323 -0.452512 5.5173465e-39
2.4778969 -1.1860193 -0.44296351 8.0170289e-39
2.4657388 -1.1529561 -0.44635868 9.8695833e-39
2.4180794 -1.1182237 -0.4195855 2.9419743e-39
2.4402354 -1.1301283 -0.43717635 4.1333302e-39
2.3698852 -1.0860995 -0.40235913 5.6163832e-39
2.3988888 -1.1015421 -0.42525321 4.7884302e-39
2.3371594 -1.0538019 -0.39680824 4.8856481e-39
2.3584788 -1.0708154 -0.41368574 5.2504874e-39
2.3353107 -1.0321615 -0.40348837 4.1470167e-39
2.3493872 -1.0396025 -0.41648865 4.0566245e-39
2.3352075 -1.0047481 -0.40376678 3.0410153e-39
2.3512616 -0.99745733 -0.40947992 2.9491868e-39
2.3561349 -0.97082281 -0.41022637 3.2250352e-39
2.3807728 -0.96121866 -0.42653686 2.8573148e-39
2.3668549 -0.95004368 -0.41294298 2.8569701e-39
2.3884912 -0.94130397 -0.41972363 3.0402824e-39
2.3869879 -0.91207302 -0.41744298 3.2243247e-39
2.3958666 -0.88237733 -0.42476165 3.5927443e-39
2.3986485 -0.86116779 -0.42525321 2.949893e-39
2.415062 -0.85973179 -0.42967439 3.8678892e-39
2.443414 -0.85347968 -0.43136463 3.2243261e-39
2.4666388 -0.8447988 -0.44194108 3.4090649e-39
2.4760993 -0.82823896 -0.44519487 3.8682508e-39
2.5014563 -0.81888813 -0.451004 3.9600681e-39
2.5259795 -0.81394315 -0.45734936 3.7782005e-39
2.5696306 -0.78426462 -0.45557833 1.4844197e-38
2.5967441 -0.77886689 -0.47014302 1.2449616e-38
2.6323829 -0.78092659 -0.4914676 1.3181786e-38
2.500916 -0.76871318 -0.45279655 1.57615e-38
2.5547132 -0.76701897 -0.47215426 1.6405077e-38
2.6304684 -0.76609761 -0.48758247 8.9281924e-39
2.6552401 -0.75416374 -0.48739967 1.0865389e-38
2.6534841 -0.73442239 -0.49374747 1.1416386e-38
2.6750851 -0.74347109 -0.4944033 1.1602572e-38
2.397634 -1.2396203 -0.39812127 1.2346269e-38
2.4243481 -1.2383505 -0.39710173 1.0961534e-38
2.4393151 -1.2415529 -0.40683123 1.1328894e-38
2.4229078 -1.2168356 -0.40229028 1.160011e-38
2.4448593 -1.2084491 -0.40593195 1.1048347e-38
2.4933066 -1.2060714 -0.41398188 7.9173027e-39
2.5087054 -1.2054175 -0.42590863 6.5333061e-39
2.5262942 -1.2051028 -0.43361956 8.0869565e-39
2.4885309 -1.1825166 -0.41186371 1.0500573e-38
2.5111427 -1.1914775 -0.41694593 1.0472866e-38
2.5275195 -1.1957401 -0.42910463 1.1571652e-38
2.4754021 -1.1516379 -0.41101778 6.4584221e-39
2.4035945 -1.1104401 -0.40807837 2.7579516e-39
2.4275389 -1.1182142 -0.38499504 2.583616e-39
2.4408662 -1.1259991 -0.4007358 2.4867471e-39
2.3745162 -1.0860949 -0.38542497 5.1586505e-39
2.3428683 -1.0537962 -0.37593254 4.2410102e-39
2.3586178 -1.0701106 -0.38284686 5.3423117e-39
2.3408594 -1.0312678 -0.37561381 4.0544553e-39
2.3432746 -1.0035858 -0.37426242 2.8576918e-39
2.357012 -0.9974516 -0.38845384 2.8573218e-39
2.3435531 -0.97732627 -0.3731491 3.5916695e-39
2.3577521 -0.97129315 -0.38565028 3.40836e-39
2.368717 -0.95310599 -0.38339981 3.1317633e-39
2.3933251 -0.9419443 -0.38977376 3.0402838e-39
2.3996632 -0.91579056 -0.38951883 3.3165133e-39
2.4068127 -0.88430673 -0.39548343 3.5934646e-39
2.424932 -0.876158 -0.39364269 3.4094418e-39
2.4242058 -0.85912496 -0.39623699 3.5920156e-39
2.4480231 -0.84808981 -0.40766817 3.5001899e-39
2.4750905 -0.84021068 -0.41101778 3.7749691e-39
2.4789348 -0.83024347 -0.41398358 4.4203217e-39
2.5120106 -0.83374435 -0.41246465 4.697982e-39
2.5334322 -0.82801282 -0.43014753 4.4235671e-39
2.624228 -0.81394768 -0.44558924 1.6038449e-38
2.508306 -0.8058728 -0.4259086 4.3213172e-39
2.6018531 -0.79815716 -0.45153102 1.5400611e-38
2.6308601 -0.79148114 -0.45374894 8.6559229e-39
2.6357274 -0.76447743 -0.45643288 1.0313991e-38
2.6604445 -0.75086802 -0.46835569 1.1143401e-38
2.4323897 -1.2392389 -0.36769983 1.0775753e-38
2.4481215 -1.2373314 -0.37461239 1.160333e-38
2.4531519 -1.2130047 -0.37619618 1.1600082e-38
2.4827054 -1.2065886 -0.38451216 1.0677765e-38
2.4504547 -1.1891823 -0.36590463 1.0770692e-38
2.4959311 -1.1911284 -0.3857199 8.4650717e-39
2.5160398 -1.1868268 -0.39902067 1.323619e-38
2.4820535 -1.158501 -0.38672096 9.9715166e-39
2.4153366 -1.1104285 -0.36514118 4.1455425e-39
2.4330659 -1.1271739 -0.36481732 5.2594655e-39
2.4480193 -1.1350195 -0.37461242 4.8705337e-39
2.3780754 -1.0865904 -0.35219342 4.5154363e-39
2.3513207 -1.0572505 -0.34503654 4.4243337e-39
2.3643677 -1.0701048 -0.36182079 4.975348e-39
2.3508384 -1.0317525 -0.34670651 3.8707801e-39
2.3677917 -1.0439436 -0.34920511 4.14523e-39
2.3505242 -1.0029292 -0.34775037 3.4101537e-39
2.3677413 -0.99380791 -0.34920511 3.3186587e-39
2.3485036 -0.98020691 -0.35505685 3.6852987e-39
2.3713231 -0.97144586 -0.35119 3.4094474e-39
2.3806331 -0.94428486 -0.35495639 3.2243275e-39
2.4015422 -0.93686032 -0.37198266 2.8584163e-39
2.4091964 -0.91544628 -0.36344659 3.5931002e-39
2.4136972 -0.88288468 -0.36493301 3.6845798e-39
2.4162614 -0.86115021 -0.36084744 3.6842154e-39
2.4310627 -0.85822159 -0.37115887 3.4101439e-39
2.453021 -0.84917837 -0.37477365 3.5923701e-39
2.484755 -0.84020096 -0.37567696 3.9600891e-39
2.5358067 -0.83999574 -0.39749995 4.2402619e-39
2.5847828 -0.84147525 -0.40037945 4.8755602e-39
2.4568703 -0.83513522 -0.38664132 3.6838693e-39
2.4883051 -0.83304137 -0.38541529 4.1451768e-39
2.5468581 -0.82823879 -0.41106656 4.9734913e-39
2.5822575 -0.83194017 -0.40957925 5.5212981e-39
2.6130087 -0.81985337 -0.41081727 1.2256252e-38
2.6280744 -0.81394386 -0.43152401 1.1709576e-38
2.6120293 -0.79493111 -0.414307 9.661447e-39
2.6296563 -0.79328489 -0.42566353 9.0232537e-39
2.6350036 -0.7650972 -0.4287543 1.1325268e-38
2.6145196 -0.74025822 -0.40500101 1.1505699e-38
2.6305709 -0.7458936 -0.42214721 1.0679562e-38
2.4924343 -1.2706963 -0.34917131 1.2355272e-38
2.4371147 -1.2347517 -0.35040462 1.1791381e-38
2.457253 -1.2403314 -0.3412326 1.0498787e-38
2.4394708 -1.2257842 -0.34175703 1.1877734e-38
2.4609222 -1.2139425 -0.3447752 1.1508251e-38
2.4656258 -1.1826408 -0.3445234 8.1935463e-39
2.4915862 -1.1844689 -0.36560377 7.7321743e-39
2.4608648 -1.1574323 -0.34478062 8.8478377e-39
2.4208751 -1.1230952 -0.33204538 5.355617e-39
2.4370117 -1.1316526 -0.35040462 5.9091411e-39
2.379632 -1.0871421 -0.32339552 4.2356012e-39
2.3588574 -1.0581087 -0.31748065 4.3321282e-39
2.3747177 -1.0700945 -0.32397377 4.3325038e-39
2.3570158 -1.0325735 -0.31698504 3.7775069e-39
2.3599453 -1.0043111 -0.3133055 3.4094376e-39
2.3743603 -1.0003408 -0.32502499 3.2261086e-39
2.3610587 -0.9758659 -0.3091304 3.3183238e-39
2.3787701 -0.97039139 -0.32533333 3.3172448e-39
2.3865778 -0.93967032 -0.3256194 3.4083544e-39
2.4106231 -0.91415775 -0.33332407 3.409425e-39
2.4222686 -0.88300723 -0.33493274 3.6849301e-39
2.4233065 -0.86114311 -0.33508515 3.5927457e-39
2.4390967 -0.85180986 -0.34175703 3.8668144e-39
2.4675307 -0.84535778 -0.35094607 3.77676e-39
2.4907956 -0.84019488 -0.35358891 4.053012e-39
2.5546067 -0.84416044 -0.3767868 4.9731592e-39
2.5972626 -0.84951591 -0.39268479 3.8740101e-39
2.6209977 -0.85602432 -0.38173604 3.6806113e-39
2.6383657 -0.84795737 -0.39401686 1.1509687e-38
2.5022862 -0.83279836 -0.35248747 4.053012e-39
2.6222317 -0.81743217 -0.37708303 7.6363914e-39
2.6383414 -0.82365465 -0.39401686 8.9332427e-39
2.6377614 -0.79310322 -0.39602613 1.1049032e-38
2.6414309 -0.76660526 -0.39935845 1.1692262e-38
2.6369815 -0.74588716 -0.39870524 1.2240035e-38
2.4442093 -1.2347445 -0.32446182 8.8446456e-39
2.4307034 -1.2127947 -0.30932286 1.0957927e-38
2.4492157 -1.2156887 -0.30608565 1.0312225e-38
2.4650435 -1.2092021 -0.32021257 9.9438073e-39
2.4488854 -1.180949 -0.30716661 8.7477836e-39
2.4677434 -1.1743686 -0.31968999 6.4450593e-39
2.4504352 -1.154052 -0.3014015 4.2341662e-39
2.4635189 -1.1560682 -0.31801182 6.4471991e-39
2.4000158 -1.1153293 -0.29228708 3.2221765e-39
2.4232817 -1.1287158 -0.30393028 4.5193571e-39
2.3691552 -1.0797405 -0.27990443 3.8700725e-39
2.3824737 -1.0899034 -0.29568404 3.9611793e-39
2.3668542 -1.0624291 -0.28825471 4.3321352e-39
2.3524392 -1.0331888 -0.28571826 4.0533833e-39
2.3560901 -1.0015901 -0.28695601 4.9749823e-39
2.3792393 -0.99161655 -0.30715287 3.5012619e-39
2.3670194 -0.9739362 -0.28732687 4.4228833e-39
2.3895354 -0.96868515 -0.2997483 3.595638e-39
2.3952525 -0.94550878 -0.29508814 3.5952806e-39
2.4145594 -0.93466377 -0.30289161 3.4097866e-39
2.3837652 -0.91749823 -0.29033199 3.130718e-39
2.4173772 -0.91362059 -0.30325302 3.4090817e-39
2.4315481 -0.88339186 -0.30502924 3.5927429e-39
2.4315259 -0.86113495 -0.30502915 3.7764307e-39
2.4466689 -0.85641295 -0.31408468 3.6845826e-39
2.4722257 -0.85071242 -0.31917524 3.869327e-39
2.5033488 -0.84506154 -0.32135132 4.0533567e-39
2.584873 -0.8524971 -0.36218131 3.043539e-39
2.624815 -0.85602051 -0.36777702 6.2451767e-39
2.6510596 -0.85441989 -0.36657715 1.0515288e-38
2.5096438 -0.83194852 -0.33012834 3.9597247e-39
2.6281729 -0.82064217 -0.355369 8.468659e-39
2.6447568 -0.82850879 -0.37057486 7.3608793e-39
2.6540124 -0.79353595 -0.36909488 1.1140883e-38
2.6620846 -0.77110243 -0.38282031 1.178374e-38
2.4241967 -1.2440672 -0.26878256 3.0424656e-39
2.3768966 -1.2095859 -0.25207019 4.3339191e-39
2.3984365 -1.2104231 -0.26049936 3.1342997e-39
2.4364865 -1.2061564 -0.28009564 7.5485272e-39
2.4393632 -1.1834068 -0.27754933 4.5111301e-39
2.4555106 -1.1845285 -0.28295329 5.3398019e-39
2.4706869 -1.1801344 -0.29188848 7.0007176e-39
2.4343648 -1.1516913 -0.26993272 1.2889508e-39
2.4535928 -1.1585314 -0.28987136 3.7767754e-39
2.3940833 -1.118674 -0.26546901 2.0268703e-39
2.3762441 -1.0901216 -0.25401852 3.6867406e-39
2.3885438 -1.0962385 -0.27351105 3.3176176e-39
2.3459969 -1.0480058 -0.24315949 5.0649891e-39
2.3679533 -1.0629659 -0.26149058 4.3310562e-39
2.36906 -1.0329244 -0.25773275 7.0011211e-39
2.3717978 -1.0021892 -0.25782529 9.3989166e-39
2.3913164 -0.99378431 -0.26299801 1.0229402e-38
2.3552613 -0.98643321 -0.26971233 1.0690007e-38
2.3907216 -0.97416651 -0.26510054 9.9502869e-39
2.3977525 -0.94322479 -0.26527303 9.583305e-39
2.4203892 -0.93465793 -0.28157344 6.26431e-39
2.4073408 -0.91489118 -0.26476905 9.3077845e-39
2.4223771 -0.90813494 -0.27420908 7.1887382e-39
2.4371703 -0.8828612 -0.27909881 6.4490095e-39
2.4385712 -0.86112791 -0.2792668 5.067517e-39
2.4556572 -0.85819703 -0.28122377 3.8686305e-39
2.4813716 -0.85482132 -0.29062101 3.9615268e-39
2.5155468 -0.84778851 -0.29722795 4.3288828e-39
2.5402062 -0.84300786 -0.30939418 3.8700683e-39
2.5795786 -0.84622723 -0.30948898 7.182218e-39
2.6028302 -0.84672683 -0.32176781 7.2809002e-39
2.634985 -0.84636265 -0.33055303 4.9594811e-39
2.6524787 -0.85766435 -0.34244448 9.402148e-39
2.5807941 -0.81793237 -0.3049404 6.4460977e-39
2.6117017 -0.82305747 -0.31812504 7.364838e-39
2.6338656 -0.81742054 -0.33454132 9.0229188e-39
2.6374817 -0.79812151 -0.32124698 1.0038853e-38
2.656198 -0.7940014 -0.3380881 1.0955787e-38
2.3783579 -1.2125961 -0.22651869 4.2402871e-39
2.4057622 -1.209295 -0.23695704 3.1339269e-39
2.4402409 -1.2010543 -0.25292248 2.3020097e-39
2.416296 -1.1869997 -0.23301749 1.7506282e-39
2.441941 -1.1828803 -0.25200957 2.1172653e-39
2.4035561 -1.147207 -0.23396517 1.7506268e-39
2.4361758 -1.1641579 -0.25691 1.0170162e-39
2.3833508 -1.1178167 -0.22813275 2.6718614e-39
2.3962426 -1.1282014 -0.24547623 1.8406742e-39
2.382869 -1.0927122 -0.2298027 3.5945464e-39
2.3520064 -1.0508462 -0.22119419 4.3296017e-39
2.3720682 -1.0662268 -0.22876365 3.9622667e-39
2.3436432 -1.0388331 -0.21761431 4.0558902e-39
2.3743465 -1.0314606 -0.23041509 8.0149045e-39
2.3716893 -0.99876034 -0.2278824 9.491485e-39
2.3953393 -0.99160045 -0.24827974 9.5840281e-39
2.382761 -0.98450106 -0.22980282 9.4911024e-39
2.3987715 -0.97415847 -0.23566402 8.9382972e-39
2.398741 -0.94364113 -0.23566402 8.6617089e-39
2.4018133 -0.91116714 -0.23830989 8.0163479e-39
2.4365683 -0.90140146 -0.24377294 8.2936662e-39
2.3998435 -0.895684 -0.23145884 9.6787349e-39
2.4464786 -0.88464874 -0.25043759 8.5709552e-39
2.4651434 -0.88508296 -0.24663332 9.1237548e-39
2.4432681 -0.86112314 -0.26209196 4.5190222e-39
2.4632282 -0.86177558 -0.25355139 3.8671816e-39
2.4832234 -0.85442632 -0.26191327 4.0526589e-39
2.5163236 -0.84894365 -0.268801 3.6849427e-39
2.5451083 -0.84300297 -0.29146886 3.9615114e-39
2.585798 -0.84622097 -0.28674605 2.3970654e-39
2.5318749 -0.83700514 -0.27159896 2.9495231e-39
2.5797913 -0.82365853 -0.28701982 3.7745894e-39
2.6199541 -0.81119597 -0.30956793 8.5608504e-39
2.5524149 -0.79653692 -0.26458094 3.8685899e-39
2.5710495 -0.79412937 -0.28046456 5.9836986e-39
2.6113269 -0.79402506 -0.29772815 8.5586952e-39
2.6400168 -0.78847128 -0.311941 9.8487376e-39
2.3840492 -1.2053862 -0.20568079 6.0863605e-39
2.4121423 -1.2005761 -0.21186325 3.2225367e-39
2.3736122 -1.192771 -0.20336325 4.3292275e-39
2.4177797 -1.1828314 -0.21024746 2.3934906e-39
2.3897676 -1.140318 -0.20475198 2.8548359e-39
2.4139509 -1.1611526 -0.21116956 2.6704349e-39
2.387413 -1.1261002 -0.19982946 2.4878513e-39
2.361799 -1.0821477 -0.18550052 3.5027193e-39
2.3777778 -1.0959482 -0.20177422 3.4087244e-39
2.3556976 -1.0599471 -0.18877462 4.0555301e-39
2.3712237 -1.0723989 -0.2116569 4.1448559e-39
2.3536181 -1.0335152 -0.19086786 6.1720723e-39
2.3777802 -1.0236102 -0.20266664 9.3989194e-39
2.3868902 -1.0036992 -0.20374548 9.6751545e-39
2.3896031 -0.97583723 -0.20475198 9.491122e-39
2.4068131 -0.96543121 -0.20622753 7.7379547e-39
2.4115634 -0.94013101 -0.20771986 8.0163409e-39
2.4220989 -0.91158468 -0.21079142 9.214154e-39
2.4384286 -0.90148854 -0.21548721 9.03012e-39
2.4492927 -0.88128418 -0.21865296 8.1099784e-39
2.4674993 -0.87611544 -0.23798572 7.0122404e-39
2.4550099 -0.86111146 -0.21915482 3.5001899e-39
2.4712653 -0.85818142 -0.22414951 4.2355928e-39
2.4901938 -0.85456014 -0.2330135 3.8686095e-39
2.5253177 -0.84965271 -0.24254958 3.4998382e-39
2.5585887 -0.8429895 -0.24217434 2.671497e-39
2.5849023 -0.84308428 -0.25399739 1.750268e-39
2.5367422 -0.83700025 -0.25380114 3.2218024e-39
2.5839586 -0.82500738 -0.25337982 2.3027089e-39
2.5548706 -0.80118036 -0.2556183 3.6845616e-39
2.5836701 -0.79432315 -0.25317937 4.5139705e-39
2.6123745 -0.78596318 -0.26137277 4.4235826e-39
2.3978205 -1.2009081 -0.17552605 6.7367578e-39
2.4155962 -1.2058253 -0.17498866 4.8874404e-39
2.415081 -1.1834048 -0.17679097 2.5793154e-39
2.3981519 -1.1518523 -0.17413433 3.1310669e-39
2.4139137 -1.1659672 -0.18099619 2.9466756e-39
2.3879066 -1.1244019 -0.17289893 3.3147253e-39
2.3685615 -1.0870208 -0.16078956 4.1480873e-39
2.3825941 -1.1024811 -0.17018875 3.7800166e-39
2.3558707 -1.0604298 -0.16160782 4.3310352e-39
2.3580461 -1.0296475 -0.16247666 7.6479241e-39
2.3813787 -1.0207998 -0.17433554 9.8631317e-39
2.3684883 -1.0138255 -0.16078953 1.08708e-38
2.3913429 -1.0025095 -0.17422621 9.5829477e-39
2.397975 -0.97510761 -0.1741343 8.5709524e-39
2.4137154 -0.9676041 -0.18099619 7.1862313e-39
2.4207785 -0.94315267 -0.17866667 6.6344826e-39
2.429915 -0.91298759 -0.18221502 8.7535472e-39
2.4483061 -0.90396649 -0.18858498 9.0315606e-39
2.4531436 -0.881019 -0.19135098 8.0177814e-39
2.460881 -0.86110556 -0.19768623 3.4072866e-39
2.4798992 -0.86041409 -0.19258578 3.408716e-39
2.5026758 -0.85390353 -0.20296489 3.4079747e-39
2.5404038 -0.84754342 -0.21120679 2.9477364e-39
2.5647163 -0.84298337 -0.21976769 2.4853093e-39
2.5839601 -0.83994764 -0.22141688 2.208735e-39
2.5916677 -0.82499969 -0.22518973 2.9466448e-39
2.5923004 -0.80077595 -0.22679006 4.7891183e-39
2.6186495 -0.7954579 -0.23846173 4.7902267e-39
2.4052441 -1.2030649 -0.14838769 9.7777534e-39
2.423166 -1.2182736 -0.14735441 1.4280905e-38
2.4004245 -1.1850746 -0.1399508 3.1314074e-39
2.4222112 -1.1833977 -0.15071858 2.6715041e-39
2.4031501 -1.1558635 -0.14239359 3.0388699e-39
2.4242549 -1.1572378 -0.14314915 3.22361e-39
2.3775926 -1.1077504 -0.12784152 3.8722249e-39
2.3903272 -1.123969 -0.14199044 3.2247031e-39
2.3644049 -1.0880326 -0.13176489 4.8820538e-39
2.3616781 -1.0613197 -0.13337617 4.8816937e-39
2.3694942 -1.0315566 -0.13649872 9.3056462e-39
2.4013348 -1.0225524 -0.14180368 1.0041779e-38
2.3957016 -1.0039936 -0.14464319 9.9517274e-39
2.4009137 -0.97642481 -0.14443853 7.1887438e-39
2.4252131 -0.9654128 -0.13894391 6.5354332e-39
2.426388 -0.94026852 -0.14971921 9.2141652e-39
2.4565344 -0.93462181 -0.14940098 1.0135044e-38
2.4354696 -0.91047412 -0.16189401 9.8598905e-39
2.4551768 -0.909365 -0.15427376 9.7680578e-39
2.4705307 -0.88246256 -0.16247778 7.1887298e-39
2.4864056 -0.86354536 -0.16880479 4.0511945e-39
2.5102057 -0.85415345 -0.1689321 3.59238e-39
2.5376179 -0.84930766 -0.18240662 3.2239506e-39
2.5720694 -0.84297603 -0.19287977 3.2243247e-39
2.5562108 -0.83698076 -0.18260969 3.6827903e-39
2.572058 -0.83136141 -0.1928798 2.2116007e-39
2.5949337 -0.82156008 -0.19922915 3.2243065e-39
2.5732579 -0.80580783 -0.18839847 4.2377353e-39
2.5925655 -0.80249321 -0.18981223 4.0522665e-39
2.6261775 -0.80495125 -0.21096851 4.6069018e-39
2.414947 -1.2008909 -0.11289901 7.5592976e-39
2.4370928 -1.2136211 -0.1267394 8.5785026e-39
2.409554 -1.1828835 -0.11435629 3.5938289e-39
2.4072475 -1.1548144 -0.11331522 3.2236213e-39
2.3770833 -1.1176646 -0.10699367 3.5959953e-39
2.3689659 -1.0921187 -0.10246573 4.6065389e-39
2.38012 -1.0626827 -0.10646155 5.0664296e-39
2.3811622 -1.0319335 -0.10882463 1.022831e-38
2.4054315 -1.02424 -0.11671957 1.0687479e-38
2.3823762 -1.0109651 -0.10999466 1.0871168e-38
2.4100733 -1.0014826 -0.11344927 9.2138289e-39
2.4139583 -0.97364885 -0.11568239 6.6334092e-39
2.428663 -0.96540934 -0.12632826 6.5458603e-39
2.4342985 -0.94228649 -0.12296684 9.8577283e-39
2.4402573 -0.9205243 -0.11409542 9.6736902e-39
2.4668105 -0.91434216 -0.13016406 9.9513729e-39
2.4782841 -0.88601595 -0.13413918 7.3731281e-39
2.4970601 -0.87608588 -0.12989055 4.1444986e-39
2.4939749 -0.86533082 -0.14113249 4.1455719e-39
2.5229242 -0.85672331 -0.14233713 4.2370403e-39
2.545511 -0.84668273 -0.1535344 3.777137e-39
2.5638528 -0.83038336 -0.1546416 3.0395761e-39
2.5806296 -0.82438397 -0.16151048 2.669709e-39
2.5984025 -0.81853563 -0.16852754 3.5001787e-39
2.5842874 -0.8057968 -0.14806652 4.3216633e-39
2.3900499 -1.1760535 -0.082538038 8.6703367e-39
2.4038386 -1.1784104 -0.092781492 4.0605454e-39
2.3919015 -1.1504333 -0.075673878 4.7937916e-39
2.4092009 -1.1582307 -0.083209582 3.6853127e-39
2.3889072 -1.1183177 -0.080187939 4.3306821e-39
2.383028 -1.0895736 -0.076308258 4.5150579e-39
2.4097893 -1.0809585 -0.070665099 4.1484278e-39
2.3885999 -1.0614189 -0.081103235 4.6061844e-39
2.408263 -1.0666298 -0.076194197 4.789498e-39
2.3902831 -1.0337291 -0.081165202 3.8682578e-39
2.4093001 -1.0330188 -0.079018675 4.8831216e-39
2.3895066 -1.0081115 -0.083910868 3.5934562e-39
2.4158316 -1.002421 -0.086882681 6.0794998e-39
2.4367392 -0.99155903 -0.096891731 1.0509524e-38
2.4220293 -0.97580492 -0.086178184 5.1521723e-39
2.4383621 -0.97162771 -0.090884231 6.1734933e-39
2.4393656 -0.94387102 -0.095779486 8.7538919e-39
2.472858 -0.93460548 -0.089710124 8.4783504e-39
2.4468405 -0.92009205 -0.10013019 8.4773092e-39
2.4764161 -0.91119844 -0.1000509 9.6747608e-39
2.4855659 -0.88778913 -0.10751816 6.8213794e-39
2.5041614 -0.88280261 -0.10394772 4.7008883e-39
2.5029631 -0.86711484 -0.10827152 4.3295877e-39
2.5252464 -0.8540681 -0.11555694 4.514695e-39
2.5524077 -0.84013337 -0.12829086 4.0522847e-39
2.5387912 -0.83406985 -0.10982273 4.0554881e-39
2.5702019 -0.83466035 -0.13144082 3.3176021e-39
2.5892143 -0.83056992 -0.13014118 2.948105e-39
2.6078153 -0.82432139 -0.13412781 3.3132721e-39
2.5891893 -0.80579197 -0.13014124 6.6186255e-39
2.4281743 -1.1835639 -0.064467467 6.4482739e-39
2.4472897 -1.1920918 -0.0590447 7.55675e-39
2.4001608 -1.1504251 -0.045471534 5.4348744e-39
2.4235587 -1.1550566 -0.054283023 4.9742606e-39
2.3967478 -1.1162708 -0.057827074 4.4232336e-39
2.4146926 -1.1239445 -0.052893035 4.6976625e-39
2.3956001 -1.0949233 -0.061945565 4.421426e-39
2.4217768 -1.0919206 -0.0521442 4.2395542e-39
2.4139822 -1.0613014 -0.055262689 4.4243e-39
2.399142 -1.0325817 -0.048766375 4.4232238e-39
2.4185364 -1.0262805 -0.056676742 4.4207183e-39
2.429487 -1.0017682 -0.059001837 4.0537196e-39
2.4482481 -1.0002669 -0.054839507 3.9633275e-39
2.4272857 -0.98012817 -0.066972576 3.9608065e-39
2.4506137 -0.97136903 -0.06124676 4.1444859e-39
2.4579024 -0.94997519 -0.068981446 4.0519302e-39
2.4812188 -0.93716234 -0.069888733 4.1444887e-39
2.489512 -0.91698587 -0.073861383 4.1444831e-39
2.5124674 -0.9119311 -0.073681094 4.237755e-39
2.493794 -0.89668369 -0.077462137 4.2359641e-39
2.5100801 -0.88952059 -0.082328647 4.6058088e-39
2.5275359 -0.87765545 -0.082901537 4.3310086e-39
2.5355644 -0.85819131 -0.087590627 4.3306597e-39
2.5713189 -0.84773266 -0.093285255 4.4232014e-39
2.5800583 -0.8351118 -0.095400125 4.2359473e-39
2.5965652 -0.82901394 -0.10325322 3.1350031e-39
2.6218553 -0.82551342 -0.1116023 3.4933404e-39
2.4271884 -1.1493614 -0.037618544 4.6083452e-39
2.4224107 -1.1209002 -0.034768727 4.4210742e-39
2.4046147 -1.0991839 -0.028997557 4.4228959e-39
2.4371076 -1.0969864 -0.031483866 4.8813055e-39
2.4561551 -1.0874516 -0.026243933 5.0671401e-39
2.4371855 -1.0606273 -0.031066407 4.9753186e-39
2.4575176 -1.0700117 -0.021197723 4.6994226e-39
2.4310815 -1.0310025 -0.029948846 4.2374046e-39
2.4341574 -1.0012118 -0.028443104 3.5009074e-39
2.4528391 -0.99154299 -0.038018558 3.3154413e-39
2.4321408 -0.98323983 -0.018901229 3.1325411e-39
2.4622531 -0.97607005 -0.036623947 3.5898884e-39
2.4898043 -0.96370602 -0.038592055 3.6849357e-39
2.4957807 -0.94313586 -0.046200648 4.2363214e-39
2.5184064 -0.93882054 -0.052062079 4.4196365e-39
2.5013616 -0.91575348 -0.049859706 4.3274325e-39
2.5200312 -0.90833741 -0.046008755 4.3288632e-39
2.5335116 -0.90021825 -0.061132122 4.2395388e-39
2.499665 -0.89667785 -0.05599352 4.3310198e-39
2.5181179 -0.886823 -0.052926842 4.2381053e-39
2.5416353 -0.87777066 -0.056934047 4.5132629e-39
2.5717645 -0.86759281 -0.057609145 4.2384822e-39
2.5496125 -0.86133975 -0.070350982 4.5146894e-39
2.5755084 -0.85129553 -0.06660419 4.3313939e-39
2.5862219 -0.83387554 -0.072856151 4.2381109e-39
2.6039171 -0.8274579 -0.076365329 3.3190483e-39
2.6259305 -0.83054417 -0.067908518 4.325629e-39
2.5139694 -1.1103297 -0.0044689393 5.9037839e-39
2.4764042 -1.0925764 -0.012873345 4.7913155e-39
2.4940135 -1.1025513 -0.012964846 5.0639325e-39
2.4422026 -1.0536969 -0.012695777 4.4250259e-39
