# .PCD v0.7 - Point Cloud Data file format
VERSION 0.7
FIELDS x y z rgb
SIZE 4 4 4 4
TYPE F F F F
COUNT 1 1 1 1
WIDTH 964
HEIGHT 1
VIEWPOINT 0 0 0 1 0 0 0
POINTS 964
DATA ascii
0.08795917 0.53607202 -1.06758 6.3525021e-39
0.075437069 0.53965509 -1.0716283 7.647875e-39
0.12318397 0.44051996 -1.0622051 4.2348921e-39
0.10251439 0.42361185 -1.0779871 4.3252717e-39
0.088522434 0.40759322 -1.0846338 4.5067903e-39
0.10545075 0.67182899 -1.0245812 3.4040188e-39
0.10040736 0.66515809 -1.0265616 3.0373929e-39
0.095484376 0.53214908 -1.0459762 6.450841e-39
0.068519235 0.53970897 -1.0539978 7.9219858e-39
0.12775266 0.50286442 -1.0351136 6.4476139e-39
0.11374533 0.51732337 -1.0408514 6.9089409e-39
0.13295031 0.48818043 -1.0346721 5.6200014e-39
0.12920082 0.4777984 -1.0411654 5.2522923e-39
0.12590301 0.45389441 -1.044102 4.6976737e-39
0.10404778 0.43404061 -1.0439202 3.4040216e-39
0.094344139 0.42417961 -1.0564752 3.4962285e-39
0.081407309 0.40856662 -1.0607591 4.5078651e-39
0.098227143 0.78155708 -0.99469328 8.6610054e-39
0.088920116 0.78611672 -1.0118159 1.0415571e-38
0.11446571 0.7622962 -0.99009079 8.0163689e-39
0.1264751 0.7358287 -0.98842531 6.3575496e-39
0.12602282 0.70567101 -0.99218005 4.3296031e-39
0.12304127 0.68582952 -0.99552172 4.0511973e-39
0.11173379 0.67561156 -1.0014189 3.0388362e-39
0.098393321 0.66456676 -1.0183939 2.2101686e-39
0.086330652 0.53663123 -1.0162264 7.3699107e-39
0.067550302 0.54540682 -1.0297388 1.0040652e-38
0.12121677 0.50358522 -1.0115013 6.355784e-39
0.1072191 0.5166797 -1.0143726 7.0007778e-39
0.12978053 0.48656276 -1.0107521 5.9880622e-39
0.13126135 0.46825662 -1.0102748 5.5274134e-39
0.11885643 0.45247909 -1.0151743 4.2370417e-39
0.10055113 0.43301389 -1.0297388 2.3045124e-39
0.085932255 0.42160767 -1.0289453 3.7717307e-39
0.077293396 0.41202617 -1.040426 3.6802792e-39
0.094653487 0.78472269 -0.97056884 9.7677201e-39
0.073381901 0.79046965 -0.96460158 1.0318345e-38
0.12284815 0.76046211 -0.95367742 8.2014804e-39
0.11333632 0.76638234 -0.96742988 8.753571e-39
0.12954748 0.73850554 -0.95461863 6.1738926e-39
0.1286006 0.73449814 -0.97079724 6.2660812e-39
0.12404847 0.70409173 -0.96492195 4.3288828e-39
0.11790478 0.684466 -0.98047382 3.5916499e-39
0.10471451 0.67377847 -0.97268629 3.5873437e-39
0.054010987 0.54753554 -0.98152208 1.3265721e-38
0.08012116 0.5371716 -0.98883843 7.1883963e-39
0.11466897 0.50964618 -0.97807437 6.724907e-39
0.10214698 0.51853561 -0.98992926 6.6337988e-39
0.12897265 0.48519307 -0.98162675 6.1720962e-39
0.12502003 0.46652219 -0.97569656 4.4200135e-39
0.11134768 0.44694269 -0.98767138 3.3129204e-39
0.093109131 0.4247247 -0.99286717 3.4965872e-39
0.091130972 0.78541899 -0.9361403 9.9517611e-39
0.11603153 0.76222241 -0.93015462 8.4777128e-39
0.1086123 0.77200866 -0.93729073 8.8468638e-39
0.12405932 0.73587 -0.931238 6.5415891e-39
0.12831318 0.71675998 -0.92617315 4.9738991e-39
0.11869788 0.70005906 -0.93732852 3.9601003e-39
0.11054397 0.68060035 -0.93820709 3.7738986e-39
0.10243762 0.66985559 -0.94360006 3.8635704e-39
0.05366075 0.54727209 -0.95180255 9.8609807e-39
0.051912785 0.54691947 -0.97301322 1.2254448e-38
0.078980207 0.53525341 -0.95734829 7.0936951e-39
0.054262161 0.54150522 -0.97584945 8.4801903e-39
0.10999095 0.50984573 -0.95145452 6.6334344e-39
0.094116211 0.52268648 -0.95938241 6.819269e-39
0.12417102 0.4843784 -0.94991767 5.8965925e-39
0.12005699 0.46303594 -0.95803154 4.1455748e-39
0.10766733 0.4467169 -0.95504081 3.7731783e-39
0.091426969 0.42465913 -0.95839155 4.049384e-39
0.085846663 0.41810217 -0.96652693 4.7801359e-39
0.10132432 0.77728665 -0.89176041 9.4965478e-39
0.085659504 0.78418827 -0.90981007 1.0690753e-38
0.057394624 0.78893083 -0.90925169 1.1511489e-38
0.11048424 0.76259983 -0.90151352 8.6624628e-39
0.11899769 0.7348758 -0.90114278 6.7245455e-39
0.12216175 0.71447289 -0.90069884 4.5132825e-39
0.1135025 0.69765806 -0.90677667 3.774993e-39
0.10213995 0.67983711 -0.91654032 3.0374153e-39
0.089346766 0.67057478 -0.911856 3.5866276e-39
0.049482942 0.54604542 -0.93485957 9.2213749e-39
0.072584867 0.5341863 -0.9282068 6.9114605e-39
0.10248637 0.51067126 -0.92303079 7.0015051e-39
0.083178639 0.51947498 -0.91502559 7.4660622e-39
0.11305165 0.48031485 -0.9211337 5.8955065e-39
0.11149859 0.46075681 -0.92826748 4.5136384e-39
0.099907756 0.44307852 -0.92748266 3.4991221e-39
0.08625567 0.42323864 -0.93109715 3.4058153e-39
0.080771923 0.41499808 -0.93614161 5.6948854e-39
0.096952915 0.77600318 -0.87403262 1.0322716e-38
0.081969619 0.78398538 -0.87773132 1.0965906e-38
0.10543275 0.76143563 -0.87303329 9.7680929e-39
0.11411464 0.73228908 -0.87307745 6.5419563e-39
0.11502993 0.71211165 -0.8714835 4.0537337e-39
0.10219431 0.69526041 -0.88142192 3.4072796e-39
0.084609151 0.68117249 -0.88067538 3.4976662e-39
0.077047586 0.67035925 -0.88725686 3.0384803e-39
0.06592834 0.66089374 -0.89315701 4.5921349e-39
0.045939326 0.54491317 -0.90431768 1.0319771e-38
0.032078981 0.54720008 -0.89927 1.234195e-38
0.063774943 0.53256297 -0.89983767 7.0962034e-39
0.095512509 0.50708997 -0.89306706 6.8174642e-39
0.079077005 0.51827067 -0.89839184 7.094407e-39
0.10555911 0.47875443 -0.89229017 5.4352514e-39
0.091736197 0.44370967 -0.89978051 3.8682578e-39
0.069079399 0.4237732 -0.90210623 3.774609e-39
0.080750465 0.42152429 -0.91509277 3.4980319e-39
0.069908857 0.41769844 -0.91260582 2.6711705e-39
0.088434339 0.77742946 -0.84379107 9.5833457e-39
0.072691798 0.78659976 -0.84666324 1.078007e-38
0.099919796 0.75876248 -0.84376532 8.016729e-39
0.1081003 0.73119026 -0.84379584 6.818539e-39
0.1101619 0.70763022 -0.84283328 5.0675296e-39
0.096997023 0.69039583 -0.84945357 3.4069125e-39
0.079989552 0.67981613 -0.86194098 2.9477378e-39
0.075771689 0.67151958 -0.85087347 3.3128994e-39
0.045425415 0.54831588 -0.86896676 7.4599357e-39
0.029980898 0.54658401 -0.89076114 1.1429308e-38
0.061242461 0.52987456 -0.86940461 6.2660826e-39
0.086483717 0.50466251 -0.86519355 5.8040283e-39
0.069132805 0.51336205 -0.85588318 5.6225083e-39
0.094924331 0.48185953 -0.86666906 5.894789e-39
0.086610436 0.46479583 -0.86789644 4.7909442e-39
0.079798818 0.44083074 -0.87129283 4.236327e-39
0.049853683 0.79500842 -0.81945932 9.8540948e-39
0.082681894 0.77181286 -0.81615657 1.1241058e-38
0.062848568 0.78077745 -0.82071632 1.0873713e-38
0.090944529 0.75714403 -0.81430024 9.4003865e-39
0.10294664 0.72854871 -0.81406045 5.3430417e-39
0.10299158 0.70475227 -0.8157903 4.8817021e-39
0.093783498 0.68677396 -0.81836861 3.7767852e-39
0.084857702 0.67178249 -0.81586593 4.506779e-39
0.072020411 0.66827416 -0.83560455 4.7808366e-39
0.034765959 0.55122912 -0.8445453 8.1982098e-39
0.01174283 0.55954134 -0.83687186 1.2256223e-38
0.064854383 0.52448905 -0.82398409 5.1590148e-39
0.054099917 0.53034985 -0.84248435 5.6200014e-39
0.078657985 0.50191712 -0.8361938 5.0679066e-39
0.066772342 0.51465774 -0.84849036 5.0693471e-39
0.086336851 0.47892594 -0.83817053 4.8827853e-39
0.074546218 0.46268752 -0.83741629 4.5139985e-39
0.066428542 0.44156539 -0.84915364 3.0370496e-39
0.050851226 0.42770222 -0.8442511 2.7597508e-39
0.04779613 0.79459041 -0.79524857 9.8584738e-39
0.076760054 0.77450728 -0.78166085 9.3989432e-39
0.058213711 0.78360826 -0.79464895 1.022907e-38
0.090619922 0.75508368 -0.78202659 8.8468498e-39
0.10791266 0.72913384 -0.78128052 6.8185362e-39
0.10090244 0.7011565 -0.78389144 3.1296123e-39
0.090338588 0.68320435 -0.79059488 3.1317619e-39
0.080899596 0.66965449 -0.79356813 4.0461512e-39
0.022092462 0.56790602 -0.81035715 1.124103e-38
0.051565528 0.54583079 -0.79776543 4.604762e-39
0.036675453 0.55383104 -0.8120988 5.0646318e-39
0.060530782 0.52548927 -0.80518758 4.5154447e-39
0.049797416 0.53534269 -0.81060088 4.9739145e-39
0.072041512 0.5024718 -0.80860227 4.6994772e-39
0.060293674 0.49409702 -0.80527765 4.2384963e-39
0.07802701 0.47896886 -0.80451381 3.7775139e-39
0.069318771 0.46160862 -0.81065857 3.3143637e-39
0.052757382 0.44384953 -0.8199864 2.6707824e-39
0.027435541 0.42583796 -0.83024716 2.2994887e-39
0.018800259 0.41723937 -0.82775211 2.6657587e-39
0.062653422 0.79959661 -0.771837 9.2973238e-39
0.038216949 0.79742259 -0.76339203 9.6704658e-39
0.07780838 0.77932847 -0.75477535 1.0687883e-38
0.055063128 0.78753328 -0.7600044 1.1148143e-38
0.097941637 0.76098377 -0.7407307 7.1865956e-39
0.096419215 0.75487137 -0.75395781 6.4486634e-39
0.10161781 0.72674417 -0.75308108 6.264998e-39
0.097413421 0.69619596 -0.75674069 4.235234e-39
0.085829258 0.67829669 -0.76074594 2.760111e-39
0.078985572 0.66899592 -0.76159495 2.8526527e-39
0.03857851 0.57646763 -0.78286213 1.0410878e-38
0.026878238 0.57661724 -0.77449679 9.3938453e-39
0.04857409 0.55132014 -0.77471721 4.1441258e-39
0.036513805 0.55996847 -0.78518945 4.0515658e-39
0.062652111 0.5311358 -0.77523756 4.3296129e-39
0.067634702 0.49921083 -0.77636713 4.1444972e-39
0.066897988 0.4790968 -0.77482176 4.0511987e-39
0.064013362 0.46384323 -0.78248304 4.7909414e-39
0.065207243 0.44617936 -0.78163964 3.5012871e-39
0.051564455 0.79782081 -0.72045326 1.142652e-38
0.030222178 0.80083418 -0.73714876 9.5775653e-39
0.088008404 0.7746256 -0.7185986 9.8588325e-39
0.073768854 0.7852509 -0.72275579 1.0504216e-38
0.098673701 0.75731629 -0.71855068 8.6617285e-39
0.10611725 0.73068309 -0.71602744 5.5270659e-39
0.10150254 0.71565354 -0.7284373 4.418891e-39
0.10398495 0.71244848 -0.71008617 2.85015e-39
0.09344697 0.69255352 -0.72607011 4.051926e-39
0.086196661 0.6718514 -0.7196964 3.3147085e-39
0.072841644 0.66275346 -0.73552573 3.6780988e-39
0.028801918 0.59811527 -0.74196857 1.2714649e-38
0.015303731 0.59522283 -0.75870907 1.326209e-38
0.060181379 0.58244002 -0.73145753 2.301281e-39
0.043909431 0.58428365 -0.74102563 3.4058265e-39
0.01988554 0.58087945 -0.76009208 6.8145397e-39
0.069741368 0.55931437 -0.73759836 4.3285255e-39
0.05046916 0.55896199 -0.75650716 4.3274437e-39
0.07896924 0.53410399 -0.73962778 4.9735319e-39
0.064831257 0.54045492 -0.75702989 5.2508475e-39
0.081379771 0.51230091 -0.73687106 3.7753377e-39
0.071416855 0.49503019 -0.74989957 3.4058321e-39
0.070207715 0.47486708 -0.74504369 2.6700677e-39
0.057782412 0.45659634 -0.75328398 3.7742531e-39
0.058008313 0.44063342 -0.75281674 6.8141823e-39
0.054160237 0.80090719 -0.6978721 1.0871898e-38
0.083550215 0.78040171 -0.69060773 9.0290789e-39
0.070721149 0.78919691 -0.69815177 9.7666509e-39
0.10265934 0.75980484 -0.68562716 6.9096458e-39
0.10571551 0.72978169 -0.68808973 5.4345073e-39
0.099966049 0.70877028 -0.6910494 4.051933e-39
0.088515043 0.68769842 -0.69658655 2.4853177e-39
0.080732465 0.67024696 -0.69753665 2.1161821e-39
0.063982606 0.65579987 -0.70293033 3.4036643e-39
0.076184392 0.61592627 -0.69734234 1.1239899e-38
0.056135297 0.60984313 -0.72027701 1.3072652e-38
0.079751134 0.59405905 -0.70195347 4.0519218e-39
0.066479683 0.59239185 -0.71967936 3.9607869e-39
0.08573842 0.56763303 -0.70448697 4.8806231e-39
0.07992661 0.55307961 -0.72277147 5.0650017e-39
0.093647957 0.54026091 -0.70222104 4.6047508e-39
0.084333658 0.53709382 -0.72170091 4.6962178e-39
0.093205929 0.51553941 -0.69744879 3.6820504e-39
0.084467411 0.50247717 -0.71273959 3.9557703e-39
0.078724861 0.48089382 -0.70584369 3.1281648e-39
0.066314697 0.46629488 -0.71766448 3.035979e-39
0.053505778 0.45109802 -0.72928137 2.8508562e-39
0.052666426 0.43880263 -0.7220428 4.2294719e-39
0.064649224 0.79982692 -0.65901184 1.0597132e-38
0.043090701 0.80677027 -0.66837716 1.1239231e-38
0.087978244 0.78618985 -0.65884531 9.4904172e-39
0.10725844 0.75758117 -0.65125459 6.0791733e-39
0.10105228 0.76223844 -0.6572963 7.0014883e-39
0.10517597 0.72991425 -0.6571067 4.5129097e-39
0.095626473 0.70302284 -0.66287476 3.4051076e-39
0.08697474 0.68426758 -0.66643327 3.0359734e-39
0.077391505 0.67032486 -0.66448593 2.2083665e-39
0.060279965 0.65379512 -0.67612779 1.9314181e-39
0.094316125 0.62804008 -0.66448516 9.1179745e-39
0.087002993 0.61637074 -0.6859923 8.3879456e-39
0.10200667 0.60305464 -0.66594267 4.3274381e-39
0.090048671 0.60599762 -0.6859923 4.0490407e-39
0.10672736 0.57618797 -0.66181034 4.0501211e-39
0.095273018 0.56727087 -0.67911315 5.0631996e-39
0.10774589 0.54561031 -0.65874708 4.9713655e-39
0.10078847 0.5406121 -0.67686212 4.9735277e-39
0.11171842 0.5278548 -0.65712774 5.3376369e-39
0.099525213 0.51188076 -0.6746186 3.9557689e-39
0.087695837 0.49488175 -0.6879791 3.1285319e-39
0.091536283 0.48753008 -0.66613394 3.4033182e-39
0.083163381 0.47948316 -0.68156862 3.311833e-39
0.060161352 0.45831451 -0.69017071 3.3118386e-39
0.047353387 0.44929156 -0.70433068 2.944505e-39
0.0537678 0.44324493 -0.6822778 2.4849534e-39
0.047107697 0.43299115 -0.6985234 6.2548849e-39
0.068419695 0.81036741 -0.62628251 1.2253391e-38
0.093911409 0.78219777 -0.62673527 8.6610166e-39
0.085082531 0.79051518 -0.6286701 9.7662852e-39
0.10199964 0.75830156 -0.62193084 7.4635384e-39
0.096295118 0.7590853 -0.63607776 8.1089092e-39
0.10687792 0.73822808 -0.62259239 6.3553818e-39
0.10404062 0.72324628 -0.62932444 5.4345101e-39
0.10022414 0.69853657 -0.62842572 3.2210849e-39
0.085526466 0.68192661 -0.64386904 1.8403071e-39
0.11094975 0.65569538 -0.62566292 3.0316532e-39
0.078332305 0.66320348 -0.63987499 1.7473912e-39
0.067074418 0.65558887 -0.65458 1.4708043e-39
0.13068819 0.64902163 -0.61470234 4.696215e-39
0.11574447 0.63718808 -0.62985021 6.4472103e-39
0.10332096 0.63099372 -0.64543086 6.9071066e-39
0.12297106 0.60963857 -0.62541127 4.9735235e-39
0.11137342 0.60298371 -0.64478981 4.7880561e-39
0.12036431 0.58710515 -0.62579733 5.4344989e-39
0.1149199 0.57328641 -0.638533 4.4199952e-39
0.11374152 0.54512596 -0.63636696 4.3267094e-39
0.11201906 0.52061301 -0.63547713 4.0504756e-39
0.10394585 0.50683641 -0.64925975 3.4976788e-39
0.096018195 0.48588625 -0.64312166 3.2203646e-39
0.078975439 0.46882117 -0.65404809 3.405109e-39
0.064972281 0.45553571 -0.6644634 3.5884283e-39
0.054520011 0.44066963 -0.65835798 4.3238255e-39
0.04467237 0.43060502 -0.6738354 6.8934117e-39
0.043254375 0.82377315 -0.60538381 1.317497e-38
0.029950261 0.82975656 -0.60244727 1.381708e-38
0.077835441 0.80456942 -0.58621782 1.1056307e-38
0.060343981 0.81302869 -0.60345924 1.1886776e-38
0.092942238 0.78675193 -0.59474945 8.7535654e-39
0.077926755 0.79679066 -0.60883272 9.2156281e-39
0.1033392 0.75842512 -0.59481514 6.6334176e-39
0.10449672 0.72912514 -0.59554499 4.4232336e-39
0.10116673 0.72038937 -0.61184603 4.4206931e-39
0.10904074 0.69913918 -0.58982533 4.3306821e-39
0.10244548 0.69578445 -0.60437876 2.7633536e-39
0.1494348 0.67307544 -0.58103061 1.9325111e-39
0.13175464 0.67062432 -0.59649777 2.8555492e-39
0.096204996 0.67501092 -0.60986674 1.4729609e-39
0.150962 0.66039044 -0.58199573 5.7161515e-39
0.13937616 0.64379311 -0.59539098 4.5121853e-39
0.13644457 0.61786515 -0.58869421 3.6813498e-39
0.13053894 0.60908973 -0.60351533 3.7746146e-39
0.12889266 0.57959521 -0.60174799 3.6824218e-39
0.12403119 0.55191141 -0.59798509 3.2207262e-39
0.11586356 0.54141694 -0.61144507 4.6047396e-39
0.11088908 0.51297492 -0.61077678 4.1434055e-39
0.11089671 0.49288195 -0.60607874 3.7738915e-39
0.094315648 0.47803521 -0.61731762 3.5891345e-39
0.071432352 0.45890555 -0.62397796 4.1412293e-39
0.065979958 0.45026675 -0.6343264 4.1404992e-39
0.05612874 0.44167247 -0.62749761 6.069423e-39
0.039446592 0.8233521 -0.57865208 1.1700231e-38
0.027282238 0.82838988 -0.58938116 1.2161546e-38
0.081890345 0.81258386 -0.56349289 1.0964464e-38
0.061599612 0.81641781 -0.58144379 1.2530358e-38
0.1080668 0.78970611 -0.54927504 7.5528642e-39
0.095747948 0.79044884 -0.56797647 7.9223754e-39
0.14141953 0.76067865 -0.5411368 5.3434215e-39
0.1272732 0.76721424 -0.55039304 6.0791733e-39
0.1036849 0.76329648 -0.5736202 6.0791634e-39
0.14541554 0.74794215 -0.54209429 6.0784516e-39
0.14046276 0.73692846 -0.55359507 5.0653716e-39
0.11375964 0.73293388 -0.57518721 4.1473684e-39
0.15882707 0.70139241 -0.5411368 5.5266987e-39
0.14720714 0.71015036 -0.55526757 4.5111119e-39
0.12126076 0.71374226 -0.57713306 3.5888122e-39
0.16021967 0.69664955 -0.5411368 4.9753494e-39
0.15347397 0.67857051 -0.55580556 4.6969395e-39
0.14969707 0.64970988 -0.5562411 3.6816959e-39
0.14182806 0.63755524 -0.57241136 3.3129176e-39
0.15328157 0.62676704 -0.54710007 3.1292536e-39
0.14293909 0.61342084 -0.56473732 4.1430356e-39
0.14311934 0.58419371 -0.56385511 4.2348767e-39
0.13446128 0.57086062 -0.57911992 4.4181946e-39
0.14162469 0.56349444 -0.5567531 3.8657172e-39
0.13451397 0.55034864 -0.5710364 3.8657326e-39
0.12555003 0.52642763 -0.57060522 3.3132693e-39
0.11514795 0.50943446 -0.58009976 3.3129176e-39
0.10806787 0.48903275 -0.58085066 3.9561234e-39
0.094035029 0.47224614 -0.58598948 4.2337795e-39
0.065438628 0.45630366 -0.60075569 4.6036326e-39
0.060903192 0.44895843 -0.59652781 6.0722929e-39
0.082486391 0.83572263 -0.53193647 1.4004732e-38
0.07431829 0.83713257 -0.52996182 1.4831243e-38
0.095184922 0.81829965 -0.5269407 1.0412011e-38
0.081027627 0.82265389 -0.54631335 1.0230149e-38
0.12726736 0.78485817 -0.5148052 9.3053154e-39
0.11643457 0.7949031 -0.52659637 7.9227257e-39
0.1432755 0.76879984 -0.51942903 8.5684511e-39
0.12860072 0.77741295 -0.53773606 7.4613804e-39
0.15488219 0.74227977 -0.51900321 6.0813158e-39
0.14323938 0.73360479 -0.53834015 4.4214274e-39
0.1590718 0.71324879 -0.5211212 5.8022038e-39
0.1599884 0.68751848 -0.5208891 5.2493902e-39
0.15717852 0.67575294 -0.5313462 4.4189008e-39
0.16149211 0.66611236 -0.51241148 4.1426797e-39
0.15935266 0.65177727 -0.52642232 4.3274269e-39
0.15966308 0.61929137 -0.52876264 3.6824246e-39
0.15947652 0.58863777 -0.52517748 3.6809799e-39
0.14997888 0.58106983 -0.54201651 3.497669e-39
0.15787792 0.56777906 -0.51968324 3.7746048e-39
0.14561868 0.55495465 -0.53513139 3.0377642e-39
0.13631165 0.54480344 -0.55057603 3.4054636e-39
0.14220345 0.53572953 -0.53048521 3.0377783e-39
0.13009179 0.51936948 -0.54266125 3.7717335e-39
0.11610496 0.50334942 -0.55825371 4.0468995e-39
0.10761106 0.48845208 -0.55382931 3.8632131e-39
0.088386774 0.46918732 -0.55638677 4.8744854e-39
0.06877923 0.451888 -0.57022023 1.2070016e-38
0.074766874 0.83683085 -0.49428576 1.474122e-38
0.064790368 0.83843613 -0.51404083 1.5569872e-38
0.040195704 0.84191597 -0.51742995 1.602795e-38
0.11123824 0.81106246 -0.48368615 1.0317675e-38
0.091683865 0.82090133 -0.49965301 1.1610555e-38
0.1280899 0.79543614 -0.49030119 9.7652006e-39
0.11234391 0.8024478 -0.50534588 9.765918e-39
0.14384019 0.77148211 -0.48904887 8.4758897e-39
0.15647185 0.74319136 -0.48728028 6.6326946e-39
0.16326535 0.71382719 -0.48749748 5.8951253e-39
0.16572332 0.6838727 -0.4904274 4.9724445e-39
0.16774154 0.65446049 -0.49294761 5.0649975e-39
0.17403257 0.62665653 -0.49260229 4.9720802e-39
0.17021358 0.61397564 -0.50790638 4.6972716e-39
0.17386532 0.60273385 -0.48578069 4.1423125e-39
0.16703331 0.58968407 -0.50024807 3.9590073e-39
0.16117465 0.56225419 -0.49781242 3.8653627e-39
0.15142798 0.54819489 -0.50956142 3.4973047e-39
0.14280617 0.53199595 -0.50683284 3.7731629e-39
0.12569892 0.51074386 -0.51421422 3.7728139e-39
0.11580575 0.49607888 -0.51702523 3.5905793e-39
0.096971631 0.48291549 -0.52212453 4.2348669e-39
0.08264935 0.46910772 -0.53240561 5.0588612e-39
0.073588729 0.8345558 -0.47684664 1.4096941e-38
0.055995941 0.83255321 -0.46370858 1.2710381e-38
0.10664344 0.81195945 -0.46568811 1.1426887e-38
0.089648008 0.82261902 -0.46998399 1.1703465e-38
0.12534165 0.79685926 -0.4618468 1.0504562e-38
0.15155506 0.76511723 -0.44925341 8.5698832e-39
0.14071429 0.7749424 -0.46127093 8.6606509e-39
0.15937066 0.74586165 -0.45397878 7.4624566e-39
0.15686595 0.73815274 -0.4696548 6.9096388e-39
0.16638386 0.71854019 -0.45396 6.448662e-39
0.16395593 0.71143615 -0.4668377 5.9887615e-39
0.17531848 0.68734306 -0.44936892 5.618537e-39
0.16976702 0.68330491 -0.46596575 4.9745941e-39
0.18239725 0.65981305 -0.44753069 5.9869552e-39
0.17669606 0.65374947 -0.46394783 5.1575505e-39
0.1849643 0.63995934 -0.44682899 5.6181685e-39
0.18058693 0.6260004 -0.46067733 4.6043739e-39
0.17721546 0.59671813 -0.46326512 3.683135e-39
0.17149079 0.58332515 -0.47907445 3.4980067e-39
0.17298317 0.57675409 -0.45735461 3.5891303e-39
0.16343808 0.5601576 -0.47026867 3.5895017e-39
0.15458608 0.54044157 -0.46737978 3.7713692e-39
0.14224207 0.52791357 -0.4783144 3.5891402e-39
0.12529123 0.50790638 -0.48304397 3.6806253e-39
0.11042702 0.49454546 -0.48722667 4.4203372e-39
0.090957046 0.48060331 -0.49466863 4.6929794e-39
0.063573837 0.83569866 -0.43540737 1.271398e-38
0.052010536 0.83230937 -0.45539042 1.3158781e-38
0.10133338 0.8152054 -0.4348675 8.2933075e-39
0.085691929 0.8234446 -0.44272709 1.1150294e-38
0.13601303 0.78983229 -0.41975462 2.1162031e-39
0.12192249 0.79929304 -0.43347737 7.2784423e-39
0.14989197 0.77060634 -0.42440885 3.2254149e-39
0.13473344 0.78080595 -0.44047591 9.9546141e-39
0.16654158 0.74507535 -0.42241412 3.13142e-39
0.18431258 0.71652853 -0.41182381 3.7095874e-40
0.1755985 0.71831262 -0.4264746 3.6838721e-39
0.19267213 0.68944919 -0.41334853 8.2868447e-40
0.18219745 0.69111127 -0.4297995 4.4214302e-39
0.19628775 0.67574388 -0.41182381 2.7694702e-40
0.19126761 0.65907443 -0.4231244 3.3154427e-39
0.19120812 0.63046551 -0.42301992 3.2218052e-39
0.18208373 0.61931938 -0.43927592 4.7884204e-39
0.19180179 0.60752296 -0.41671133 1.8403043e-39
0.177652 0.59419101 -0.43506256 3.6827791e-39
0.17078209 0.57375395 -0.43379548 3.4043902e-39
0.15914571 0.5565694 -0.44259232 3.4058335e-39
0.14875746 0.53741163 -0.44229621 3.130313e-39
0.13750768 0.52409554 -0.44822195 3.2221555e-39
0.11953771 0.50603563 -0.45421588 4.1408818e-39
0.10633683 0.4875018 -0.4567728 6.9027654e-39
0.094764471 0.48235092 -0.45555773 3.8628418e-39
0.037415028 0.85035133 -0.40380171 1.1786991e-38
0.057356 0.83903706 -0.41161233 6.9107192e-39
0.041274548 0.84618741 -0.41364691 1.2896916e-38
0.094537139 0.81549531 -0.40811163 2.4875108e-39
0.078854084 0.82656318 -0.41191107 2.9481288e-39
0.1332438 0.78755003 -0.39878273 2.0268871e-39
0.1148082 0.80023015 -0.40328041 2.2109225e-39
0.14426279 0.77074456 -0.39623743 1.5676971e-39
0.1714561 0.73736519 -0.38666517 1.1996376e-39
0.1644423 0.74833047 -0.39459661 1.1992775e-39
0.18210578 0.7211045 -0.39194235 8.3049355e-40
0.1931541 0.69308716 -0.39092714 6.4501348e-40
0.19705093 0.66449416 -0.39062303 4.6097815e-40
0.19699872 0.65041262 -0.40277964 1.8546886e-40
0.20016921 0.64010108 -0.38415101 3.6878812e-40
0.19950199 0.62798238 -0.39572108 2.7730996e-40
0.19461179 0.60057271 -0.39584246 4.6062082e-40
0.18430066 0.58626157 -0.41226953 8.2903339e-40
0.18945432 0.5798493 -0.39367959 3.6842098e-40
0.17929518 0.56457615 -0.40472248 7.3648464e-40
0.16522825 0.5513227 -0.42060971 2.3027159e-39
0.16835308 0.54448378 -0.40469155 5.5317098e-40
0.15571737 0.52874506 -0.41016838 1.1967355e-39
0.13681746 0.51093793 -0.41834247 1.9325027e-39
0.1148001 0.50438333 -0.43800384 3.9579241e-39
0.12747693 0.49616557 -0.41382906 7.8229154e-39
0.10848141 0.49237928 -0.43741122 4.4160169e-39
0.049165606 0.85480744 -0.38425872 9.6737098e-39
0.078427911 0.84120786 -0.37012735 7.8352118e-39
0.059215665 0.84370899 -0.38574502 6.360086e-39
0.09444201 0.8187753 -0.37526262 3.0410587e-39
0.075050473 0.82607871 -0.39316177 2.3031153e-39
0.12420213 0.78454077 -0.37177095 6.9136269e-39
0.10772192 0.79683948 -0.37505835 5.0675563e-39
0.1371547 0.76764375 -0.36924192 5.8998239e-39
0.15337992 0.74260646 -0.36610305 6.8192592e-39
0.18039477 0.7207197 -0.36149657 7.9270571e-39
0.19587946 0.69336206 -0.35882732 4.8845831e-39
0.2010473 0.66361904 -0.35983181 3.5949177e-39
0.19957781 0.63253272 -0.36252737 3.6874721e-39
0.19950223 0.61781883 -0.37639567 5.5210179e-40
0.19958746 0.61026144 -0.35235795 8.0191967e-39
0.19730115 0.59944952 -0.36694717 2.1194303e-39
0.18957865 0.57451391 -0.37021682 1.4740609e-39
0.17656124 0.55672371 -0.37593609 1.0137974e-39
0.1671629 0.54284644 -0.3768582 6.4429601e-40
0.14878714 0.52302372 -0.38321367 8.2760407e-40
0.13521981 0.50826961 -0.39395648 4.6061802e-40
0.12853396 0.49816197 -0.38871571 1.8377903e-39
0.0042384863 0.85556054 -0.35394472 9.5789526e-39
0.094801664 0.84249783 -0.33223343 1.2267086e-38
0.084667206 0.84462279 -0.35023218 8.6638935e-39
0.10326922 0.82192606 -0.33412132 6.3637083e-39
0.097838521 0.81999618 -0.35070941 8.1089008e-39
0.11512315 0.7886315 -0.34174919 6.8203438e-39
0.10665441 0.79811227 -0.34791648 7.0058099e-39
0.13285446 0.76592106 -0.34069562 6.176066e-39
0.14376342 0.7387622 -0.33993459 5.4381269e-39
0.17498624 0.71430022 -0.33456635 9.1259591e-39
0.15761995 0.7227897 -0.33509904 5.6214461e-39
0.20070362 0.68963897 -0.32602814 5.9930943e-39
0.19355822 0.69742769 -0.33400384 7.375698e-39
0.20609021 0.67126858 -0.32241261 3.8700641e-39
0.20257616 0.66043437 -0.33364639 4.0559001e-39
0.20377862 0.63271046 -0.3324478 4.1470097e-39
0.20249689 0.60443175 -0.33287889 4.6087011e-39
0.19680524 0.59089768 -0.3428407 3.3165161e-39
0.19119871 0.5699876 -0.33941242 4.6061802e-39
0.17861187 0.5538162 -0.35378784 5.432673e-39
0.16690242 0.54089689 -0.34805834 4.5143447e-39
0.14643741 0.5197953 -0.35466179 3.5913038e-39
0.13898134 0.50261211 -0.35224801 4.4178274e-39
0.12959909 0.49731582 -0.36598477 5.5155332e-39
0.041099548 0.88835239 -0.30654675 1.1702343e-38
0.028859615 0.88093394 -0.31699714 1.3637399e-38
0.011830091 0.87462193 -0.33488512 1.1701286e-38
0.02267909 0.86891836 -0.32121298 9.2152708e-39
0.011514664 0.85463464 -0.33590129 4.8838685e-39
0.099782228 0.84073937 -0.31625673 1.0875861e-38
0.055025578 0.84092343 -0.30654675 6.3639816e-39
0.023389578 0.84474158 -0.32118112 1.0116268e-39
0.10698855 0.82335335 -0.31083038 8.387308e-39
0.11228538 0.79347074 -0.31195879 5.8043786e-39
0.12349689 0.76590735 -0.31088689 8.0195975e-39
0.14111471 0.73926663 -0.30828023 6.5444744e-39
0.16291153 0.70939535 -0.30501792 8.8461394e-39
0.15144908 0.71924961 -0.3081798 8.2032671e-39
0.19796002 0.69058508 -0.30037072 9.2188735e-39
0.18012178 0.70003951 -0.29805785 8.295132e-39
0.20621049 0.66573846 -0.29835257 4.7012751e-39
0.20695198 0.64010996 -0.2908096 2.2069484e-39
0.20447636 0.62982041 -0.30455837 4.2384921e-39
0.20524216 0.60150254 -0.30303085 3.5009228e-39
0.19923532 0.57913172 -0.30113393 4.0522959e-39
0.18825483 0.56343824 -0.31209409 3.3161658e-39
0.17807198 0.54670835 -0.31133658 3.8660942e-39
0.16185081 0.53033078 -0.31616351 4.8813223e-39
0.14606595 0.5131073 -0.32525191 4.237399e-39
0.14203656 0.50214309 -0.32759023 6.0687112e-39
0.064496875 0.89603698 -0.27108386 1.1527674e-38
0.050178289 0.89543086 -0.28629431 9.3971243e-39
0.065522432 0.88674974 -0.2714276 4.6097479e-39
0.048226953 0.87085247 -0.2840634 2.6722467e-39
0.030441284 0.86127198 -0.30229318 1.9360984e-39
0.010147452 0.8551321 -0.3139331 1.3797017e-39
0.058523536 0.8391273 -0.2854965 3.8707787e-39
0.041556716 0.84658003 -0.30103019 1.1985474e-39
0.11744678 0.82041752 -0.27175876 8.018887e-39
0.10844672 0.82488704 -0.28661007 2.857029e-39
0.12452078 0.80158889 -0.2717897 5.6214349e-39
0.12043643 0.79138142 -0.28309572 3.963717e-39
0.11918557 0.76594859 -0.27963293 4.975327e-39
0.13498008 0.7372601 -0.2786842 6.6363071e-39
0.15331101 0.70741886 -0.2771624 8.2032713e-39
0.14363885 0.71703863 -0.2765955 5.4381226e-39
0.19180477 0.68505108 -0.26935908 9.4025501e-39
0.1708889 0.69537926 -0.27275783 9.1255919e-39
0.20449114 0.66470212 -0.26587063 7.1905599e-39
0.20676649 0.63483751 -0.26666409 5.2526384e-39
0.20331728 0.62116969 -0.28181902 7.463558e-39
0.20815408 0.6109966 -0.26201966 2.8562863e-39
0.20374286 0.59809506 -0.27562922 5.0689688e-39
0.19532788 0.57590306 -0.27468348 3.2246918e-39
0.18414998 0.55841243 -0.28031766 3.4101551e-39
0.17581642 0.5410955 -0.27974328 3.4076314e-39
0.1591742 0.51998395 -0.28768182 3.5916737e-39
0.14608884 0.50692111 -0.30047664 3.2243303e-39
0.15035903 0.50313783 -0.29218408 1.1942454e-39
0.14469934 0.50126195 -0.30113807 5.3350894e-39
0.076492071 0.46667692 -0.31089216 9.5742554e-39
0.11251986 0.4424307 -0.29729256 1.3529275e-38
0.090340137 0.44964093 -0.30864832 1.2609849e-38
0.11883235 0.43383798 -0.29537034 1.2894327e-38
0.054015994 0.92206895 -0.24709837 8.1884525e-39
0.068898678 0.90513355 -0.25160289 8.292576e-39
0.073589325 0.87831235 -0.25090343 5.0682541e-39
0.052908897 0.86196721 -0.26546648 3.5012759e-39
0.076267362 0.84318882 -0.24657241 3.0421041e-39
0.061850667 0.84212446 -0.26250654 3.0420971e-39
0.12377608 0.82015705 -0.24930644 5.9912852e-39
0.079125166 0.8264063 -0.24601933 1.8424777e-39
0.074019551 0.82329506 -0.25367829 2.5775302e-39
0.13266146 0.79955703 -0.24370967 4.4254169e-39
0.12973499 0.77000391 -0.24256952 3.7771454e-39
0.12472188 0.76165456 -0.25852999 1.7495604e-39
0.1327374 0.73560685 -0.24017876 6.8185263e-39
0.12962842 0.73927325 -0.2556482 4.3321212e-39
0.14375091 0.71048164 -0.24482575 6.7256119e-39
0.13928473 0.71617168 -0.25938857 6.9132387e-39
0.18391097 0.68057597 -0.24234639 8.2021783e-39
0.16384017 0.69029248 -0.24325199 9.0312229e-39
0.2037766 0.66393709 -0.23581319 7.4675055e-39
0.20646858 0.63425386 -0.23695071 4.6998261e-39
0.20697439 0.60606217 -0.23895356 5.1615231e-39
0.20209861 0.58983088 -0.24514681 3.2246862e-39
0.19346702 0.57106751 -0.24395344 3.5938345e-39
0.18491185 0.55569416 -0.25381678 3.8704242e-39
0.17435431 0.53511786 -0.2521078 3.1332123e-39
0.16170359 0.51527703 -0.26347744 3.040302e-39
0.12532187 0.48440737 -0.26053455 1.3811296e-39
0.1031245 0.4692488 -0.27554303 1.4715231e-39
0.074174523 0.46921057 -0.28874704 1.4718945e-39
0.13135028 0.45649937 -0.26459557 2.8537345e-39
0.11190569 0.4496831 -0.28319672 3.0370412e-39
0.092645884 0.45560268 -0.28976002 2.0232564e-39
0.13616371 0.43640941 -0.26486671 8.0980688e-39
0.1234206 0.43392429 -0.28313354 8.8406421e-39
0.070850134 0.92606521 -0.207863 1.3633405e-38
0.063434839 0.92627913 -0.22374484 9.2958903e-39
0.079236746 0.90703171 -0.21421851 8.111433e-39
0.073798656 0.91090214 -0.22961988 4.1491873e-39
0.08273375 0.88836426 -0.21425001 4.7001891e-39
0.076494336 0.87243706 -0.22356036 2.9499028e-39
0.095423341 0.83902299 -0.20921108 5.8057883e-39
0.075524092 0.84786022 -0.22413462 3.6871077e-39
0.10673177 0.82253438 -0.21281131 4.7909259e-39
0.090584278 0.8243522 -0.22210148 3.0413782e-39
0.13936818 0.79748178 -0.20762391 6.5451933e-39
0.13138175 0.80514324 -0.22066365 1.0230837e-38
0.14433134 0.78087771 -0.20318975 3.4108964e-39
0.13544464 0.76530451 -0.21607852 3.9619038e-39
0.13678944 0.73783833 -0.21568005 4.3317597e-39
0.14657164 0.7111457 -0.21535268 4.6083564e-39
0.17249167 0.67571008 -0.21044867 1.0782927e-38
0.15992761 0.68668669 -0.21461821 5.5292379e-39
0.19611621 0.66177243 -0.20728418 7.7429994e-39
0.20786762 0.63410503 -0.20671223 5.0693163e-39
0.20368075 0.6026141 -0.20888393 4.9771277e-39
0.19946301 0.5824523 -0.19887051 7.3734742e-39
0.19099748 0.56777859 -0.21528809 3.7778614e-39
0.18161988 0.54673845 -0.21563724 3.1332123e-39
0.17264342 0.53061026 -0.22382896 3.4094418e-39
0.13401258 0.50352824 -0.22488573 1.6580752e-39
0.12444377 0.50042802 -0.23665036 3.6964025e-39
0.14137399 0.4819093 -0.22783272 2.2083707e-39
0.12474656 0.48847726 -0.24134567 1.4718959e-39
0.15776885 0.46221748 -0.22798367 3.131413e-39
0.1391263 0.4579379 -0.24890725 2.9455728e-39
0.15722656 0.43814307 -0.22548124 3.498762e-39
0.14015448 0.42658693 -0.24047425 9.4795599e-39
0.12457931 0.40979701 -0.24627811 2.2107086e-38
0.1285218 0.40620822 -0.23295797 1.9252611e-38
0.069259286 0.92802811 -0.18733518 9.1201619e-39
0.08430469 0.91003418 -0.18510942 7.1902082e-39
0.087633014 0.88225323 -0.18602431 3.6871091e-39
0.077813745 0.86423814 -0.19219959 3.0388544e-39
0.11638427 0.84458309 -0.17270236 1.1045595e-39
0.10078382 0.84532511 -0.18725389 3.1324836e-39
0.076526523 0.8546434 -0.19319627 2.8541059e-39
0.11774838 0.83858246 -0.1712167 7.3543226e-40
0.10505164 0.82291478 -0.18623354 3.5934674e-39
0.093776107 0.81884342 -0.20203212 4.2377339e-39
0.14224374 0.79845935 -0.17875475 7.7404897e-39
0.12055409 0.80578893 -0.17520535 7.5553613e-39
0.14705682 0.773754 -0.17819926 4.607992e-39
0.13619089 0.76009953 -0.1935437 4.8845747e-39
0.14106405 0.74834114 -0.17273267 7.3614272e-40
0.13822973 0.73771131 -0.18675305 3.8697011e-39
0.1557312 0.70776272 -0.17497437 4.8838446e-39
0.14776492 0.71248972 -0.18939973 4.5168908e-39
0.16362524 0.68230426 -0.1775436 4.7920148e-39
0.15826571 0.68575227 -0.1896548 3.6889196e-39
0.20433867 0.65047085 -0.17311871 9.9589287e-39
0.18697143 0.66024578 -0.17841162 6.6362917e-39
0.20844293 0.64254898 -0.17129947 6.5462653e-39
0.20515108 0.62839144 -0.17698064 3.5941876e-39
0.20114136 0.6022079 -0.17858346 3.9619024e-39
0.19698131 0.57911026 -0.18207757 4.1455691e-39
0.18757975 0.56225169 -0.18516171 4.0544483e-39
0.18013763 0.5423609 -0.18704304 4.0540882e-39
0.16954935 0.52270019 -0.19243079 2.9484651e-39
0.15173054 0.5092603 -0.20457934 2.2101952e-39
0.16883969 0.49323618 -0.19123016 2.7640752e-39
0.14788139 0.49556428 -0.20607989 8.2760127e-40
0.1785177 0.46975359 -0.19328079 4.6090626e-39
0.16670835 0.46821558 -0.210483 3.8711333e-39
0.18283558 0.44684535 -0.19083092 4.3313953e-39
0.16304886 0.42869711 -0.20394254 5.1528715e-39
0.14714146 0.41387829 -0.214461 8.0819062e-39
0.13905346 0.40615326 -0.21044691 1.7227539e-38
0.07013154 0.92729414 -0.15630764 1.1801053e-38
0.051153541 0.93470657 -0.16991252 4.1329575e-39
0.092495441 0.90724033 -0.14656065 5.6214405e-39
0.082770348 0.91256195 -0.15964435 8.6671445e-39
0.099641562 0.88471276 -0.14748906 4.0555483e-39
0.08793211 0.87398374 -0.16241255 3.2268583e-39
0.073640347 0.86230725 -0.17450103 3.5955945e-39
0.11824024 0.84777242 -0.14911154 4.1459307e-39
0.079279423 0.85708934 -0.15511045 1.9325111e-39
0.07507658 0.8553226 -0.17220677 2.5793e-39
0.11822832 0.82928914 -0.14942998 4.2395682e-39
0.11016369 0.81743127 -0.1612283 1.9350376e-39
0.15503049 0.79343444 -0.13503365 1.3361521e-38
0.13744044 0.79975969 -0.14877954 5.9887615e-39
0.11290014 0.80711526 -0.15812618 3.1306899e-39
0.15883327 0.78395998 -0.1359605 9.6801866e-39
0.1500535 0.77026206 -0.15075733 3.77823e-39
0.14385211 0.74085832 -0.1513826 4.0548084e-39
0.14119112 0.72731423 -0.16622734 5.5394029e-40
0.15130436 0.71076274 -0.15059604 4.4239679e-39
0.14259636 0.72048104 -0.16398285 4.4236204e-39
0.16365695 0.68415201 -0.15122941 4.1477314e-39
0.19813001 0.64708364 -0.14622563 7.834123e-39
0.17673874 0.65930784 -0.14986812 6.0823962e-39
0.20581973 0.63374543 -0.14297397 5.9916482e-39
0.20277739 0.62212956 -0.15630892 7.3576857e-40
0.20485926 0.61620963 -0.13750352 5.3451913e-39
0.20028162 0.60004175 -0.14973967 3.9622555e-39
0.19236135 0.5746516 -0.15061599 3.9611723e-39
0.18401027 0.5584814 -0.1561375 3.4094278e-39
0.17953944 0.53881562 -0.15706877 4.1466467e-39
0.16723442 0.5207392 -0.16410823 2.9491756e-39
0.1432749 0.50678337 -0.16929026 1.6609451e-39
0.18009877 0.48886484 -0.14651456 1.9325139e-39
0.16449773 0.49397483 -0.16437176 2.9473791e-39
0.14221084 0.5013299 -0.17206173 7.3540704e-40
0.18956709 0.47124013 -0.15711401 4.7009037e-39
0.18463945 0.47612408 -0.16958883 3.4080153e-39
0.19187129 0.45294294 -0.15108886 7.2802037e-39
0.18442583 0.4426567 -0.16575092 3.3168777e-39
0.16394496 0.42139763 -0.17227814 5.0606773e-39
0.15827942 0.41322729 -0.1715353 1.288828e-38
0.07849288 0.92765391 -0.12899376 8.3008395e-39
0.06745863 0.93192893 -0.13533805 5.3268357e-39
0.092057586 0.91299921 -0.12121262 8.9415678e-39
0.105564 0.88515913 -0.1193872 5.7154172e-39
0.12783062 0.85169852 -0.10806651 6.4573192e-39
0.11410749 0.85934263 -0.12145689 3.8689809e-39
0.090200186 0.85858709 -0.13984482 2.3899019e-39
0.12956119 0.842821 -0.1047957 9.5879868e-39
0.12574983 0.8291989 -0.11966538 4.0555371e-39
0.15208614 0.79468143 -0.11335458 7.1873159e-39
0.12955654 0.80489445 -0.11974609 3.5931114e-39
0.16071689 0.77661347 -0.1121055 4.885309e-39
0.1520853 0.76406741 -0.1272368 3.7767684e-39
0.15493214 0.75641364 -0.1047957 6.5412038e-39
0.14828038 0.74231774 -0.11949982 3.8700557e-39
0.1519506 0.71140683 -0.11999174 5.1615203e-39
0.16859579 0.68418252 -0.11890856 5.0711324e-39
0.17740631 0.65597451 -0.11885723 5.4377457e-39
0.20139909 0.63091695 -0.11551738 6.7299335e-39
0.20399094 0.61196196 -0.114539 3.6863903e-39
0.19719505 0.59518284 -0.12017053 3.6853057e-39
0.18865037 0.56795353 -0.12196036 3.7782174e-39
0.18049812 0.5528931 -0.13516609 1.6584479e-39
0.17605448 0.53564972 -0.12721552 3.6867406e-39
0.16084266 0.5145247 -0.1369002 2.3059585e-39
0.17641246 0.49529457 -0.12792949 3.8711347e-39
0.16168284 0.50176048 -0.13862522 9.198011e-40
0.18961513 0.47248468 -0.12965193 4.7927392e-39
0.18758357 0.45174772 -0.13042149 3.4112411e-39
0.17737234 0.43792403 -0.13568145 3.4101593e-39
0.1591866 0.42027363 -0.14132272 3.9619108e-39
0.15389478 0.41285887 -0.14695512 9.4745685e-39
0.1390897 0.40144771 -0.15871963 1.631646e-38
0.07249701 0.92847443 -0.090097442 6.70831e-39
0.10417759 0.90341401 -0.076448917 3.5005977e-39
0.091318011 0.91411835 -0.09187182 9.9557085e-39
0.11228085 0.88585794 -0.08209946 4.7001975e-39
0.10921633 0.88689202 -0.097237848 1.0323028e-38
0.12744117 0.85930985 -0.086441375 5.4370324e-39
0.11511004 0.86811173 -0.098654523 8.1121182e-39
0.13163507 0.83227718 -0.084909953 4.4243168e-39
0.12830055 0.8236872 -0.099201865 7.1001551e-39
0.14345479 0.80206376 -0.083216973 3.7764307e-39
0.13152838 0.80628884 -0.097001232 3.1339606e-39
0.16266036 0.77655303 -0.082349636 5.529591e-39
0.15528607 0.74735612 -0.081455685 4.6072606e-39
0.15045106 0.73736501 -0.093298495 2.8551919e-39
0.15755308 0.71964049 -0.074268401 8.0192373e-39
0.15490735 0.71178341 -0.089681849 4.3324771e-39
0.17314565 0.68050528 -0.082277954 4.4250413e-39
0.16466725 0.68940586 -0.091482766 7.0057931e-39
0.17789507 0.65548921 -0.078886867 1.8432091e-39
0.17527342 0.65479904 -0.091869257 5.5303071e-39
0.19674861 0.62971961 -0.086735636 6.4519074e-39
0.1996733 0.60594583 -0.086173758 4.0548141e-39
0.19414878 0.5886575 -0.089290649 3.2246918e-39
0.18627608 0.56638896 -0.092753954 3.5009172e-39
0.1748594 0.55122477 -0.098892413 7.3759026e-40
0.17674053 0.54694653 -0.085154861 5.4333989e-39
0.16911244 0.52905184 -0.099198461 3.3168805e-39
0.1766175 0.50060076 -0.099893481 2.9491826e-39
0.18938661 0.47286013 -0.099528775 4.146295e-39
0.18002808 0.44946554 -0.10305872 3.5005557e-39
0.16885173 0.43531343 -0.10797222 4.5157796e-39
0.15007997 0.42291439 -0.098738626 5.1431479e-39
0.066821098 0.92713684 -0.071457475 1.4660237e-38
0.10037005 0.90567023 -0.055940587 8.2039943e-39
0.085238218 0.9164325 -0.061524674 1.1521252e-38
0.11136246 0.88850302 -0.056979623 6.8210431e-39
0.12816262 0.86118311 -0.054318536 5.5295854e-39
0.13587046 0.8328355 -0.054620735 6.2685882e-39
0.15728891 0.79875314 -0.039480824 1.2028634e-39
0.14762115 0.80635607 -0.053988796 4.4243238e-39
0.16703403 0.77710831 -0.04939172 5.8990938e-39
0.1627655 0.77911717 -0.060499392 4.2421004e-39
0.16847384 0.75968987 -0.038417228 2.7586802e-40
0.158584 0.74576652 -0.056184489 3.4097936e-39
0.15933549 0.71569705 -0.05435713 3.8707843e-39
0.1543926 0.70664966 -0.068315588 8.0152478e-39
0.16841567 0.68392789 -0.055849344 5.715413e-39
0.15783131 0.69531846 -0.068732627 8.847884e-39
0.17689276 0.65642613 -0.056900978 4.6087053e-39
0.18934536 0.62954342 -0.056116391 5.9909251e-39
0.19557095 0.60206401 -0.055795826 4.3317569e-39
0.18862677 0.58577627 -0.063624002 4.3339191e-39
0.18392992 0.56592035 -0.062244099 3.409802e-39
0.17569733 0.54139078 -0.06695202 3.1321291e-39
0.16674197 0.52185917 -0.068087414 2.1190604e-39
0.18540978 0.49969378 -0.058546949 1.473356e-39
0.17880511 0.50365639 -0.071952663 4.7001849e-39
0.18709087 0.48618388 -0.057187483 1.7484856e-39
0.18456888 0.47091377 -0.069340944 3.8711431e-39
0.17410624 0.44772679 -0.079043686 3.4069153e-39
0.16216791 0.43765986 -0.079681166 4.0569552e-39
0.13994205 0.41989669 -0.079860143 1.0489415e-38
0.094567418 0.90593457 -0.028154183 9.4954408e-39
0.079947114 0.91663539 -0.030860037 1.0878415e-38
0.12517917 0.88126856 -0.010054437 7.4700222e-39
0.11094975 0.88786227 -0.026892506 6.4511858e-39
0.13003433 0.8706032 -0.016490681 7.0036323e-39
0.12790978 0.85858279 -0.024395714 4.2384906e-39
0.14395785 0.8277694 -0.017135395 6.7292216e-39
0.13574708 0.83911216 -0.024619654 5.9894775e-39
0.1577791 0.80670267 -0.021027677 5.5303225e-39
0.16768324 0.77852726 -0.020943159 5.1622462e-39
0.16661632 0.75713497 -0.017968286 4.4235868e-39
0.15922821 0.74103135 -0.024826262 3.2243275e-39
0.15719104 0.71341747 -0.026085954 4.4239525e-39
0.16476822 0.68322229 -0.026111607 5.8065338e-39
0.17566085 0.65587354 -0.026056862 5.1618819e-39
0.18326998 0.62794971 -0.02606958 5.6228628e-39
0.19161522 0.59764171 -0.027043883 4.1480943e-39
0.1887455 0.57603538 -0.027457789 4.3324729e-39
0.17825377 0.56078011 -0.034206908 2.950263e-39
0.17193329 0.53210604 -0.034503642 3.0402964e-39
0.16786158 0.52111471 -0.047792681 1.4729945e-39
0.18118691 0.49987954 -0.03790943 5.4366737e-39
0.16935492 0.50854909 -0.031557471 2.1241064e-39
0.18441677 0.48280385 -0.039480027 4.149895e-39
0.17484677 0.46438962 -0.039325014 3.8704228e-39
0.14473152 0.43399519 -0.054392762 5.7082201e-39
0.13703299 0.42666203 -0.054134779 8.0840418e-39
0.091957808 0.90463465 0.0017239839 1.1242134e-38
0.078770757 0.91398537 -0.013267635 1.6140028e-38
0.12046456 0.87973166 0.0092322035 7.3753001e-39
0.10645854 0.88995951 0.0045125932 8.3887429e-39
0.12516677 0.86354816 0.0094192196 5.6224999e-39
0.12493002 0.85181546 0.0030761233 4.7945371e-39
0.13933492 0.83241856 0.0090684108 7.4653349e-39
0.12721276 0.84501523 0.0020080828 2.3999955e-39
0.15496314 0.80729693 0.0087782526 6.6359428e-39
0.16346061 0.77849883 0.0085602924 5.5295924e-39
0.16425288 0.74849975 0.0097836796 4.3321212e-39
0.15918458 0.73368406 -0.00013520329 1.8439154e-39
0.16430581 0.71955222 0.021144627 5.5138152e-40
0.15570068 0.71214688 0.0041593174 3.5931072e-39
0.16011369 0.68153417 0.0041876915 5.3451913e-39
0.17299175 0.65467715 0.0041626189 5.5299483e-39
0.17952251 0.6265927 0.0041712481 5.5303057e-39
0.18466735 0.59577799 0.0035723473 4.6101472e-39
0.18420446 0.57486671 -0.0001424482 4.5161607e-39
0.17365265 0.55760241 -0.0040627914 3.5931184e-39
0.17044342 0.53076017 -0.0060986131 3.3183308e-39
0.17428493 0.50086033 -0.008390679 3.6845938e-39
0.17711079 0.48445734 -0.018033158 3.3222965e-39
0.16759658 0.46790549 -0.012334957 4.1470111e-39
0.1473695 0.44927347 -0.0070293793 6.4397372e-40
0.14092863 0.43819046 -0.021053994 6.6197311e-39
0.12747777 0.42734453 -0.034274101 9.7493351e-39
0.087416768 0.90081882 0.032307979 1.2996727e-38
0.11472011 0.87743455 0.033198804 1.0234453e-38
0.09920013 0.88618219 0.034887567 7.4664209e-39
0.12025225 0.85832298 0.034872625 6.9136143e-39
0.11072123 0.86545771 0.041169796 7.8297706e-39
0.13180435 0.83004248 0.037772056 7.3727819e-39
0.14645016 0.80353111 0.037837055 6.9125297e-39
0.15680969 0.77608007 0.039013084 5.2533713e-39
0.18181825 0.73771012 0.048349313 7.1891236e-39
0.16782403 0.74834341 0.039212171 4.9782151e-39
0.1880585 0.72284836 0.045725688 5.5313889e-39
0.17872882 0.71727222 0.035495225 3.5956394e-39
0.16079748 0.70573443 0.021268291 2.7589044e-40
0.1926955 0.70066482 0.048349313 3.1307166e-39
0.18510485 0.68960673 0.040272631 2.3956486e-39
0.16525936 0.68155134 0.023084909 1.7499191e-39
0.18187082 0.66159022 0.045294486 3.1328479e-39
0.17323399 0.6538772 0.029542599 3.4101509e-39
0.17816782 0.62588567 0.033905804 4.792735e-39
0.17953491 0.59387851 0.031886458 4.6083508e-39
0.17918432 0.57210106 0.031762011 3.8725878e-39
0.17091453 0.55648565 0.025343655 3.5934814e-39
0.16695762 0.52996445 0.023582527 3.8711431e-39
0.17102087 0.50222754 0.022070341 3.1324934e-39
0.16250145 0.48479939 0.020065982 4.7920232e-39
0.15605605 0.46937633 0.017142709 4.237762e-39
0.13985085 0.44998693 0.010215034 9.4799593e-39
0.13544214 0.43991584 -0.0024599815 1.131661e-38
0.075559855 0.89768028 0.052753828 1.3004657e-38
0.090378881 0.88080919 0.060895663 9.4007341e-39
0.11552441 0.85213214 0.057932675 5.1601092e-39
0.10405612 0.85730886 0.067623138 8.2929348e-39
0.12445807 0.82766587 0.066042215 7.2827373e-39
0.10877752 0.83960229 0.076771371 1.0863209e-38
0.13805485 0.80131155 0.067406654 7.0972754e-39
0.15302396 0.77539301 0.068119317 7.925597e-39
0.17384887 0.75474453 0.059429057 1.0047139e-38
0.15842175 0.74464786 0.069995314 5.622137e-39
0.16271007 0.71541595 0.069517627 4.7923679e-39
0.16787028 0.68877637 0.068174824 2.8559037e-39
0.15788555 0.67702842 0.071644798 3.501978e-39
0.1783917 0.65399051 0.064288557 4.1473712e-39
0.16210544 0.66020685 0.074330136 7.0990551e-39
0.17853892 0.63711345 0.063199498 3.9637002e-39
0.17081594 0.62100816 0.063211776 3.5012745e-39
0.17146099 0.59187591 0.060355112 5.0700408e-39
0.17056656 0.56910372 0.057487592 4.6072634e-39
0.1645416 0.5539149 0.056635492 3.7785817e-39
0.16301489 0.52844471 0.053712811 4.700538e-39
0.15906048 0.50086522 0.05033398 3.8700599e-39
0.15307319 0.48506331 0.05132518 4.6076123e-39
0.14714766 0.47026709 0.044608962 4.6972926e-39
0.074606538 0.87403649 0.084910788 1.1244284e-38
0.091822147 0.85014623 0.09105809 8.2965543e-39
0.11713052 0.81969255 0.08883708 6.8138362e-39
0.10552669 0.82727838 0.094383597 7.3742225e-39
0.13210571 0.79904348 0.096556023 8.2014538e-39
0.14027488 0.77212965 0.096849054 5.7139879e-39
0.15213895 0.74334276 0.096573569 5.8072541e-39
0.17590427 0.70542181 0.1058254 2.9481036e-39
0.16354489 0.71539688 0.095618434 5.0689688e-39
0.17982376 0.69340247 0.10666299 2.027578e-39
0.17148471 0.68449765 0.094196439 2.8562639e-39
0.15743196 0.66999936 0.081043564 4.0565825e-39
0.17077434 0.66227508 0.099538259 3.5038011e-39
0.15837061 0.64879024 0.091247782 3.4097992e-39
0.16430199 0.62117916 0.091381893 3.8707773e-39
0.159235 0.5887869 0.089153007 3.777853e-39
0.15997136 0.57017982 0.080548666 6.0834626e-39
0.15454137 0.55500257 0.085082747 4.516867e-39
0.15330172 0.52575308 0.081739947 4.8845719e-39
0.15363157 0.50280374 0.078175135 5.1618651e-39
0.14015961 0.48429301 0.076124415 4.2316509e-39
0.13279581 0.46778116 0.06827344 1.5387649e-38
0.12712431 0.45831406 0.068690233 2.341769e-38
0.083403111 0.84640342 0.10579724 1.3185062e-38
0.093787313 0.82039535 0.11160991 7.1923521e-39
0.12232256 0.79915231 0.11358828 7.744091e-39
0.13366163 0.7835688 0.11359148 1.05103e-38
0.16560626 0.64862168 0.11011817 1.1971069e-39
0.15245259 0.6391449 0.10935237 5.5425979e-40
0.15078616 0.61831754 0.10999671 2.8566184e-39
0.15255463 0.58766508 0.10821433 5.0685946e-39
0.14504516 0.57376516 0.11225837 1.6595199e-39
0.1435771 0.55377471 0.10784727 4.2388452e-39
0.13844359 0.52336073 0.10506565 4.5147048e-39
0.12620771 0.50927114 0.11496945 7.9284514e-39
0.14256763 0.50327307 0.10035323 5.8944022e-39
0.13163316 0.49200386 0.10307626 6.4443516e-39
