# .PCD v0.7 - Point Cloud Data file format
VERSION 0.7
FIELDS x y z rgb
SIZE 4 4 4 4
TYPE F F F F
COUNT 1 1 1 1
WIDTH 1026
HEIGHT 1
VIEWPOINT 0 0 0 1 0 0 0
POINTS 1026
DATA ascii
6.9319692 -5.0874691 -1.2168632 4.6097815e-40
6.9180756 -5.0614696 -1.2135849 3.6878252e-40
6.9064031 -5.0963535 -1.215914 3.6878252e-40
6.8897195 -5.0723019 -1.2173094 2.7658689e-40
6.8648176 -5.0815258 -1.2191716 3.6878252e-40
6.843009 -5.0881252 -1.2135849 3.6878252e-40
6.8292675 -5.0653181 -1.2261533 4.6097815e-40
6.8143897 -5.0399237 -1.2241254 3.6878252e-40
6.7964725 -4.9872074 -1.2470026 5.5317378e-40
6.6868801 -4.8935575 -1.2593566 3.6878252e-40
6.6829615 -4.8653259 -1.2835722 4.6097815e-40
6.6699381 -4.9008064 -1.2653757 3.6878252e-40
6.6486268 -4.9079628 -1.2633694 2.7658689e-40
6.6269665 -4.8833418 -1.2744571 2.7658689e-40
6.6063571 -4.8900375 -1.2714187 2.7658689e-40
6.5888605 -4.8962502 -1.2714187 2.7658689e-40
6.5709219 -4.8682461 -1.2777215 3.6878252e-40
6.5529656 -4.8404889 -1.2904763 2.7658689e-40
6.5397887 -4.807466 -1.291085 2.7658689e-40
6.9355488 -5.0214734 -1.1963569 3.6878252e-40
6.916872 -5.0580812 -1.1949624 3.6878252e-40
6.9139075 -5.0291581 -1.1963569 3.6878252e-40
6.9087224 -5.0894041 -1.1860181 2.7658689e-40
6.8898225 -5.0669231 -1.1912379 3.6878252e-40
6.8644433 -5.0762215 -1.1926346 3.6878252e-40
6.8486195 -5.0511866 -1.1907197 6.4536941e-40
6.8273425 -5.0598965 -1.1963569 4.6097815e-40
6.8045478 -5.0381746 -1.1985312 2.7658689e-40
6.7907171 -5.0425034 -1.1956873 3.6878252e-40
6.6894774 -4.9532337 -1.2175211 3.6878252e-40
6.673264 -4.9268417 -1.2294102 3.6878252e-40
6.6629949 -4.8995724 -1.2473184 3.6878252e-40
6.6438866 -4.9043846 -1.2376878 3.6878252e-40
6.617846 -4.9116583 -1.2280573 2.7658689e-40
6.5989547 -4.8876858 -1.2471117 3.6878252e-40
6.5868979 -4.8907223 -1.2410349 2.7658689e-40
6.5693359 -4.86378 -1.2531766 2.7658689e-40
6.5505633 -4.8337231 -1.2532915 2.7658689e-40
6.9303637 -5.0183096 -1.1719291 4.6097815e-40
6.9041033 -5.0561295 -1.1633043 4.6097815e-40
6.9120865 -5.0240297 -1.168171 6.4536941e-40
6.8880177 -5.061841 -1.1633043 5.5317378e-40
6.86657 -5.0694571 -1.1633043 4.6097815e-40
6.8471627 -5.0470839 -1.168171 4.6097815e-40
6.8321595 -5.0528731 -1.1704259 3.6878252e-40
6.8110824 -5.0306101 -1.1729368 4.6097815e-40
6.7959523 -5.0044956 -1.1722317 3.6878252e-40
6.780859 -4.9785066 -1.1774757 3.6878252e-40
6.7896147 -5.0393982 -1.1786244 4.6097815e-40
6.7853055 -5.0094528 -1.1779715 3.6878252e-40
6.692965 -4.9795446 -1.1884595 3.6878252e-40
6.6709528 -4.9549732 -1.1939058 3.6878252e-40
6.6494422 -4.9287052 -1.1972183 4.6097815e-40
6.6269593 -4.9355488 -1.1916543 2.7658689e-40
6.6064844 -4.911417 -1.2071911 2.7658689e-40
6.59095 -4.9165225 -1.2051847 2.7658689e-40
6.569644 -4.8914537 -1.2147022 2.7658689e-40
6.5499415 -4.8976192 -1.210651 4.6097815e-40
6.9214501 -5.0160847 -1.1456223 3.6878252e-40
6.9026594 -5.052063 -1.1409575 6.4536941e-40
6.9065371 -5.0198402 -1.1381061 5.5317378e-40
6.8862128 -5.0567589 -1.1353707 6.4536941e-40
6.8647652 -5.0643744 -1.1353707 7.3756504e-40
6.8453417 -5.0419555 -1.1399851 3.6878252e-40
6.8345213 -5.0457978 -1.1399851 2.7658689e-40
6.8147039 -5.0234976 -1.1444987 3.6878252e-40
6.7944689 -5.0003185 -1.1492722 3.6878252e-40
6.779736 -4.9753437 -1.1600939 2.7658689e-40
6.7015114 -5.0019336 -1.1543001 5.5317378e-40
6.6854634 -4.9762173 -1.1592199 4.6097815e-40
6.6575861 -4.9532681 -1.1624188 5.5317378e-40
6.6201301 -4.9332504 -1.1686033 4.6097815e-40
6.6013374 -4.9091344 -1.1871274 4.6097815e-40
6.5836177 -4.9141932 -1.1811082 2.7658689e-40
6.5608206 -4.8912663 -1.1984975 2.7658689e-40
6.5545387 -4.9239025 -1.1780987 2.7658689e-40
6.9001327 -5.0449476 -1.1018503 4.6097815e-40
6.9041162 -5.0153103 -1.1117992 4.6097815e-40
6.884047 -5.0506597 -1.1018503 3.6878252e-40
6.8638163 -5.0583014 -1.104085 2.7658689e-40
6.8460436 -5.0353537 -1.1089807 3.6878252e-40
6.8326998 -5.0406694 -1.1117992 3.6878252e-40
6.818325 -5.0163851 -1.1160607 3.6878252e-40
6.7981238 -4.9931412 -1.1205729 2.7658689e-40
6.7819681 -5.0000534 -1.1263127 3.6878252e-40
6.7000141 -4.9977169 -1.1311244 8.2976067e-40
6.6879134 -4.9688773 -1.1276408 7.3756504e-40
6.6677079 -4.9760523 -1.1276408 8.2976067e-40
6.6448555 -4.9533529 -1.1407715 1.9361082e-39
6.6491432 -4.9807272 -1.1182841 3.6878252e-40
6.6274753 -4.9583149 -1.1348677 3.6878252e-40
6.6104765 -4.9643512 -1.1348677 3.6878252e-40
6.5873852 -4.9390154 -1.1399883 3.6878252e-40
6.576674 -4.9129591 -1.1630509 2.7658689e-40
6.5559788 -4.9174891 -1.1492929 1.8439126e-40
6.547719 -4.9543219 -1.1459498 2.7658689e-40
6.8983283 -5.0398655 -1.0739167 4.6097815e-40
6.9033718 -5.0080671 -1.0751576 4.6097815e-40
6.88415 -5.0452814 -1.0757788 3.6878252e-40
6.8711963 -5.0186844 -1.0712116 3.6878252e-40
6.8665175 -5.0523057 -1.0795034 2.7658689e-40
6.846746 -5.0287523 -1.0779762 2.7658689e-40
6.8281403 -5.0094042 -1.0989978 3.6878252e-40
6.8247404 -5.0354109 -1.0723391 3.6878252e-40
6.8053255 -5.0143976 -1.0838308 2.7658689e-40
6.7966404 -4.9889636 -1.0976135 2.7658689e-40
6.7837353 -5.0228415 -1.0876226 3.6878252e-40
6.7801137 -4.994832 -1.0976135 4.6097815e-40
6.714983 -4.9525552 -1.0948923 9.219563e-40
6.6929107 -4.9615908 -1.1007402 5.5317378e-40
6.6648474 -4.9715562 -1.1007402 4.6097815e-40
6.6367846 -4.9815207 -1.1007402 3.6878252e-40
6.610466 -4.9904671 -1.0987909 3.6878252e-40
6.5915709 -4.9650164 -1.1053486 2.7658689e-40
6.5801229 -4.9367085 -1.1161425 3.6878252e-40
6.5679092 -4.9386024 -1.1042196 3.6878252e-40
6.5548253 -4.9124956 -1.1229235 2.7658689e-40
6.5327806 -4.8862829 -1.1255764 1.8439126e-40
6.8961625 -5.0337667 -1.0403962 5.5317378e-40
6.904438 -5.002491 -1.0497904 5.5317378e-40
6.8719764 -5.0140181 -1.0497903 3.6878252e-40
6.8449249 -5.0236235 -1.0497903 2.7658689e-40
6.8259354 -5.0031948 -1.064872 5.5317378e-40
6.8213587 -5.0316067 -1.0479113 2.7658689e-40
6.7979069 -5.0108175 -1.0534968 2.7658689e-40
6.7822657 -5.0187016 -1.064872 4.6097815e-40
6.7775178 -4.9875212 -1.0574343 3.6878252e-40
6.7622509 -4.9613724 -1.0615975 5.5317378e-40
6.7138495 -4.9493628 -1.0773484 9.219563e-40
6.6910214 -4.9562712 -1.0715004 4.6097815e-40
6.6629586 -4.9662361 -1.0715004 1.0141519e-39
6.6348953 -4.9762011 -1.0715004 3.6878252e-40
6.607955 -4.9857678 -1.0715003 3.6878252e-40
6.5879021 -4.9606748 -1.0777975 3.6878252e-40
6.5628109 -4.9363413 -1.084348 2.7658689e-40
6.5496778 -4.9102125 -1.1028597 2.7658689e-40
6.5312099 -4.8818603 -1.1012694 2.7658689e-40
6.8943577 -5.0286841 -1.0124626 5.5317378e-40
6.9029813 -4.9983883 -1.0272417 4.6097815e-40
6.8701553 -5.0088892 -1.0216044 8.2976067e-40
6.8431039 -5.0184956 -1.0216044 2.7658689e-40
6.82269 -5.026206 -1.0238594 2.7658689e-40
6.801651 -5.0040493 -1.0269547 2.7658689e-40
6.7973285 -4.9734306 -1.0229951 1.8439126e-40
6.7755823 -4.95189 -1.0384219 2.7658689e-40
6.7673311 -4.9219851 -1.0364126 2.7658689e-40
6.756484 -4.9270353 -1.0422605 3.6878252e-40
6.6988368 -4.9767675 -1.026834 5.5317378e-40
6.6865149 -4.9524794 -1.0451845 5.5317378e-40
6.6610694 -4.960916 -1.0422605 4.6097815e-40
6.6330061 -4.970881 -1.0422606 4.6097815e-40
6.6105556 -4.9788532 -1.0422605 1.8439126e-40
6.5867758 -4.9551072 -1.0486721 1.8439126e-40
6.5658545 -4.9644713 -1.0581181 2.7658689e-40
6.5587215 -4.930872 -1.0505664 2.7658689e-40
6.5419416 -4.9380522 -1.0565279 1.8439126e-40
6.8946338 -4.9329982 -0.9942959 3.6878252e-40
6.8929138 -5.0246181 -0.9901157 4.6097815e-40
6.8815718 -4.9694552 -0.99662066 4.6097815e-40
6.8781071 -4.9388666 -0.9942959 3.6878252e-40
6.8686986 -5.0047865 -0.99905574 3.6878252e-40
6.8593698 -4.9761734 -0.99093306 3.6878252e-40
6.846693 -5.011446 -0.99341857 2.7658689e-40
6.8292193 -4.9877129 -0.99499559 1.8439126e-40
6.8013539 -4.9672971 -1.0000358 2.7658689e-40
6.7775426 -4.9456539 -1.0113835 2.7658689e-40
6.7683005 -4.9790344 -1.0000358 3.6878252e-40
6.7585077 -4.9508305 -1.0036583 4.6097815e-40
6.6977139 -4.9736052 -1.0094522 4.6097815e-40
6.6720595 -4.9824772 -1.0082935 3.6878252e-40
6.6543231 -4.9597168 -1.0247167 4.6097815e-40
6.6298084 -4.9663253 -1.0144827 2.7658689e-40
6.603054 -4.9755259 -1.0130209 2.7658689e-40
6.580183 -4.9509163 -1.0167915 2.7658689e-40
6.5629025 -4.9245019 -1.0267205 1.8439126e-40
6.5392342 -4.8991222 -1.0306305 2.7658689e-40
6.5404015 -4.933713 -1.0326821 2.7658689e-40
6.5215149 -4.904181 -1.0246114 2.7658689e-40
6.8912172 -4.9013319 -0.9920705 5.5317378e-40
6.8877864 -4.869627 -0.98962897 5.5317378e-40
6.8766241 -4.9346895 -0.97133642 4.6097815e-40
6.8562026 -4.9730253 -0.97007847 3.6878252e-40
6.8486347 -4.9432168 -0.96444857 2.7658689e-40
6.828496 -4.982708 -0.96932012 2.7658689e-40
6.8091388 -4.9905143 -0.97387016 2.7658689e-40
6.792521 -4.9642591 -0.9699015 2.7658689e-40
6.7677574 -4.9416103 -0.97468877 3.6878252e-40
6.772697 -4.9739451 -0.98281616 4.6097815e-40
6.7570105 -4.9466133 -0.98048276 4.6097815e-40
6.713273 -4.9645185 -0.9920705 5.5317378e-40
6.7081823 -4.933403 -0.98962897 1.1063476e-39
6.7021699 -4.8991323 -0.97546488 5.5317378e-40
6.6958423 -4.9683342 -0.98048264 5.5317378e-40
6.6680388 -4.9782066 -0.98048264 5.5317378e-40
6.6411972 -4.9872632 -0.97816509 4.6097815e-40
6.6176248 -4.9631629 -0.97793305 2.7658689e-40
6.6235528 -4.9940033 -0.9804827 4.6097815e-40
6.6011648 -4.9702063 -0.98378104 1.8439126e-40
6.5843272 -4.9761848 -0.98378098 2.7658689e-40
6.5669436 -4.9495692 -0.9872725 1.8439126e-40
6.5541105 -4.9215164 -0.99691331 2.7658689e-40
6.5315132 -4.8956981 -1.0005349 2.7658689e-40
6.5199594 -4.8998003 -1.0005349 2.7658689e-40
6.8730569 -4.9304676 -0.9445504 4.6097815e-40
6.8573918 -4.9648342 -0.93216109 3.6878252e-40
6.8475962 -4.9402928 -0.94837695 2.7658689e-40
6.8287687 -4.976552 -0.93974447 2.7658689e-40
6.8138013 -4.9499407 -0.93689722 2.7658689e-40
6.7976456 -4.9568539 -0.94263709 2.7658689e-40
6.7714467 -4.9343653 -0.94571918 3.6878252e-40
6.7547646 -4.9402885 -0.94571924 5.5317378e-40
6.7353458 -4.9149709 -0.94674397 7.3756504e-40
6.7046762 -4.8942108 -0.95578545 4.6097815e-40
6.6876612 -4.9629292 -0.93992531 4.6097815e-40
6.6920729 -4.9325333 -0.95746523 5.5317378e-40
6.6657925 -4.9718819 -0.94571918 6.4536941e-40
6.637989 -4.9817548 -0.94571912 5.5317378e-40
6.6168694 -4.9610348 -0.96623713 2.7658689e-40
6.6209321 -4.9866242 -0.93992531 2.7658689e-40
6.5992756 -4.9648857 -0.95454121 2.7658689e-40
6.582438 -4.9708648 -0.95454121 2.7658689e-40
6.5650363 -4.9441986 -0.95775342 2.7658689e-40
6.5476074 -4.9177189 -0.96710598 2.7658689e-40
6.5334201 -4.8888545 -0.97043943 1.8439126e-40
6.5187926 -4.8965149 -0.98247761 2.7658689e-40
6.8677778 -4.9272461 -0.91967762 4.6097815e-40
6.8581729 -4.8964467 -0.91095573 3.6878252e-40
6.8600512 -4.9607825 -0.91699398 3.6878252e-40
6.8434114 -4.9343309 -0.91202444 2.7658689e-40
6.8272991 -4.9724121 -0.91699404 1.8439126e-40
6.819416 -4.9424591 -0.91011119 2.7658689e-40
6.800961 -4.9175529 -0.91481835 2.7658689e-40
6.7965331 -4.9537206 -0.92541748 2.7658689e-40
6.775136 -4.9271197 -0.9167496 3.6878252e-40
6.7433147 -4.9077482 -0.92530137 5.5317378e-40
6.7217836 -4.8824911 -0.9282344 7.3756504e-40
6.7051148 -4.8532391 -0.92537576 5.5317378e-40
6.7040262 -4.9216986 -0.92530137 5.5317378e-40
6.7066736 -4.8878565 -0.9282344 1.0141519e-39
6.6917248 -4.9567385 -0.91674966 6.4536941e-40
6.6639209 -4.9666109 -0.9167496 7.3756504e-40
6.636117 -4.9764838 -0.91674966 6.4536941e-40
6.6138744 -4.9843822 -0.91674966 2.7658689e-40
6.591774 -4.9615588 -0.92530137 2.7658689e-40
6.5805488 -4.9655447 -0.92530137 1.8439126e-40
6.562748 -4.9377537 -0.92233056 3.6878252e-40
6.5494962 -4.9109411 -0.93729866 2.7658689e-40
6.5350089 -4.9185281 -0.94922161 2.7658689e-40
6.8511147 -4.8942041 -0.88778013 4.6097815e-40
6.836462 -4.8674831 -0.89021367 3.6878252e-40
6.8318391 -4.9016428 -0.89067703 2.7658689e-40
6.8066287 -4.9100013 -0.88778001 2.7658689e-40
6.7732644 -4.9218488 -0.88778001 3.6878252e-40
6.7502723 -4.9276385 -0.87619227 4.6097815e-40
6.7358131 -4.9044209 -0.8960616 5.5317378e-40
6.7013817 -4.9142504 -0.88436568 6.4536941e-40
6.7048936 -4.882843 -0.90068328 5.5317378e-40
6.6892686 -4.9835773 -0.88523841 4.6097815e-40
6.6924462 -4.9499531 -0.88488311 1.1985432e-39
6.6778803 -4.9864454 -0.8794986 2.9502602e-39
6.6606593 -4.961834 -0.88778001 7.3756504e-40
6.6342459 -4.9712133 -0.88778001 4.6097815e-40
6.606442 -4.9810858 -0.88778001 1.8439126e-40
6.5756645 -4.9606895 -0.89313763 2.7658689e-40
6.5537944 -4.9364977 -0.90068328 2.7658689e-40
6.8349509 -4.8632269 -0.86682183 4.6097815e-40
6.8270001 -4.896832 -0.85881054 3.6878252e-40
6.8047571 -4.9047308 -0.85881048 1.8439126e-40
6.7713928 -4.9165783 -0.85881048 3.6878252e-40
6.7435889 -4.9264507 -0.85881054 5.5317378e-40
6.7226987 -4.9030867 -0.86682183 1.4751301e-39
6.7038641 -4.9093752 -0.86487246 5.5317378e-40
6.7073994 -4.8779211 -0.88100392 5.5317378e-40
6.6874146 -4.9783554 -0.85653913 5.5317378e-40
6.6897101 -4.9451866 -0.85687929 4.6097815e-40
6.6763968 -4.9822679 -0.85653913 4.6097815e-40
6.6578784 -4.9566479 -0.85765177 7.3756504e-40
6.642602 -4.9919162 -0.84505939 4.6097815e-40
6.6306448 -4.9669514 -0.86074191 4.6097815e-40
6.6045704 -4.9758153 -0.85881048 2.7658689e-40
6.5823274 -4.9837132 -0.85881054 2.7658689e-40
6.5616779 -4.9598646 -0.86487246 1.8439126e-40
6.839067 -4.9162731 -0.81636006 4.6097815e-40
6.8280959 -4.8911009 -0.83273792 3.6878252e-40
6.8043694 -4.8992295 -0.83128935 1.8439126e-40
6.7874055 -4.8717227 -0.82588607 1.8439126e-40
6.7728052 -4.91048 -0.8314963 3.6878252e-40
6.7541075 -4.8847446 -0.83173406 4.6097815e-40
6.7417173 -4.9211798 -0.8298409 9.219563e-40
6.7208095 -4.8977671 -0.83758199 1.1985432e-39
6.7039719 -4.9037457 -0.83758199 5.5317378e-40
6.6861095 -4.9409256 -0.8298409 7.3756504e-40
6.6670737 -4.9793062 -0.82592648 5.5317378e-40
6.6583061 -4.950798 -0.82984096 1.1063476e-39
6.6408219 -4.9869032 -0.81750804 8.2976067e-40
6.6253161 -4.9637003 -0.83563489 3.6878252e-40
6.6161432 -4.9960194 -0.81922996 2.7658689e-40
6.5961752 -4.9733353 -0.83215851 1.8439126e-40
6.5804558 -4.9784422 -0.82984102 1.8439126e-40
6.5580435 -4.9555635 -0.83758199 1.8439126e-40
6.8307948 -4.8515224 -0.80249423 3.6878252e-40
6.8267164 -4.8186188 -0.79835057 6.4536941e-40
6.8347526 -4.8833952 -0.8066653 4.6097815e-40
6.8143349 -4.8585658 -0.80834222 2.7658689e-40
6.7885923 -4.8679466 -0.80951172 1.8439126e-40
6.7674623 -4.905509 -0.79797447 3.6878252e-40
6.752974 -4.8815527 -0.81419015 6.4536941e-40
6.7342849 -4.9178834 -0.80087143 1.1063476e-39
6.7301455 -4.8884606 -0.80834222 1.0141519e-39
6.7005463 -4.9286766 -0.7950775 5.5317378e-40
6.7040792 -4.8981161 -0.81029153 5.5317378e-40
6.6833353 -4.9668674 -0.79340059 4.6097815e-40
6.6897988 -4.9336801 -0.80087143 1.751717e-39
6.6668086 -4.9727364 -0.79340059 4.6097815e-40
6.6392641 -4.9825168 -0.79340059 4.6097815e-40
6.6227007 -5.0194268 -0.79186642 3.6878252e-40
6.6097603 -4.9926019 -0.79148728 2.7658689e-40
6.5897055 -4.9692221 -0.80087143 1.8439126e-40
6.5785837 -4.9731712 -0.80087143 1.8439126e-40
6.5561547 -4.9502435 -0.80834222 2.7658689e-40
6.538939 -4.9551582 -0.80249423 2.7658689e-40
6.5143223 -4.8965597 -0.80614656 2.7658689e-40
6.8206363 -4.878911 -0.76031405 3.6878252e-40
6.8148203 -4.8540001 -0.78689969 3.6878252e-40
6.7973394 -4.8888793 -0.76859099 2.7658689e-40
6.7963638 -4.8613529 -0.79079831 2.7658689e-40
6.7657776 -4.9007654 -0.77190179 3.6878252e-40
6.7379742 -4.9106383 -0.77190179 7.3756504e-40
6.7177868 -4.8892546 -0.79079831 5.5317378e-40
6.7086864 -4.9207411 -0.77045333 1.1985432e-39
6.6871753 -4.9602118 -0.76757121 1.8439126e-39
6.6879272 -4.9284096 -0.77190185 5.5317378e-40
6.6745319 -4.9922819 -0.74920928 8.2976067e-40
6.6636124 -4.9695592 -0.77235442 3.6878252e-40
6.6374102 -4.9772949 -0.76470137 3.6878252e-40
6.6157455 -4.9861641 -0.77044111 2.7658689e-40
6.5956707 -4.9608297 -0.77024639 2.7658689e-40
6.5737448 -4.9683609 -0.76900488 1.8439126e-40
6.5532942 -4.9457479 -0.78144151 2.7658689e-40
6.5344324 -4.9513669 -0.77617842 2.7658689e-40
6.5199776 -4.9251194 -0.78654295 1.8439126e-40
6.8209991 -4.9373598 -0.73499024 4.6097815e-40
6.8043709 -4.9117365 -0.73408866 3.6878252e-40
6.7787867 -4.9212136 -0.73600197 2.7658689e-40
6.7567511 -4.929038 -0.73600197 6.4536941e-40
6.7361021 -4.9053669 -0.74293232 1.1063476e-39
6.7082987 -4.9152403 -0.74293226 4.6097815e-40
6.6906447 -4.9525118 -0.73600197 4.6097815e-40
6.6732459 -4.9886603 -0.72930259 7.3756504e-40
6.6476493 -4.9973602 -0.7274068 7.3756504e-40
6.6304178 -4.9750738 -0.74174184 1.1063476e-39
6.6292086 -5.0031319 -0.72361499 2.7658689e-40
6.609724 -4.980854 -0.73408866 2.7658689e-40
6.591897 -4.9577599 -0.74872619 1.8439126e-40
6.5800962 -4.990591 -0.7302621 1.8439126e-40
6.569654 -4.9656582 -0.74872619 2.7658689e-40
6.5525975 -4.9705276 -0.74293232 2.7658689e-40
6.531671 -4.9465561 -0.7479133 2.7658689e-40
6.5136576 -4.9193001 -0.74718422 1.8439126e-40
6.5001831 -4.8930302 -0.76441634 2.7658689e-40
6.8213744 -4.9013872 -0.7130425 4.6097815e-40
6.8168931 -4.8683691 -0.70237488 1.0141519e-39
6.8044767 -4.9062109 -0.70730263 3.6878252e-40
6.7842774 -4.8823252 -0.71396273 3.6878252e-40
6.7840304 -4.9126873 -0.70347607 3.6878252e-40
6.7607379 -4.8909807 -0.71541113 3.6878252e-40
6.7342305 -4.9000964 -0.71396267 4.6097815e-40
6.7079105 -4.909739 -0.71541113 6.4536941e-40
6.6925082 -4.9736624 -0.68948925 5.5317378e-40
6.6924629 -4.9459863 -0.70730263 8.2976067e-40
6.6784248 -5.0094051 -0.6918298 5.5317378e-40
6.6826935 -4.9806437 -0.70655209 4.6097815e-40
6.6555219 -5.0178261 -0.69323909 4.6097815e-40
6.6393909 -4.9971857 -0.71223974 3.6878252e-40
6.6318908 -5.0241961 -0.68337405 2.7658689e-40
6.6166987 -5.0025244 -0.69896865 2.7658689e-40
6.6068993 -4.9787216 -0.71878237 2.7658689e-40
6.5842524 -5.0150166 -0.70370829 2.7658689e-40
6.5784645 -4.9859953 -0.70500672 1.8439126e-40
6.5477586 -4.9657173 -0.71106577 1.8439126e-40
6.5299077 -4.9415908 -0.72062284 2.7658689e-40
6.5083542 -4.9163446 -0.72356904 2.7658689e-40
6.8329654 -4.9191265 -0.66673881 1.1063476e-39
6.819149 -4.8951206 -0.67860329 4.6097815e-40
6.8026228 -4.9009895 -0.67860329 4.6097815e-40
6.778378 -4.9385095 -0.66673887 3.6878252e-40
6.7754493 -4.9118147 -0.68434316 4.6097815e-40
6.7445941 -4.9210072 -0.67573339 5.5317378e-40
6.7327332 -4.8958797 -0.69078708 6.4536941e-40
6.7128735 -4.9617701 -0.66673881 4.6097815e-40
6.7164407 -4.9319839 -0.6805166 6.4536941e-40
6.6992073 -4.9964428 -0.6645835 4.6097815e-40
6.7026911 -4.9677162 -0.67811406 4.6097815e-40
6.6889524 -5.0283642 -0.65491194 4.6097815e-40
6.6778088 -5.0048113 -0.66834158 4.6097815e-40
6.6524391 -5.0134344 -0.66646254 5.5317378e-40
6.6270695 -5.0220585 -0.6645835 1.8439126e-40
6.6078281 -5.0006247 -0.67432237 2.7658689e-40
6.5893874 -5.0063953 -0.67053062 1.8439126e-40
6.5695372 -4.984148 -0.6805166 2.7658689e-40
6.5377331 -4.9639359 -0.68499309 1.8439126e-40
6.5151157 -4.9707794 -0.67919928 1.8439126e-40
6.822804 -4.8879428 -0.64990401 7.3756504e-40
6.8034673 -4.9226093 -0.63261306 4.6097815e-40
6.8011394 -4.8968115 -0.65564382 4.6097815e-40
6.7783651 -4.934145 -0.64541024 4.6097815e-40
6.7689166 -4.9639897 -0.6270023 5.5317378e-40
6.7505593 -4.9432602 -0.64171326 5.5317378e-40
6.7350326 -4.9202857 -0.65564382 5.5317378e-40
6.7209563 -4.9542389 -0.64398831 6.4536941e-40
6.6993113 -4.9910164 -0.6382767 5.5317378e-40
6.6875091 -5.0242982 -0.63256502 4.6097815e-40
6.6722593 -5.0006218 -0.6382767 4.6097815e-40
6.6506181 -5.0083065 -0.6382767 4.6097815e-40
6.6235666 -5.0179124 -0.6382767 2.7658689e-40
6.6022291 -4.9963975 -0.64398837 1.8439126e-40
6.5907407 -5.0284138 -0.63263953 1.8439126e-40
6.5860367 -5.0027299 -0.64683211 2.7658689e-40
6.5638866 -4.9798822 -0.64990401 1.8439126e-40
6.535861 -4.9586649 -0.65602356 1.8439126e-40
6.5074205 -4.9375939 -0.66214323 1.8439126e-40
6.8338957 -4.8457127 -0.62126011 4.6097815e-40
6.8238897 -4.8822651 -0.62407458 6.4536941e-40
6.8227739 -4.8496614 -0.62126011 5.5317378e-40
6.8023648 -4.9195046 -0.61555022 7.3756504e-40
6.7821302 -4.9554482 -0.60821176 3.6878252e-40
6.786356 -4.9263544 -0.62123787 5.5317378e-40
6.7570033 -4.9647551 -0.61009079 5.5317378e-40
6.7299519 -4.9743605 -0.61009079 5.5317378e-40
6.7051373 -4.9834032 -0.61121821 5.5317378e-40
6.6891584 -5.0176077 -0.60276914 5.5317378e-40
6.6704383 -4.9954934 -0.61009079 6.4536941e-40
6.648797 -5.0031776 -0.61009079 4.6097815e-40
6.6184268 -5.0137315 -0.60896337 3.6878252e-40
6.6007595 -4.9922581 -0.62123787 2.7658689e-40
6.5889196 -5.0232854 -0.60445362 1.8439126e-40
6.5760112 -5.0004635 -0.61839402 1.8439126e-40
6.545506 -4.9805288 -0.62120467 1.8439126e-40
6.5228682 -4.9573431 -0.62705404 1.8439126e-40
6.5113721 -4.9602375 -0.62126011 1.8439126e-40
6.5059094 -4.9333382 -0.63875139 2.7658689e-40
6.8466396 -4.8677187 -0.59250534 4.6097815e-40
6.8387074 -4.8416295 -0.60967231 4.6097815e-40
6.8301983 -4.9306793 -0.57063061 5.5317378e-40
6.8329124 -4.9016657 -0.58142453 1.0141519e-39
6.825099 -4.876936 -0.60015851 4.6097815e-40
6.812407 -4.937767 -0.57438868 4.6097815e-40
6.8118124 -4.9114885 -0.59279978 4.6097815e-40
6.7835069 -4.9772377 -0.56924874 7.3756504e-40
6.7914939 -4.9475031 -0.58566308 4.6097815e-40
6.764328 -4.9855738 -0.57669771 4.6097815e-40
6.7407804 -5.0208616 -0.56041795 6.4536941e-40
6.7392569 -4.9951305 -0.57989013 4.6097815e-40
6.7195263 -5.028409 -0.56041795 4.6097815e-40
6.7110701 -5.00563 -0.58228445 5.5317378e-40
6.6876454 -5.0397291 -0.56041795 5.5317378e-40
6.6842604 -5.0151501 -0.58228445 4.6097815e-40
6.6530538 -5.0244322 -0.57350534 4.6097815e-40
6.6422944 -5.0020223 -0.59317929 3.6878252e-40
6.6262245 -5.0330868 -0.56924874 2.7658689e-40
6.6127872 -5.0115757 -0.58866954 2.7658689e-40
6.6081109 -5.0387564 -0.56552428 5.5317378e-40
6.5874629 -5.0191827 -0.58190495 1.8439126e-40
6.5712318 -5.0249462 -0.58190495 1.8439126e-40
6.5519714 -5.0020075 -0.58426833 1.8439126e-40
6.5330052 -4.9802637 -0.5982452 1.8439126e-40
6.5323148 -5.0072393 -0.57573688 2.7658689e-40
6.5157366 -4.9840441 -0.58676547 1.8439126e-40
6.5106235 -4.9581294 -0.60967231 2.7658689e-40
6.8475919 -4.9479952 -0.53759062 6.4536941e-40
6.8402905 -4.9247856 -0.55935627 5.5317378e-40
6.8207822 -4.9575148 -0.53759062 5.5317378e-40
6.8132391 -4.934391 -0.55935627 5.5317378e-40
6.7889719 -4.9699554 -0.54317737 5.5317378e-40
6.7655592 -5.0063915 -0.53273654 6.4536941e-40
6.7628841 -4.9815083 -0.55435079 6.4536941e-40
6.7424946 -5.0416784 -0.52256823 5.5317378e-40
6.7446632 -5.014946 -0.5382728 6.4536941e-40
6.7467985 -4.9872198 -0.55435079 4.6097815e-40
6.7306948 -5.0741005 -0.51793605 7.3756504e-40
6.7221365 -5.051156 -0.53354347 5.5317378e-40
6.718811 -5.0263944 -0.54934537 6.4536941e-40
6.7098141 -5.0815153 -0.51793605 4.6097815e-40
6.6938105 -5.0604649 -0.52988505 7.3756504e-40
6.6869302 -5.037715 -0.54934537 9.219563e-40
6.6796474 -5.0651197 -0.52805585 5.5317378e-40
6.6592898 -5.0441265 -0.53273654 5.5317378e-40
6.6474228 -5.021935 -0.55155748 7.3756504e-40
6.6429915 -5.04878 -0.52720028 3.6878252e-40
6.6227531 -5.0289783 -0.54317737 4.6097815e-40
6.5971937 -5.0377679 -0.54178065 3.6878252e-40
6.5805955 -5.0170012 -0.55935627 1.8439126e-40
6.5645728 -5.0199189 -0.54582703 1.8439126e-40
6.5446754 -4.9987717 -0.55583024 1.8439126e-40
6.5249004 -4.9749098 -0.55806613 2.7658689e-40
6.518002 -4.9436388 -0.5517332 2.7658689e-40
6.53158 -5.0051699 -0.56436169 1.8439126e-40
6.5006199 -4.9184418 -0.55687994 2.7658689e-40
6.8695292 -5.018115 -0.48530209 1.3829344e-39
6.8541002 -4.9692798 -0.50505513 5.5317378e-40
6.844481 -4.9449024 -0.51710594 6.4536941e-40
6.8193388 -4.9534492 -0.51524371 6.4536941e-40
6.7903385 -4.9919214 -0.50505513 7.3756504e-40
6.7900286 -4.9644289 -0.51803708 4.6097815e-40
6.7672453 -5.0010285 -0.50948417 4.6097815e-40
6.748188 -5.0080223 -0.51059139 6.4536941e-40
6.7276297 -5.0968513 -0.48651475 8.2976067e-40
6.7375927 -5.0675125 -0.49773407 1.0141519e-39
6.7102633 -5.1026497 -0.48471737 4.6097815e-40
6.7036099 -5.0805979 -0.50270689 5.5317378e-40
6.6962304 -5.1068959 -0.48112258 3.6878252e-40
6.6816053 -5.0848455 -0.48530209 5.5317378e-40
6.6690969 -5.0632448 -0.50061756 5.5317378e-40
6.6525455 -5.0419846 -0.51059139 1.0141519e-39
6.6370339 -5.0181837 -0.51524371 4.6097815e-40
6.6209483 -5.0238957 -0.51524371 3.6878252e-40
6.5966392 -5.0319557 -0.51245034 5.5317378e-40
6.5838208 -5.0089264 -0.5255332 2.7658689e-40
6.5618153 -5.0155849 -0.51989603 1.8439126e-40
6.5399251 -4.9940495 -0.52454835 2.7658689e-40
6.5168791 -4.9404764 -0.53435147 2.7658689e-40
6.5057573 -4.9444256 -0.53435147 1.8439126e-40
6.8653522 -4.9868097 -0.46769178 1.3829344e-39
6.8562117 -4.9639926 -0.48290998 4.6097815e-40
6.8416624 -4.9397988 -0.48731008 4.6097815e-40
6.817534 -4.9483666 -0.48731008 6.4536941e-40
6.7995348 -4.984118 -0.48290998 4.6097815e-40
6.7854657 -4.9600811 -0.48890629 5.5317378e-40
6.7645154 -4.9962292 -0.48132819 5.5317378e-40
6.7494826 -5.0279541 -0.46769178 5.5317378e-40
6.7467575 -5.003993 -0.48844627 5.5317378e-40
6.7262363 -5.092927 -0.46494612 5.5317378e-40
6.7379723 -5.0614872 -0.46898508 6.4536941e-40
6.710711 -5.0984402 -0.46494612 5.5317378e-40
6.6951852 -5.1039529 -0.46494612 5.5317378e-40
6.6753311 -5.0837307 -0.46898508 5.5317378e-40
6.6553893 -5.0636144 -0.47866708 4.6097815e-40
6.6593189 -5.0883017 -0.4635461 5.5317378e-40
6.6445012 -5.0663562 -0.47317943 3.6878252e-40
6.6330452 -5.0432367 -0.48290998 4.6097815e-40
6.616643 -5.0202737 -0.49010345 3.6878252e-40
6.5923338 -5.0283332 -0.48731008 3.6878252e-40
6.5599942 -5.0104566 -0.49171019 1.8439126e-40
6.538455 -4.9899101 -0.50179785 1.8439126e-40
6.5314679 -4.9584656 -0.48918778 2.7658689e-40
6.515007 -4.935205 -0.50538194 1.8439126e-40
6.5031371 -4.9370461 -0.49379408 1.8439126e-40
6.8575416 -4.9250031 -0.44261625 1.6595213e-39
6.8615079 -4.9564404 -0.45522857 1.0141519e-39
6.8421779 -4.9327478 -0.45378968 5.5317378e-40
6.8230362 -4.9694209 -0.45190677 5.5317378e-40
6.8153682 -4.9422674 -0.45378968 1.3829344e-39
6.797184 -4.977499 -0.44652867 5.5317378e-40
6.7760477 -4.9562302 -0.45378968 4.6097815e-40
6.7691317 -5.0164795 -0.44574121 6.4536941e-40
6.7620845 -4.9909887 -0.4515377 8.2976067e-40
6.7518754 -5.0509777 -0.4417901 5.5317378e-40
6.7447896 -5.0258722 -0.44939962 4.6097815e-40
6.7241459 -5.0870404 -0.43259317 4.6097815e-40
6.7327352 -5.0577745 -0.4417901 7.3756504e-40
6.711731 -5.0931063 -0.4406814 4.6097815e-40
6.6941032 -5.0703783 -0.43635109 5.5317378e-40
6.6886168 -5.1018658 -0.44337749 5.5317378e-40
6.6725297 -5.0791531 -0.4417901 5.5317378e-40
6.6579137 -5.084343 -0.4417901 4.6097815e-40
6.6427288 -5.0613637 -0.44574121 6.4536941e-40
6.622963 -5.0395575 -0.44747776 4.6097815e-40
6.6123381 -5.0166512 -0.46496314 3.6878252e-40
6.6061029 -5.0459986 -0.44969228 2.7658689e-40
6.5888281 -5.0227103 -0.45378968 2.7658689e-40
6.5687208 -5.02985 -0.45378968 2.7658689e-40
6.5523987 -5.0062237 -0.45788711 2.7658689e-40
6.5358829 -4.982666 -0.46198454 2.7658689e-40
6.5252175 -4.9583325 -0.47770804 2.7658689e-40
6.5249653 -4.9865427 -0.46198454 1.8439126e-40
6.5020142 -4.9338837 -0.47641233 2.7658689e-40
6.8568196 -4.9229698 -0.43144277 5.5317378e-40
6.8536906 -4.9512758 -0.41647455 5.5317378e-40
6.838706 -4.9286389 -0.42771828 4.6097815e-40
6.8221674 -4.963604 -0.42201084 5.5317378e-40
6.7955999 -4.9730377 -0.42201084 4.6097815e-40
6.770668 -4.9524174 -0.42585602 4.6097815e-40
6.7584057 -4.9862452 -0.42201084 5.5317378e-40
6.7459373 -5.0179691 -0.41281536 5.5317378e-40
6.7275796 -5.0802975 -0.40563241 4.6097815e-40
6.739327 -5.048748 -0.40915611 7.3756504e-40
6.7068787 -5.0876484 -0.40563241 5.5317378e-40
6.6861782 -5.0949984 -0.40563238 5.5317378e-40
6.6725097 -5.0724745 -0.40915611 5.5317378e-40
6.6558051 -5.0784059 -0.40915611 4.6097815e-40
6.6406012 -5.0553732 -0.41281536 3.6878252e-40
6.620255 -5.0353012 -0.42201084 4.6097815e-40
6.6039572 -5.0399542 -0.41647455 3.6878252e-40
6.5862913 -5.018117 -0.42697337 2.7658689e-40
6.567277 -5.0257845 -0.43144277 1.8439126e-40
6.5506992 -5.0014372 -0.43158031 1.8439126e-40
6.5378075 -4.9765444 -0.43544239 2.7658689e-40
6.5293007 -5.0098057 -0.43533844 1.8439126e-40
6.5234957 -4.9824038 -0.43923405 1.8439126e-40
6.4993935 -4.9265041 -0.43585494 2.7658689e-40
6.8553758 -4.9189043 -0.40909585 4.6097815e-40
6.8596797 -4.9708343 -0.37988952 5.5317378e-40
6.8432851 -4.9500556 -0.39248401 5.5317378e-40
6.8446522 -4.9227123 -0.40909585 4.6097815e-40
6.8203793 -4.9585676 -0.39432943 4.6097815e-40
6.8070116 -4.9895363 -0.37988952 6.4536941e-40
6.7940159 -4.9685769 -0.397493 4.6097815e-40
6.7721357 -5.0026693 -0.38354796 6.4536941e-40
6.7664676 -4.9786186 -0.39875844 5.5317378e-40
6.7494316 -5.011107 -0.38537717 4.6097815e-40
6.7254891 -5.0744109 -0.37327942 6.4536941e-40
6.7375698 -5.0437999 -0.38196111 5.5317378e-40
6.7030783 -5.1076145 -0.35934615 9.219563e-40
6.7059627 -5.0817862 -0.37543631 7.3756504e-40
6.6849837 -5.0883522 -0.3711226 9.219563e-40
6.6680856 -5.0688448 -0.3837741 4.6097815e-40
6.654048 -5.0734577 -0.38196111 6.4536941e-40
6.6335621 -5.0522513 -0.38537717 5.5317378e-40
6.6171722 -5.0322371 -0.40171114 5.5317378e-40
6.622376 -5.0835896 -0.37652209 4.6097815e-40
6.6025262 -5.0359254 -0.39432946 3.6878252e-40
6.5811968 -5.0139732 -0.3979224 2.7658689e-40
6.5568719 -4.9930859 -0.40151539 1.8439126e-40
6.5397315 -4.9704232 -0.40890014 1.8439126e-40
6.5191784 -4.9471488 -0.41265625 2.7658689e-40
6.4982705 -4.9233418 -0.41847321 2.7658689e-40
6.8529949 -4.9687109 -0.35793895 5.5317378e-40
6.8432822 -4.9436283 -0.36111173 4.6097815e-40
6.8210392 -4.9789333 -0.35245129 4.6097815e-40
6.8189483 -4.9545383 -0.37218428 5.5317378e-40
6.7999721 -4.986414 -0.35245129 4.6097815e-40
6.7921424 -4.9633007 -0.36849344 6.4536941e-40
6.7737565 -4.996098 -0.35428047 5.5317378e-40
6.7658134 -4.9734058 -0.37218428 6.4536941e-40
6.7492647 -5.032589 -0.34751409 4.6097815e-40
6.749887 -5.0068221 -0.3652558 5.5317378e-40
6.7289224 -5.067668 -0.34631866 4.6097815e-40
6.736516 -5.0408311 -0.36564413 4.6097815e-40
6.7075181 -5.1038475 -0.34865552 1.0141519e-39
6.7026982 -5.0758753 -0.3409265 5.5317378e-40
6.6791711 -5.085113 -0.34524021 5.5317378e-40
6.6630826 -5.0657921 -0.36020511 3.6878252e-40
6.6447334 -5.0708752 -0.35321212 5.5317378e-40
6.6212554 -5.0509996 -0.35793895 6.4536941e-40
6.6216736 -5.0816107 -0.36564413 3.6878252e-40
6.606164 -5.0586066 -0.36891425 2.7658689e-40
6.5938606 -5.0317426 -0.35889721 2.7658689e-40
6.5736694 -5.0097785 -0.36440203 1.8439126e-40
6.5629458 -5.0135865 -0.36440203 1.8439126e-40
6.5412884 -4.9632673 -0.37667027 1.8439126e-40
6.5255346 -4.9417562 -0.39734995 2.7658689e-40
6.8376985 -4.9399405 -0.33343029 4.6097815e-40
6.8147092 -4.977808 -0.33598837 5.5317378e-40
6.8180966 -4.9465227 -0.33158487 8.2976067e-40
6.8041754 -4.9815483 -0.33598837 5.5317378e-40
6.7876801 -4.9574742 -0.33232304 4.6097815e-40
6.7646737 -5.020803 -0.31669313 5.5317378e-40
6.7694092 -4.9922075 -0.32775688 5.5317378e-40
6.7493649 -5.0273533 -0.32213211 5.5317378e-40
6.7271805 -5.0627623 -0.31935787 6.4536941e-40
6.7098856 -5.0942454 -0.305893 6.4536941e-40
6.7004089 -5.072711 -0.32151473 3.6878252e-40
6.6897097 -5.1025047 -0.31123829 5.5317378e-40
6.6725712 -5.082469 -0.32089847 4.6097815e-40
6.6540318 -5.0865278 -0.30857354 5.5317378e-40
6.6385255 -5.0669899 -0.32349184 4.6097815e-40
6.6138616 -5.0468788 -0.3250131 6.4536941e-40
6.6026187 -5.0486221 -0.3140378 4.6097815e-40
6.5932784 -5.0267315 -0.33343029 2.7658689e-40
6.5718646 -5.0046959 -0.33646837 1.8439126e-40
6.5523286 -4.9831491 -0.34514365 1.8439126e-40
6.539084 -4.957058 -0.34254456 1.8439126e-40
6.5225677 -4.9334011 -0.35143104 1.8439126e-40
6.4732118 -4.9792833 -0.33685693 1.8439126e-40
6.4777551 -4.9469614 -0.33995131 2.7658689e-40
6.4622941 -4.98316 -0.33685693 2.7658689e-40
6.8376813 -4.9342747 -0.30574888 5.5317378e-40
6.8388767 -4.9064484 -0.3197082 5.5317378e-40
6.8227606 -4.9670787 -0.29757488 6.4536941e-40
6.8174915 -4.9420109 -0.30851701 5.5317378e-40
6.809195 -4.9971933 -0.27862015 4.6097815e-40
6.7964268 -4.9764299 -0.29757488 5.5317378e-40
6.7888041 -4.9538989 -0.31682143 4.6097815e-40
6.7669525 -5.0139761 -0.28732255 5.5317378e-40
6.7772331 -4.9836197 -0.29940408 5.5317378e-40
6.7472568 -5.0214157 -0.28949812 5.5317378e-40
6.7302656 -5.0550385 -0.28700495 4.6097815e-40
6.7098727 -5.0901427 -0.28584805 5.5317378e-40
6.6823573 -5.1079998 -0.28135702 5.5317378e-40
6.6636848 -5.0808897 -0.29778925 4.6097815e-40
6.6455059 -5.0843992 -0.28341016 4.6097815e-40
6.6311426 -5.0641327 -0.29675013 5.5317378e-40
6.6124434 -5.0428848 -0.30306253 3.6878252e-40
6.6105399 -5.0953422 -0.27622062 5.5317378e-40
6.608572 -5.0695472 -0.28405914 3.6878252e-40
6.5962882 -5.0474973 -0.29757488 3.6878252e-40
6.5828724 -5.0255113 -0.30943972 3.6878252e-40
6.5707817 -5.001647 -0.3197082 2.7658689e-40
6.5742898 -5.080606 -0.27862015 2.7658689e-40
6.5695996 -5.0558491 -0.29208726 2.7658689e-40
6.5593362 -5.0034218 -0.30853474 1.8439126e-40
6.5431724 -4.9802408 -0.31507871 1.8439126e-40
6.5325227 -4.9558916 -0.32548171 1.8439126e-40
6.5376396 -5.0385485 -0.2946763 2.7658689e-40
6.5157189 -5.0166206 -0.29736128 3.6878252e-40
6.4989185 -4.9928751 -0.30004627 1.8439126e-40
6.4876604 -4.9399166 -0.32273173 1.8439126e-40
6.4656248 -4.947741 -0.32273173 1.8439126e-40
6.4362998 -4.9251661 -0.31997669 1.8439126e-40
6.8458028 -4.9540243 -0.2737951 5.5317378e-40
6.8436756 -4.9230719 -0.26145861 5.5317378e-40
6.8290215 -4.9868097 -0.26230311 5.5317378e-40
6.8269639 -4.962213 -0.28111196 5.5317378e-40
6.8029208 -4.996078 -0.26230311 4.6097815e-40
6.7900963 -4.9753046 -0.28111196 5.5317378e-40
6.768003 -5.0081053 -0.26049012 4.6097815e-40
6.7735868 -4.9789181 -0.27013668 4.6097815e-40
6.743701 -5.0436387 -0.25465196 5.5317378e-40
6.7473569 -5.01618 -0.26411614 5.5317378e-40
6.7262621 -5.0752878 -0.24174918 8.2976067e-40
6.7293496 -5.0491767 -0.25680885 4.6097815e-40
6.7136998 -5.1329527 -0.23767526 4.6097815e-40
6.7143145 -5.0927887 -0.25370905 4.6097815e-40
6.6985683 -5.1383257 -0.23767526 5.5317378e-40
6.6847296 -5.1091118 -0.25243548 5.5317378e-40
6.6612463 -5.0740223 -0.26004416 3.6878252e-40
6.6493282 -5.1122036 -0.24463376 4.6097815e-40
6.6433077 -5.0809445 -0.26274022 4.6097815e-40
6.6333394 -5.1625643 -0.24293049 2.7658689e-40
6.6273031 -5.1290054 -0.25330177 3.6878252e-40
6.599493 -5.0970554 -0.26543629 2.7658689e-40
6.6229124 -5.1651907 -0.23767526 4.6097815e-40
6.5981274 -5.1376209 -0.24478531 2.7658689e-40
6.5820103 -5.1025267 -0.26184154 2.7658689e-40
6.5631471 -5.0823336 -0.26774213 2.7658689e-40
6.5638309 -5.1060362 -0.24746241 2.7658689e-40
6.5471354 -5.0869055 -0.26230311 2.7658689e-40
6.5341249 -5.0645113 -0.27288046 1.8439126e-40
6.5209837 -5.0421944 -0.28360373 2.7658689e-40
6.5092835 -5.0429459 -0.26699489 1.8439126e-40
6.5042734 -5.0183954 -0.2861878 2.7658689e-40
6.4832768 -4.9945788 -0.28125569 1.8439126e-40
6.4702721 -4.9710045 -0.291356 2.7658689e-40
6.4615726 -4.9450636 -0.30264217 1.8439126e-40
6.4586196 -4.9728117 -0.27998078 1.8439126e-40
6.4409938 -4.9482555 -0.28255269 2.7658689e-40
6.4351768 -4.9220037 -0.30259499 1.8439126e-40
6.4166441 -4.8955412 -0.29956973 2.7658689e-40
6.4101362 -4.8673544 -0.31423828 2.7658689e-40
6.8581848 -4.7954102 -0.25959319 7.3756504e-40
6.8530855 -4.857873 -0.25494888 4.6097815e-40
6.8429246 -4.9763007 -0.23510811 4.6097815e-40
6.8399282 -4.9486151 -0.23721081 4.6097815e-40
6.8479161 -4.9181628 -0.24484974 5.5317378e-40
6.8272643 -4.9818616 -0.23510811 5.5317378e-40
6.8011637 -4.9911299 -0.23510817 5.5317378e-40
6.7698431 -5.0022516 -0.23510811 5.5317378e-40
6.7452927 -5.0371809 -0.22589383 6.4536941e-40
6.7459512 -5.0122213 -0.24236014 6.4536941e-40
6.7284017 -5.0768113 -0.21992627 3.6878252e-40
6.731957 -5.0433898 -0.23308335 5.5317378e-40
6.7123418 -5.1291275 -0.21665433 4.6097815e-40
6.7172251 -5.0918813 -0.21916008 5.5317378e-40
6.6972103 -5.1345005 -0.21665433 4.6097815e-40
6.6743741 -5.1098595 -0.22164799 3.6878252e-40
6.6575975 -5.1477056 -0.21245013 4.6097815e-40
6.6596279 -5.1130576 -0.22269358 5.5317378e-40
6.6366854 -5.1559925 -0.2166543 3.6878252e-40
6.6192021 -5.1627393 -0.21928196 1.8439126e-40
6.593832 -5.1376352 -0.21762773 1.8439126e-40
6.5709743 -5.1260486 -0.22036792 1.8439126e-40
6.550478 -5.1067266 -0.2276912 2.7658689e-40
6.5408607 -5.0857902 -0.24598613 2.7658689e-40
6.5239201 -5.0608263 -0.23721081 2.7658689e-40
6.4952765 -4.9826183 -0.24367453 1.8439126e-40
6.4967461 -5.0142007 -0.25266743 2.7658689e-40
6.4818201 -4.9904761 -0.25870702 1.8439126e-40
6.4680672 -4.9647956 -0.25723025 1.8439126e-40
6.4505281 -4.9401655 -0.25959319 2.7658689e-40
6.4578843 -4.9707422 -0.2686055 2.7658689e-40
6.4402518 -4.9461665 -0.27107292 2.7658689e-40
6.4258909 -4.9193654 -0.27362546 1.8439126e-40
6.8643494 -4.8170872 -0.22310457 1.0141519e-39
6.8625808 -4.7903209 -0.24237365 6.4536941e-40
6.8512645 -4.8527451 -0.226763 4.6097815e-40
6.8408165 -4.9703631 -0.2024741 5.5317378e-40
6.8486886 -4.9398823 -0.20977263 8.2976067e-40
6.8468428 -4.9151411 -0.22824089 4.6097815e-40
6.8251562 -4.975924 -0.2024741 4.6097815e-40
6.7990556 -4.9851923 -0.20247413 5.5317378e-40
6.7729549 -4.9944601 -0.20247416 5.5317378e-40
6.7505674 -5.0301523 -0.20073037 7.3756504e-40
6.729352 -5.0796933 -0.18948229 4.6097815e-40
6.7305636 -5.0394659 -0.21151473 1.0141519e-39
6.7153482 -5.1215997 -0.18512288 4.6097815e-40
6.6951733 -5.1287637 -0.18512294 4.6097815e-40
6.6743536 -5.1005707 -0.18726836 5.5317378e-40
6.6561036 -5.1434984 -0.18932712 4.6097815e-40
6.660171 -5.1134129 -0.1814092 6.4536941e-40
6.6441212 -5.1725187 -0.18359976 4.6097815e-40
6.6336393 -5.1506138 -0.18512291 3.6878252e-40
6.6144733 -5.1574197 -0.18512288 2.7658689e-40
6.5876145 -5.1313677 -0.18725333 1.8439126e-40
6.5692477 -5.1211853 -0.19364135 2.7658689e-40
6.5514979 -5.1013927 -0.20342651 2.7658689e-40
6.4102297 -4.8211508 -0.25769225 1.8439126e-40
6.4070845 -4.8587608 -0.2670078 1.8439126e-40
6.3987865 -4.8252139 -0.25769225 1.8439126e-40
6.8595357 -4.841723 -0.1873028 4.6097815e-40
6.8641186 -4.812974 -0.20262916 5.5317378e-40
6.8516617 -4.8744373 -0.1856267 5.5317378e-40
6.8498077 -4.8486423 -0.2042143 6.4536941e-40
6.8390594 -4.965415 -0.17527916 5.5317378e-40
6.8469162 -4.9348898 -0.18233442 5.5317378e-40
6.8233991 -4.9709759 -0.17527916 1.1063476e-39
6.7972984 -4.9802446 -0.17527916 7.3756504e-40
6.7711978 -4.9895124 -0.17527916 5.5317378e-40
6.7498579 -5.0240521 -0.16972549 4.6097815e-40
6.7310305 -5.0664454 -0.16289748 5.5317378e-40
6.7133112 -5.1158628 -0.15359153 4.6097815e-40
6.6892681 -5.1241312 -0.15227769 4.6097815e-40
6.6744046 -5.1051006 -0.1655084 4.6097815e-40
6.6564841 -5.1357727 -0.15227769 3.6878252e-40
6.6642303 -5.1087132 -0.1655084 5.5317378e-40
6.6362324 -5.1693397 -0.15441257 2.7658689e-40
6.6369758 -5.1408153 -0.14308102 6.4536941e-40
6.6073923 -5.1534739 -0.15359153 1.8439126e-40
6.5824966 -5.1366501 -0.16020814 1.8439126e-40
6.5704384 -5.1297474 -0.17155688 1.8439126e-40
6.5515423 -5.0933123 -0.16406372 2.7658689e-40
6.867456 -4.8340015 -0.16334486 6.4536941e-40
6.8502178 -4.8703709 -0.1632798 4.6097815e-40
6.8373022 -4.9604673 -0.14808416 4.6097815e-40
6.8447886 -4.9288988 -0.14940859 6.4536941e-40
6.8188391 -4.9926529 -0.13602453 4.6097815e-40
6.8228269 -4.966053 -0.15025979 6.4536941e-40
6.8033137 -4.9981656 -0.13602453 4.6097815e-40
6.794251 -4.9763918 -0.15119219 5.5317378e-40
6.7710023 -5.0111122 -0.14321406 5.5317378e-40
6.7714152 -4.9846058 -0.15171018 9.219563e-40
6.7497911 -5.0439339 -0.12949757 5.5317378e-40
6.7537518 -5.0172377 -0.14321406 7.3756504e-40
6.7328849 -5.064702 -0.13562237 4.6097815e-40
6.7149715 -5.1085434 -0.12074628 5.5317378e-40
6.6860552 -5.1190805 -0.12206005 6.4536941e-40
6.6650915 -5.1522579 -0.12105579 4.6097815e-40
6.6400805 -5.161139 -0.12105579 2.7658689e-40
6.6097298 -5.1708484 -0.11584378 2.7658689e-40
6.6060343 -5.1496491 -0.13257056 1.8439126e-40
6.5785923 -5.1203089 -0.13962013 2.7658689e-40
6.577105 -5.1561527 -0.11417718 2.7658689e-40
6.5585203 -5.1215181 -0.13271242 2.7658689e-40
6.5504274 -5.0901728 -0.14680883 2.7658689e-40
6.5542388 -5.1637344 -0.11154958 2.7658689e-40
6.5394034 -5.1443501 -0.12310619 1.8439126e-40
6.8699293 -4.7355747 -0.14615937 7.3756504e-40
6.8558936 -4.8314667 -0.13093108 6.4536941e-40
6.8537464 -4.8045378 -0.14347795 4.6097815e-40
6.8614149 -4.7695665 -0.13905606 8.2976067e-40
6.850316 -4.8912215 -0.11751517 4.6097815e-40
6.8484135 -4.8652887 -0.13534616 4.6097815e-40
6.8378038 -4.9536028 -0.11545013 4.6097815e-40
6.8433709 -4.9249053 -0.12745802 4.6097815e-40
6.8170972 -4.9877472 -0.10906371 1.3829344e-39
6.8223195 -4.9596586 -0.11816967 4.6097815e-40
6.8015718 -4.9932604 -0.10906371 5.5317378e-40
6.7895379 -4.971633 -0.11980138 5.5317378e-40
6.7696948 -5.0052423 -0.11229903 5.5317378e-40
6.7732553 -4.9787521 -0.12632819 3.6878252e-40
6.748755 -5.0410166 -0.11346158 5.5317378e-40
6.7525821 -5.0112085 -0.11175978 5.5317378e-40
6.7364259 -5.0700459 -0.10190497 5.5317378e-40
6.7146201 -5.1035538 -0.09578383 4.6097815e-40
6.6864429 -5.1137743 -0.096834913 4.6097815e-40
6.6667385 -5.1449986 -0.088480748 4.6097815e-40
6.6380601 -5.1554494 -0.089783721 2.7658689e-40
6.611001 -5.1653624 -0.091272883 3.6878252e-40
6.5932302 -5.1455812 -0.090528622 2.7658689e-40
6.5754805 -5.1531763 -0.096834913 2.7658689e-40
6.5576968 -5.1313391 -0.091304503 2.7658689e-40
6.5535593 -5.1618218 -0.10103909 2.7658689e-40
6.5369453 -5.1355076 -0.10206016 2.7658689e-40
6.5165896 -5.0933499 -0.10367156 2.7658689e-40
6.8663001 -4.7023239 -0.13582686 4.6097815e-40
6.8616505 -4.8248019 -0.10838233 4.6097815e-40
6.863194 -4.7965217 -0.1207274 4.6097815e-40
6.8488855 -4.8871922 -0.095370002 1.0141519e-39
6.8569713 -4.855382 -0.10182571 4.6097815e-40
6.8374023 -4.947505 -0.084991805 5.5317378e-40
6.8419523 -4.9209118 -0.10550741 4.6097815e-40
6.819356 -4.980979 -0.079946049 5.5317378e-40
6.823348 -4.9542789 -0.09369415 5.5317378e-40
6.79983 -4.9883547 -0.08210288 7.3756504e-40
6.7739539 -4.9975433 -0.08210291 5.5317378e-40
6.7480783 -5.006731 -0.08210288 9.219563e-40
6.7312388 -5.0496716 -0.072598964 4.6097815e-40
6.7129226 -5.098773 -0.069507696 7.3756504e-40
6.6910644 -5.1302204 -0.058511764 1.0141519e-39
6.6883826 -5.1096401 -0.080018163 4.6097815e-40
6.6660528 -5.139102 -0.058511794 4.6097815e-40
6.6360393 -5.1497593 -0.058511794 4.6097815e-40
6.6110282 -5.1586409 -0.058511764 2.7658689e-40
6.5918722 -5.141757 -0.069507696 2.7658689e-40
6.5767412 -5.14713 -0.069507673 2.7658689e-40
6.5524416 -5.1221371 -0.070252337 2.7658689e-40
6.5361919 -5.118154 -0.077597618 3.6878252e-40
6.8576622 -4.8192883 -0.074559294 4.6097815e-40
6.8440819 -4.8530912 -0.068305396 5.5317378e-40
6.8365488 -4.9417906 -0.055621143 6.4536941e-40
6.8394709 -4.9139223 -0.067093909 4.6097815e-40
6.8222346 -4.9734941 -0.048401926 4.6097815e-40
6.7977395 -4.9824686 -0.049749963 5.5317378e-40
6.7647862 -5.0210862 -0.043972541 6.4536941e-40
6.7749209 -4.9908867 -0.051290601 4.6097815e-40
6.7446108 -5.0293455 -0.049317811 5.5317378e-40
6.751163 -4.9990072 -0.049749963 4.6097815e-40
6.7307205 -5.0849161 -0.032721046 4.6097815e-40
6.7350335 -5.0534286 -0.044763207 8.2976067e-40
6.710885 -5.0930362 -0.03797631 4.6097815e-40
6.6878252 -5.1263871 -0.034189131 5.5317378e-40
6.6900311 -5.0982876 -0.027465787 8.2976067e-40
6.6643691 -5.1343603 -0.032451794 4.6097815e-40
6.6343555 -5.1450176 -0.032451794 4.6097815e-40
6.6093445 -5.1538992 -0.032451794 2.7658689e-40
6.5898352 -5.1360202 -0.03797631 3.6878252e-40
6.5747042 -5.1413927 -0.03797625 2.7658689e-40
6.5484629 -5.1142917 -0.044846293 2.7658689e-40
6.5331097 -5.0742264 -0.038965669 2.7658689e-40
6.8644466 -4.8424253 -0.051545177 1.1063476e-39
6.8507948 -4.8171072 -0.0520106 4.6097815e-40
6.8453088 -4.8771191 -0.040007226 5.5317378e-40
6.8526402 -4.8431845 -0.034784958 4.6097815e-40
6.8372259 -4.935421 -0.025706707 4.6097815e-40
6.8220477 -4.9688654 -0.025485298 4.6097815e-40
6.8143616 -4.9980068 -0.017245952 4.6097815e-40
6.7959976 -4.9775629 -0.022789223 5.5317378e-40
6.7701221 -4.9867511 -0.022789223 4.6097815e-40
6.7425385 -5.02351 -0.017245952 4.6097815e-40
6.7494211 -4.9941015 -0.022789223 4.6097815e-40
6.729023 -5.0801353 -0.0064448602 4.6097815e-40
6.7356915 -5.0518456 -0.011800402 4.6097815e-40
6.7020302 -5.113512 0.0040321732 6.4536941e-40
6.7101936 -5.0870905 -0.0077586607 4.6097815e-40
6.6836295 -5.0962543 -0.0064448602 6.4536941e-40
6.6626854 -5.1296186 -0.0063918503 5.5317378e-40
6.6326723 -5.1402764 -0.0063917921 3.6878252e-40
6.6054206 -5.1496477 -0.0049026539 1.8439126e-40
6.5881376 -5.1312389 -0.011700121 2.7658689e-40
6.5726666 -5.1356564 -0.0064448602 2.7658689e-40
6.5437889 -5.100832 -0.017209603 2.7658689e-40
6.5156617 -5.0479341 -0.017548198 1.8439126e-40
6.8615594 -4.8342938 -0.006851376 4.6097815e-40
6.8503666 -4.8688955 -0.0086349631 5.5317378e-40
6.8508353 -4.8381019 -0.006851376 5.5317378e-40
6.8314986 -4.9308796 0.0063832933 6.4536941e-40
6.8355708 -4.9029398 -0.0067298985 9.219563e-40
6.8125429 -4.9667163 0.0014755022 7.3756504e-40
6.8166714 -4.9354763 0.0096468143 1.0141519e-39
6.7942557 -4.9726577 0.0041715764 5.5317378e-40
6.7602968 -5.0084429 0.025516622 2.0283039e-39
6.7683802 -4.9818459 0.0041715764 6.4536941e-40
6.7455969 -5.0158534 0.014825963 4.6097815e-40
6.7483764 -4.9911585 -0.00661272 4.6097815e-40
6.7296777 -5.0739808 0.02245893 5.5317378e-40
6.7339792 -5.0470233 0.014701044 5.5317378e-40
6.706811 -5.081562 0.02508653 5.5317378e-40
6.681592 -5.090517 0.02508653 5.5317378e-40
6.6606655 -5.123929 0.024880162 4.6097815e-40
6.630652 -5.1345868 0.024880162 3.6878252e-40
6.5993032 -5.1454515 0.026183195 1.8439126e-40
6.6066151 -5.1192942 0.014576066 2.7658689e-40
6.5706296 -5.1299191 0.02508653 1.8439126e-40
6.5490718 -5.1036673 0.014742685 1.8439126e-40
6.530323 -5.0663781 0.0041715764 2.7658689e-40
6.5090294 -5.0188918 -0.0067298985 3.6878252e-40
6.8552198 -4.8914647 0.015220678 4.6097815e-40
6.8447971 -4.8644452 0.0227373 8.2976067e-40
6.825706 -4.9278107 0.0314028 1.1063476e-39
6.8330889 -4.8959503 0.031683598 4.6097815e-40
6.807343 -4.9602771 0.041916672 5.5317378e-40
6.811903 -4.9330835 0.029589791 9.219563e-40
6.7921658 -4.9667711 0.036524463 7.3756504e-40
6.7673998 -5.0024161 0.042621605 4.6097815e-40
6.7736545 -4.9748173 0.029334992 4.6097815e-40
6.7459674 -5.0272236 0.046604384 5.5317378e-40
6.7357154 -5.0669918 0.046107516 8.2976067e-40
6.7266665 -5.0425615 0.049152773 7.3756504e-40
6.7051134 -5.0767813 0.051362775 5.5317378e-40
6.6748505 -5.0875273 0.051362719 6.4536941e-40
6.6493139 -5.1236887 0.045728151 5.5317378e-40
6.6469402 -5.0968995 0.053990379 3.6878252e-40
6.6293049 -5.1307936 0.045728151 4.6097815e-40
6.61903 -5.1062717 0.056617979 3.6878252e-40
6.6057363 -5.1384506 0.049202826 2.7658689e-40
6.5873127 -5.1182523 0.053114511 1.8439126e-40
6.5707264 -5.1248598 0.049611043 2.7658689e-40
6.5521846 -5.1050611 0.046502639 2.7658689e-40
6.8456144 -4.8611302 0.037500747 6.4536941e-40
6.8365021 -4.8317451 0.049015906 6.4536941e-40
6.8246522 -4.9248414 0.047719818 5.5317378e-40
6.8316708 -4.8919563 0.053634174 4.6097815e-40
6.8119502 -4.9535589 0.066720694 5.5317378e-40
6.8138604 -4.9275589 0.053158786 4.6097815e-40
6.788815 -4.9628053 0.061687939 4.6097815e-40
6.7919259 -4.9320049 0.069475807 5.5317378e-40
6.7614145 -5.0007448 0.061152052 4.6097815e-40
6.7674174 -4.9681935 0.072472297 4.6097815e-40
6.7427268 -5.0116091 0.073480621 4.6097815e-40
6.7225051 -5.037756 0.079818711 4.6097815e-40
6.7021685 -5.0730586 0.07463605 7.3756504e-40
6.6986632 -5.0443602 0.08890488 4.6097815e-40
6.6732378 -5.0829854 0.076325163 5.5317378e-40
6.6681414 -5.0551987 0.08890488 5.5317378e-40
6.6453156 -5.0939236 0.071332671 4.6097815e-40
6.6352472 -5.0674219 0.086254746 4.6097815e-40
6.6180115 -5.1034036 0.072383702 6.4536941e-40
6.6121845 -5.0750685 0.08890488 3.6878252e-40
6.592453 -5.1114025 0.077638961 2.7658689e-40
6.5670867 -5.0932541 0.07830435 2.7658689e-40
6.572957 -5.1204786 0.067128502 1.8439126e-40
6.5546165 -5.0851903 0.07333684 2.7658689e-40
6.7840285 -4.9318376 0.083979815 4.6097815e-40
6.7554617 -4.9948273 0.10035105 4.6097815e-40
6.7626319 -4.9656582 0.093142197 5.5317378e-40
6.7373333 -5.0007172 0.10302372 5.5317378e-40
6.7417569 -4.972518 0.095838271 6.4536941e-40
