# .PCD v0.7 - Point Cloud Data file format
VERSION 0.7
FIELDS x y z rgb
SIZE 4 4 4 4
TYPE F F F F
COUNT 1 1 1 1
WIDTH 1012
HEIGHT 1
VIEWPOINT 0 0 0 1 0 0 0
POINTS 1012
DATA ascii
2.1148767 0.13372661 -1.2160627 8.6624165e-39
2.0889812 0.1655869 -1.2031863 7.4635076e-39
2.0832326 0.19556332 -1.2025975 7.4652901e-39
2.0809884 0.22509356 -1.2012867 8.0170499e-39
2.0877278 0.24711193 -1.2051926 1.0855694e-38
2.1141043 -0.24074861 -1.1869278 1.8149934e-38
2.1156025 -0.2235523 -1.1810987 1.0598551e-38
2.1222172 -0.19626141 -1.1800834 7.648273e-39
2.1471357 -0.18310459 -1.1909779 7.923432e-39
2.1333895 -0.16448073 -1.1761682 7.7383134e-39
2.1458337 -0.16566604 -1.1960447 7.5564291e-39
2.1339281 -0.14283854 -1.1740721 7.6453891e-39
2.1477275 -0.13316697 -1.1886746 7.188734e-39
2.1541307 -0.10485952 -1.1851875 7.8326531e-39
2.16137 -0.083302744 -1.1891595 8.3786284e-39
2.1819081 -0.072933026 -1.1882544 1.2991599e-38
2.1637795 0.11411376 -1.1904961 1.7872617e-38
2.0977194 0.13642325 -1.1730103 8.7535444e-39
2.1256211 0.12078531 -1.1742543 1.6499045e-38
2.0904543 0.16636251 -1.1716263 7.5575109e-39
2.0872629 0.19524221 -1.1718503 7.8330244e-39
2.0719688 0.22084919 -1.1660742 7.9255886e-39
2.085341 0.22801833 -1.1743052 7.7411903e-39
2.0962889 0.24724495 -1.1769028 1.0395432e-38
2.122134 0.25853211 -1.1771098 1.5017051e-38
2.1080513 -0.220128 -1.1461992 1.3087808e-38
2.1099405 -0.19925381 -1.1388474 8.5695104e-39
2.1253483 -0.18768661 -1.1560316 7.9248459e-39
2.1113577 -0.17932844 -1.1333336 8.1103077e-39
2.1253445 -0.16348256 -1.1503323 7.8333845e-39
2.1359704 -0.13636452 -1.1518387 7.6486387e-39
2.1536465 -0.12642935 -1.1656432 7.7390421e-39
2.1403923 -0.11253945 -1.1489189 7.7390365e-39
2.1647365 -0.10001782 -1.1592222 7.8315853e-39
2.1721549 -0.080464832 -1.1579062 9.3016637e-39
2.1874089 -0.079563297 -1.166849 8.750299e-39
2.1113577 0.11955228 -1.1333336 1.133035e-38
2.1333983 0.11228501 -1.1547056 1.7691833e-38
2.1047983 0.13737208 -1.145465 8.106017e-39
2.1226647 0.12467339 -1.1536175 1.115204e-38
2.0946548 0.1655422 -1.1430851 7.8326671e-39
2.0809906 0.20230459 -1.1309687 7.9259235e-39
2.0951607 0.19289018 -1.1447033 8.0181317e-39
2.0791028 0.22253504 -1.1383164 8.2932781e-39
2.0820396 0.24445137 -1.1268866 8.8363905e-39
2.0928202 0.24887586 -1.145202 1.0865761e-38
2.1133332 -0.2175266 -1.1156013 1.5480581e-38
2.1052604 -0.19429097 -1.1140133 9.3985522e-39
2.1165195 -0.17078899 -1.1132476 8.845363e-39
2.128871 -0.1616455 -1.1294676 8.2014412e-39
2.117734 -0.13663119 -1.1085216 8.2014412e-39
2.1303694 -0.13241175 -1.1236384 7.9244998e-39
2.1443722 -0.10892403 -1.1205757 7.7404616e-39
2.1671813 -0.099033631 -1.1344045 7.8323013e-39
2.1775484 -0.07575646 -1.1310744 1.0775713e-38
2.1967607 -0.061882567 -1.1304599 1.7881559e-38
2.2299967 -0.062755965 -1.137732 1.7047131e-38
2.2477615 -0.063192658 -1.1369057 1.6307769e-38
2.1114047 0.11324036 -1.1159321 1.3542693e-38
2.104275 0.13676403 -1.1126819 7.7411749e-39
2.086935 0.17420672 -1.1078371 8.0173946e-39
2.1007395 0.1619107 -1.1143869 8.016701e-39
2.0862358 0.18966055 -1.1105584 8.2010838e-39
2.0998595 0.20362569 -1.1178107 8.2007251e-39
2.0860453 0.2229948 -1.1113007 8.5691433e-39
2.1019714 0.2290789 -1.1095934 9.0301453e-39
2.0841377 0.24445137 -1.1187226 8.7495773e-39
2.1019714 0.24604772 -1.1095934 9.0297697e-39
2.1162052 -0.21279816 -1.0843387 1.7511734e-38
2.0898836 -0.1942839 -1.0788337 1.1702371e-38
2.084465 -0.16666009 -1.0692379 9.1223073e-39
2.1101391 -0.15933028 -1.0928774 8.662041e-39
2.0967262 -0.14329907 -1.069738 8.3858058e-39
2.1165867 -0.13523348 -1.0903877 8.2939829e-39
2.1247177 -0.11223275 -1.0813464 7.9255774e-39
2.1407776 -0.099867895 -1.0959935 7.9252102e-39
2.154398 -0.086568803 -1.09442 7.3731028e-39
2.1856282 -0.079001829 -1.1054789 6.7292076e-39
2.2061527 -0.070847705 -1.1109885 1.0486145e-38
2.2500086 -0.063192658 -1.1281623 1.686599e-38
2.0946281 0.11801101 -1.0779022 1.1614833e-38
2.1083066 0.11369101 -1.0849411 1.3913984e-38
2.0894153 0.13555641 -1.0740803 7.9244914e-39
2.106195 0.12726606 -1.0931586 7.5553277e-39
2.0663593 0.16631193 -1.0633551 8.3851024e-39
2.0876691 0.16399081 -1.083554 8.3854779e-39
2.0663593 0.19541651 -1.0633551 8.4783658e-39
2.0833018 0.19549514 -1.0852422 8.5709398e-39
2.0663593 0.2245211 -1.0633551 9.4889458e-39
2.0830042 0.22426999 -1.0864004 9.0304858e-39
2.0663593 0.2411523 -1.0633551 9.9503065e-39
2.0779543 0.24274862 -1.0785011 9.6744399e-39
2.0981362 -0.19085015 -1.0535382 1.40069e-38
2.1252098 -0.19596697 -1.0593435 1.4834877e-38
2.1472759 -0.1977578 -1.0578505 1.5760784e-38
2.0721548 -0.16132256 -1.040804 1.0043203e-38
2.0934007 -0.1729167 -1.044109 1.1612314e-38
2.1326125 -0.17932844 -1.0506266 1.3636303e-38
2.0725687 -0.14344403 -1.0391934 9.1219569e-39
2.0880306 -0.13128684 -1.0500072 8.3861786e-39
2.1030204 -0.11801101 -1.0452459 8.3851038e-39
2.1234064 -0.10382899 -1.056317 7.8322999e-39
2.1493528 -0.082648061 -1.0626264 7.8312265e-39
2.175349 -0.078473389 -1.0811948 7.2813122e-39
2.1051185 0.11379632 -1.0370818 1.0414871e-38
2.1143782 0.11135779 -1.0613163 1.3174965e-38
2.0722237 0.14690888 -1.0405356 8.1085407e-39
2.0936055 0.13298531 -1.0497411 8.0159681e-39
2.1125302 0.12726606 -1.0685065 8.4762414e-39
2.0662322 0.165958 -1.0451015 7.8330202e-39
2.0453632 0.19154739 -1.0285442 8.6616752e-39
2.0589888 0.19599047 -1.0414143 8.5691391e-39
2.0676548 0.22422427 -1.0458149 9.5818533e-39
2.0925586 0.22640367 -1.0377443 1.0779685e-38
2.1188657 0.2375633 -1.0438542 1.4655863e-38
2.070085 0.24447854 -1.048858 1.0775371e-38
2.1372178 -0.19071437 -1.0327067 1.5760044e-38
2.1544096 -0.20062385 -1.030092 1.7598166e-38
2.078778 -0.15799633 -1.0150317 1.0319428e-38
2.1019759 -0.16381466 -1.0171702 9.9538602e-39
2.1309316 -0.1754723 -1.0330625 9.671549e-39
2.0723741 -0.1390391 -1.0139922 9.4928961e-39
2.0904551 -0.12555963 -1.0298579 8.4765581e-39
2.079813 -0.11641835 -1.0110047 7.8330258e-39
2.1000822 -0.10911192 -1.018109 7.9248529e-39
2.1254191 -0.09684331 -1.0304068 8.0170303e-39
2.1379263 -0.085394487 -1.0299499 7.9233829e-39
2.1536963 -0.077383481 -1.0328678 6.9143093e-39
2.0808477 0.11226055 -1.0069778 1.0320509e-38
2.0925386 0.11300366 -1.0217507 1.1060588e-38
2.0467741 0.13909358 -0.99493045 8.1088938e-39
2.0708475 0.13494103 -1.0137492 7.9248571e-39
2.0904551 0.12555963 -1.0298579 7.5578794e-39
2.0221949 0.16347009 -0.99093592 8.1074477e-39
2.0387597 0.17148502 -1.0073668 8.2007027e-39
2.0618207 0.15702018 -1.0247688 8.2918389e-39
2.0511525 0.18881102 -1.0060169 9.032278e-39
2.0716708 0.20172967 -1.0145642 9.4921884e-39
2.0925386 0.20926605 -1.0217507 9.6744231e-39
2.1000824 0.2199332 -1.018109 1.0317996e-38
2.1262684 0.23242079 -1.0351374 1.2341627e-38
2.1029561 -0.18415412 -0.9812147 1.631536e-38
2.1363323 -0.19153211 -1.0060202 1.6679473e-38
2.0553679 -0.15838532 -0.97086442 9.3978348e-39
2.0770855 -0.16562691 -0.98412079 9.7673362e-39
2.1156089 -0.17701651 -0.99626142 1.0958688e-38
2.1273129 -0.17817248 -1.0109847 1.0588835e-38
2.0336373 -0.14179817 -0.95766014 9.6762181e-39
2.0515201 -0.13911927 -0.97646135 9.2137966e-39
2.0748088 -0.12622201 -0.98829204 9.2155805e-39
2.0840619 -0.11461137 -0.98322237 8.2939871e-39
2.1042945 -0.099562846 -0.99207735 7.925213e-39
2.1177073 -0.0800789 -0.98809737 7.2805695e-39
2.1340299 -0.076506421 -1.004936 8.9317881e-39
2.0603471 0.11492844 -0.97023809 8.1898735e-39
2.073477 0.10559836 -0.97941208 1.3177825e-38
2.0252373 0.13851532 -0.96624047 8.8460987e-39
2.0476274 0.12867799 -0.97754806 8.3843751e-39
2.0700488 0.12396331 -0.99275225 7.9258828e-39
2.0067773 0.15206972 -0.95370144 1.0407675e-38
2.0200601 0.16645473 -0.96958518 9.6765671e-39
2.0329649 0.18906422 -0.96027607 9.6769244e-39
2.0444071 0.19170827 -0.97601753 9.4003375e-39
2.0748088 0.20486055 -0.98829204 9.3088691e-39
2.0795751 0.21553762 -0.98380703 9.0312243e-39
2.0922315 -0.18294312 -0.96268141 1.6683763e-38
2.0376709 -0.15395229 -0.94196463 1.13332e-38
2.0622253 -0.1639266 -0.94886792 1.0596738e-38
2.0878382 -0.17408808 -0.95165366 1.3451589e-38
2.0319779 -0.13439865 -0.93854994 1.0137188e-38
2.0494833 -0.12236698 -0.95626491 7.6472136e-39
2.0396876 -0.11343852 -0.9341169 9.0329857e-39
2.0535443 -0.10605139 -0.94046277 8.1074519e-39
2.085093 -0.097754136 -0.95671153 7.6486163e-39
2.1050394 -0.092077062 -0.97310746 8.2000006e-39
2.0961642 -0.073177248 -0.94737899 8.7441767e-39
2.1062896 -0.077009901 -0.96824312 8.0152366e-39
2.0629866 0.10654587 -0.94590497 9.5811372e-39
2.0793052 0.095038533 -0.95673364 1.5019949e-38
2.0119569 0.14086458 -0.93354684 9.6744034e-39
2.0297155 0.12915961 -0.94077975 9.1219527e-39
2.0494833 0.12236698 -0.95626491 8.4780141e-39
2.0054345 0.16252142 -0.93335992 1.0413056e-38
2.021745 0.17713028 -0.947689 1.0502732e-38
2.0305743 0.1914684 -0.93743771 1.0320867e-38
2.0569522 0.20458716 -0.9553256 9.6769398e-39
2.0569522 0.21277064 -0.9553256 9.6711875e-39
2.0437212 -0.15395229 -0.91842139 1.179526e-38
2.0736287 -0.16007888 -0.91855782 1.1330698e-38
2.0941691 -0.1706745 -0.92139381 1.5112881e-38
2.0217183 -0.12805872 -0.89556307 1.0687825e-38
2.031857 -0.13534018 -0.91396517 1.0873304e-38
2.0227144 -0.10804954 -0.89168721 9.7666089e-39
2.0396118 -0.10609817 -0.91331959 9.3988998e-39
2.0576053 -0.097893581 -0.92466068 9.0304592e-39
2.0477548 -0.089130275 -0.90272593 9.2123687e-39
2.0671427 -0.080449536 -0.91567099 8.8450085e-39
2.0897474 -0.072414681 -0.93016261 7.9244759e-39
2.1025805 -0.058209173 -0.92241192 8.8374555e-39
2.1133733 -0.058594491 -0.94067866 1.2530257e-38
2.045738 0.085078895 -0.91057366 1.6219195e-38
2.0401449 0.10586349 -0.90983874 8.566628e-39
1.9937967 0.14221652 -0.89171797 9.6737224e-39
2.0146348 0.13220266 -0.90437734 9.3981823e-39
2.0294268 0.12345443 -0.91779673 8.9375559e-39
1.9924856 0.15933518 -0.89681947 1.0503094e-38
2.0031326 0.16964893 -0.91163677 1.0781108e-38
2.010087 0.18329664 -0.90332508 1.0871167e-38
2.0337529 0.19510019 -0.91221309 1.0228317e-38
2.0906186 0.20660551 -0.91271096 1.3812379e-38
2.1022723 -0.18237799 -0.89548784 1.8610864e-38
2.0789905 -0.16070458 -0.88644463 1.0412343e-38
2.0937042 -0.16941652 -0.90070474 1.2534639e-38
2.0201938 -0.13164954 -0.87337142 1.1058076e-38
2.0495477 -0.14561835 -0.881688 1.0966213e-38
2.013869 -0.10844037 -0.86985916 9.5836441e-39
2.0367749 -0.096616514 -0.88920414 9.5814791e-39
2.0477922 -0.079893164 -0.87758261 8.662062e-39
2.0653212 -0.071788624 -0.89463669 8.477305e-39
2.0558219 -0.052667886 -0.87133491 7.9234096e-39
2.0771163 -0.049169421 -0.8862381 8.2892998e-39
2.0926757 -0.057849541 -0.90470684 7.4671103e-39
2.0464847 0.079965502 -0.8795445 1.2159361e-38
2.069387 0.070837922 -0.89756489 1.8425783e-38
2.0206904 0.11167248 -0.8714397 8.5705698e-39
2.0377769 0.1006422 -0.88530511 8.5705796e-39
1.9966772 0.1367266 -0.86745173 9.3985466e-39
2.0097306 0.12723669 -0.88596338 9.1216192e-39
1.9988919 0.16520101 -0.87189168 1.050453e-38
2.0192075 0.18349358 -0.87721002 1.0689276e-38
2.0497715 0.19446605 -0.89487821 1.0415217e-38
2.0764351 0.19660918 -0.88888836 9.679095e-39
2.0947325 0.20660551 -0.89670271 1.2795367e-38
2.0967896 0.21486974 -0.88869852 1.6589052e-38
2.0543272 -0.18577248 -0.84902775 1.8241015e-38
2.0618725 -0.16745688 -0.84779167 1.271865e-38
2.0731723 -0.16678166 -0.86408579 1.096622e-38
2.027144 -0.13164954 -0.84632725 1.0962991e-38
2.0598557 -0.14584954 -0.8556394 9.3978264e-39
2.0080543 -0.10600397 -0.83623904 1.0043912e-38
2.0191324 -0.10934404 -0.84937871 1.0321571e-38
2.0105126 -0.086910099 -0.82667369 9.5818673e-39
2.0251265 -0.078076333 -0.84292912 9.2137952e-39
2.0457931 -0.064411007 -0.85411316 8.2939969e-39
2.0366592 -0.056025688 -0.8374247 8.4776693e-39
2.0564103 -0.047363568 -0.85297537 7.8323069e-39
2.072834 -0.036710091 -0.8654027 8.6544922e-39
2.0758798 -0.024473395 -0.85355115 1.1879492e-38
2.0098569 0.08427646 -0.82922447 8.2943515e-39
2.029207 0.075418957 -0.84767467 1.0595637e-38
2.0051372 0.10652404 -0.83714449 8.845726e-39
2.017648 0.10337982 -0.85515523 8.4776679e-39
1.9842904 0.14049909 -0.82425058 9.951719e-39
1.9955043 0.13821284 -0.84154844 9.7666075e-39
1.9842904 0.15611009 -0.82425058 1.0412692e-38
1.9961342 0.16582218 -0.83988881 1.0595998e-38
2.027144 0.18349358 -0.84632725 1.0596368e-38
2.0554976 0.19405504 -0.8538475 8.7564296e-39
2.0825522 0.20480122 -0.86508566 9.2962757e-39
2.0833464 0.21754968 -0.856637 1.4554622e-38
2.1009035 0.22313395 -0.87269026 1.7229742e-38
2.051805 -0.18518166 -0.83071917 1.8333938e-38
2.0442295 -0.16647632 -0.80796796 1.2901252e-38
2.0573835 -0.16433828 -0.82946581 1.0874736e-38
2.0164123 -0.12641469 -0.80371696 9.5832826e-39
2.0318527 -0.13544586 -0.815952 9.3992585e-39
2.0583482 -0.14538716 -0.83338207 8.7549737e-39
1.9880463 -0.097425692 -0.79657775 1.0229386e-38
2.0078738 -0.11029679 -0.81082696 1.1056615e-38
1.9873555 -0.083083801 -0.79491335 9.3074314e-39
2.0109687 -0.073236167 -0.80997604 8.8464561e-39
2.0255651 -0.067594498 -0.8243472 9.0301313e-39
2.0154288 -0.055306423 -0.8075431 8.662055e-39
2.0350869 -0.043866053 -0.81541967 8.2936382e-39
2.0588491 -0.034333944 -0.83143252 7.8326671e-39
2.0622721 -0.022626054 -0.82373744 8.1031191e-39
2.0303853 0.05042446 -0.81496537 1.6681257e-38
1.9920616 0.085860558 -0.79401112 8.8457176e-39
2.0086098 0.076783486 -0.80796313 8.0173918e-39
2.0262251 0.066269107 -0.82177985 9.2069695e-39
1.9910902 0.10927708 -0.79779106 8.7542478e-39
2.0003276 0.10470948 -0.81407613 8.9375713e-39
1.9800441 0.13488153 -0.80346829 9.4914583e-39
1.9860868 0.1591827 -0.80233777 1.0320141e-38
2.0073836 0.17133212 -0.81273425 1.0504889e-38
2.0365915 0.18680294 -0.81518954 9.8602493e-39
2.0574069 0.20050117 -0.82499284 8.7549905e-39
2.0683262 0.21715374 -0.82267886 9.5789792e-39
2.0849838 0.22617859 -0.83687401 1.4646474e-38
2.0242784 -0.15406789 -0.77310789 9.5840155e-39
2.0390074 -0.16493616 -0.78891546 1.3087444e-38
1.9998329 -0.12879083 -0.76377171 9.2155889e-39
2.0195551 -0.13322066 -0.78495932 9.215212e-39
2.0334826 -0.14314128 -0.79353905 8.9386517e-39
1.9892678 -0.10172448 -0.77006328 1.0504526e-38
2.0107045 -0.11601377 -0.7867552 1.0227206e-38
1.9908669 -0.075985879 -0.77053779 9.3999788e-39
2.0068431 -0.065443434 -0.78872257 8.754259e-39
1.9937215 -0.050568812 -0.76143765 8.6620578e-39
2.0174203 -0.049567498 -0.78487247 8.4780281e-39
2.0376937 -0.035031192 -0.7884028 7.7411903e-39
2.04354 -0.017106684 -0.78654468 7.8276168e-39
2.0588191 -0.016102752 -0.80342627 6.1756484e-39
2.0374413 0 -0.77813506 1.3449633e-38
2.0201614 0.046164297 -0.78511006 1.5201115e-38
1.9915403 0.080725692 -0.76992512 8.0173904e-39
2.0144887 0.067930728 -0.78508723 7.7400945e-39
1.9837403 0.10473028 -0.77416176 8.57093e-39
1.9612573 0.14558531 -0.75718868 1.004283e-38
1.9717485 0.13528188 -0.77261221 9.583298e-39
1.9871993 0.16454113 -0.77019823 1.0320144e-38
2.0061915 0.17277065 -0.79125798 1.0871181e-38
2.017241 0.188217 -0.78090537 9.4918199e-39
2.0398455 0.20455413 -0.78752941 9.0312159e-39
2.0588191 0.20933577 -0.80342627 9.1216332e-39
2.0516002 0.22410275 -0.77928632 8.75245e-39
2.0648704 0.22592662 -0.79862857 9.760502e-39
2.028867 -0.18172114 -0.7552526 1.8426142e-38
2.0066328 -0.15611009 -0.73731226 1.0689266e-38
2.0263498 -0.16730388 -0.75460178 1.4285264e-38
1.9927589 -0.13479465 -0.74381769 1.0044276e-38
2.0140104 -0.149211 -0.76083374 1.0044996e-38
1.9873859 -0.1045156 -0.74256653 1.0135735e-38
1.9863653 -0.073504291 -0.74218518 1.0227576e-38
1.9916626 -0.044976145 -0.74333423 8.7549695e-39
2.0211051 -0.031508259 -0.75934166 8.0181205e-39
2.0066328 -0.023416515 -0.73731226 8.0170443e-39
2.0251217 -0.014197798 -0.75415808 7.188734e-39
2.0297847 0.0071108257 -0.75168157 1.1973861e-38
2.0048842 0.048394136 -0.74411613 1.0413778e-38
2.0175579 0.045215592 -0.76008779 1.3270404e-38
1.9884084 0.07355199 -0.74294013 8.1099644e-39
1.968886 0.11493579 -0.72750372 1.0227206e-38
1.978074 0.10331522 -0.74398106 9.1233933e-39
1.9667879 0.13792296 -0.73566705 1.0503811e-38
1.9769865 0.12850153 -0.74821264 9.8602479e-39
1.968886 0.15707889 -0.72750372 1.069035e-38
1.9818652 0.16641237 -0.74347234 1.0504534e-38
2.0024326 0.19022533 -0.74321014 9.8616758e-39
2.0203712 0.20197921 -0.75349301 9.3088691e-39
2.0291162 0.221011 -0.74557775 1.0780395e-38
2.0444338 0.22455268 -0.76217616 9.2127148e-39
2.037061 -0.18172112 -0.72336817 1.8701286e-38
2.0032899 -0.15547401 -0.71550077 1.0597454e-38
2.0260987 -0.16955493 -0.72125757 1.5113598e-38
1.990548 -0.13525757 -0.71502846 1.1241013e-38
1.9747808 -0.10239733 -0.70456529 1.0504517e-38
1.9834473 -0.10639928 -0.72307223 1.0412323e-38
1.9727157 -0.073753469 -0.7038362 1.0504166e-38
1.9834473 -0.07093285 -0.72307223 1.013539e-38
1.9905487 -0.042483024 -0.7150256 9.1230373e-39
2.0046575 -0.015547401 -0.71598357 8.1099574e-39
2.0060742 0.012733612 -0.71574634 1.1423206e-38
2.0218291 0 -0.7304095 8.2010628e-39
1.9918666 0.043287829 -0.71468538 1.1610875e-38
1.9755613 0.076623857 -0.70152938 8.9382803e-39
1.9860179 0.070971012 -0.71829337 8.4780183e-39
1.9729438 0.10340092 -0.70869982 9.3066985e-39
1.9528496 0.12870091 -0.68946362 9.9513673e-39
1.96514 0.13443726 -0.7087037 1.0411613e-38
1.9712536 0.1618823 -0.70716554 1.0688911e-38
1.9849826 0.17733212 -0.7170983 1.068926e-38
1.9921501 0.19157432 -0.71242237 1.0597076e-38
2.0218291 0.20418349 -0.7304095 1.0227942e-38
2.0312014 0.22134982 -0.72242838 1.0869715e-38
2.0493174 0.23856883 -0.73192292 1.7597484e-38
2.0202324 -0.18733212 -0.68439323 1.7874034e-38
2.0296478 -0.18062386 -0.69998527 1.8517967e-38
2.0117381 -0.16465199 -0.68697965 1.3267522e-38
2.0296478 -0.17277065 -0.69998527 1.6685936e-38
1.9789786 -0.12676908 -0.67445797 1.0872955e-38
1.9956106 -0.14069644 -0.68734884 1.1242089e-38
1.959759 -0.099680126 -0.66257823 1.0412324e-38
1.9719799 -0.10455634 -0.68171716 1.0412685e-38
1.9594449 -0.079491742 -0.6638003 1.0503814e-38
1.9711601 -0.069893576 -0.67847914 1.0136465e-38
1.9750619 -0.04494679 -0.67133176 9.3989012e-39
1.9918364 -0.038550463 -0.69042885 8.9390062e-39
1.9841436 -0.022987157 -0.6681338 8.1114274e-39
1.9967159 -0.014745289 -0.68568534 8.1095861e-39
1.9835079 0.015324771 -0.67060757 6.7256048e-39
1.9968927 0.010693861 -0.68682432 7.373121e-39
1.9791981 0.043591924 -0.67291456 7.2791346e-39
1.9913795 0.039835472 -0.6922068 7.3702358e-39
1.9777199 0.072657801 -0.67806304 8.3861982e-39
1.9543185 0.11027596 -0.66446406 8.9393537e-39
1.974463 0.099294752 -0.67950535 8.4783924e-39
1.9539983 0.13225505 -0.66992736 9.9517148e-39
1.9575605 0.15393639 -0.67113268 1.0504876e-38
1.9733081 0.1694268 -0.67654783 1.0781467e-38
1.9822364 0.18827577 -0.67555505 1.0781833e-38
1.9949702 0.2006464 -0.68569583 1.0505259e-38
2.0165544 0.2170306 -0.68999982 1.0503818e-38
2.0306251 0.22774313 -0.69618225 1.3168823e-38
2.046464 -0.18443303 -0.66588897 1.5668198e-38
2.0641625 -0.19085506 -0.67415774 1.8703802e-38
1.9908187 -0.1532477 -0.64215946 1.0874391e-38
2.0116653 -0.16517434 -0.66027731 1.1885648e-38
2.0394213 -0.17277065 -0.66195494 1.0314695e-38
1.965771 -0.12545636 -0.63918442 1.0780387e-38
1.980764 -0.13910213 -0.64914387 1.1056256e-38
1.9643825 -0.10216788 -0.64157385 1.0136102e-38
1.9646841 -0.072977461 -0.63996983 9.5822092e-39
1.9746366 -0.064755961 -0.65691531 1.0227234e-38
1.9665786 -0.044342332 -0.636042 9.0272306e-39
1.9775906 -0.03980428 -0.65077853 8.7535332e-39
1.9679245 -0.015141283 -0.63080454 8.3858184e-39
1.9828764 -0.015280734 -0.65163684 7.6489863e-39
1.9631685 0.015097248 -0.63324052 6.5426457e-39
1.9809102 0.0091640372 -0.65178925 7.0028966e-39
1.9576613 0.041723546 -0.63860106 8.1081637e-39
1.9746366 0.038091742 -0.65691531 7.3663065e-39
1.9593786 0.071720183 -0.63995248 8.1106861e-39
1.9572376 0.10177982 -0.63924599 8.6631354e-39
1.9558086 0.13186973 -0.63877928 9.8595206e-39
1.9626073 0.15871486 -0.63703191 1.0229375e-38
1.9759008 0.17014313 -0.65199625 1.1147733e-38
1.985415 0.18864833 -0.64711601 1.0781117e-38
2.0079594 0.20560418 -0.65753621 1.0596007e-38
2.0263846 0.21855414 -0.66045374 1.1417842e-38
2.040724 0.22644921 -0.66733211 1.4282739e-38
2.0521531 -0.18643181 -0.63852739 1.7139014e-38
1.9745197 -0.15141283 -0.60514122 1.1334638e-38
1.9917576 -0.15748402 -0.61922133 1.1149885e-38
2.0230439 -0.17195021 -0.62868637 1.2624309e-38
1.9705263 -0.13158533 -0.61103773 1.0503804e-38
1.9822215 -0.14474861 -0.62740093 1.1516511e-38
1.9618776 -0.1016422 -0.60913777 9.1223003e-39
1.9611614 -0.071502753 -0.6089111 9.2987728e-39
1.9654595 -0.041481648 -0.61026567 8.0141506e-39
1.9649813 -0.015086238 -0.6101163 7.3716651e-39
1.9496868 0.026188992 -0.60534841 7.6507743e-39
1.9635197 0.009591327 -0.6128822 7.4635062e-39
1.9496868 0.041154131 -0.60534841 6.3575244e-39
1.959288 0.045159634 -0.61620086 7.2791163e-39
1.9611614 0.071502745 -0.6089111 7.9262794e-39
1.9611614 0.10160918 -0.6089111 8.3865471e-39
1.9611614 0.1317156 -0.6089111 9.3067097e-39
1.9695127 0.16228157 -0.61176801 9.8598723e-39
1.986014 0.16760367 -0.61264378 9.9516798e-39
1.9735776 0.1873734 -0.60880738 1.0228642e-38
1.9860274 0.19933523 -0.61948037 1.032085e-38
2.0060923 0.20817249 -0.63495642 1.0596361e-38
1.9936634 0.21413578 -0.61501884 1.1966328e-38
2.0185051 0.21721835 -0.63888526 1.2153593e-38
1.9776558 -0.15871486 -0.57847524 1.3354655e-38
1.9959265 -0.16952369 -0.59335762 1.5573478e-38
2.0262289 -0.17842937 -0.60883063 1.8242472e-38
1.9693739 -0.13176513 -0.57996815 1.0861418e-38
1.9549636 -0.10725015 -0.58481503 1.0216758e-38
1.9700466 -0.10020579 -0.57804555 1.0767406e-38
1.968655 -0.071502753 -0.57975215 7.0864392e-39
1.9681506 -0.043422721 -0.58171481 4.3263451e-39
1.9537899 -0.014948625 -0.57732916 3.8653515e-39
1.9667814 -0.022579817 -0.58704185 4.6054305e-39
1.9481499 0.014909512 -0.58087921 4.3259737e-39
1.9531584 0.047841467 -0.58219689 4.1408776e-39
1.9564378 0.073890373 -0.57907766 3.4965886e-39
1.9658446 0.08279267 -0.59068674 6.2642021e-39
1.968655 0.10160918 -0.57975215 4.8777098e-39
1.9737885 0.12959206 -0.58388156 6.8166935e-39
1.994547 0.14093944 -0.57944012 5.4265745e-39
1.9762559 0.16551235 -0.5876717 9.7615558e-39
1.9944116 0.15998532 -0.5799672 9.2036723e-39
1.9792306 0.18548073 -0.58681029 1.0587002e-38
1.9966756 0.19919559 -0.58562058 9.9423401e-39
2.0045776 0.22001994 -0.58862054 1.0492292e-38
2.0172229 0.22821872 -0.59164524 1.4921249e-38
1.9583422 -0.16691054 -0.54756212 6.5411926e-39
1.9757471 -0.15698349 -0.55215532 6.3478078e-39
1.9782753 -0.13110678 -0.55195934 9.8476053e-39
1.9804822 -0.10183762 -0.55180925 6.1655591e-39
1.9761486 -0.071502753 -0.55059326 2.9434078e-39
1.9599301 -0.037412845 -0.56548947 3.1278215e-39
1.9761486 -0.041396331 -0.55059326 2.8515737e-39
1.9589387 -0.01744465 -0.56131119 3.1285165e-39
1.9759144 -0.015994037 -0.55150443 2.9437707e-39
1.958104 0.014912294 -0.55331111 3.0363237e-39
1.9620005 0.048622932 -0.55441868 3.1278061e-39
1.9629896 0.076963559 -0.55358344 3.3129064e-39
1.9756802 0.10474526 -0.55241567 3.0370398e-39
1.9843273 0.12909696 -0.55090761 3.4036699e-39
1.9988135 0.14284404 -0.56283832 3.3121917e-39
1.9886523 0.15141283 -0.55014837 3.2210681e-39
2.0035746 0.16672294 -0.55914706 3.4951396e-39
1.9853548 0.18926606 -0.56298 7.3594191e-39
2.0029554 0.19571741 -0.55475622 1.0124201e-38
2.011127 0.22329317 -0.55942661 1.1412417e-38
1.9865756 -0.18476148 -0.52608889 1.4654395e-38
1.9673798 -0.1671107 -0.53650111 6.3517468e-39
1.9856081 -0.16206422 -0.52583647 7.4566707e-39
1.9673798 -0.14216881 -0.53650111 4.2273181e-39
1.9856062 -0.13191743 -0.52584356 3.7735244e-39
1.9827055 -0.10160918 -0.52507919 3.3125449e-39
1.9827055 -0.075266056 -0.52507919 3.4047391e-39
1.9702181 -0.049633026 -0.52107263 3.3118358e-39
1.9808319 -0.037633028 -0.53236884 2.9426945e-39
1.9705724 -0.017637484 -0.52407748 3.0363167e-39
1.9655329 0.014932109 -0.52440381 2.8522912e-39
1.9687258 0.04859541 -0.52523571 2.9434134e-39
1.9687246 0.078517437 -0.52524108 2.8522884e-39
1.9707941 0.099767573 -0.52321476 3.3118246e-39
1.9822369 0.11101744 -0.52690154 3.2199849e-39
1.9878774 0.12582508 -0.52905929 3.4040216e-39
2.0075045 0.13966973 -0.52901977 3.3118204e-39
1.9924212 0.15141283 -0.5354836 3.1299459e-39
2.0144279 0.16545789 -0.53275967 3.2210653e-39
2.0146079 0.19500184 -0.53352028 8.6490776e-39
2.0148878 0.21966764 -0.53472787 1.0308249e-38
2.031424 0.23592882 -0.53638613 1.131735e-38
2.0329592 0.24672295 -0.5304122 1.5941503e-38
2.001466 -0.18472368 -0.50028813 1.3265676e-38
2.0131931 -0.19299817 -0.50688404 1.5940102e-38
2.0009007 -0.16276878 -0.5024879 1.0493701e-38
1.9979937 -0.13230458 -0.50174648 5.5220002e-39
1.9892623 -0.10160917 -0.49956512 3.2207066e-39
1.9889947 -0.073115595 -0.50060654 3.2199933e-39
1.9790621 -0.046936117 -0.49104211 3.3111057e-39
1.990199 -0.04610046 -0.49592024 3.2192744e-39
1.9734755 -0.01825892 -0.49135491 3.3118274e-39
1.9883254 -0.015053212 -0.50320995 3.2192702e-39
1.9617817 0.014831264 -0.48885918 3.0363209e-39
1.9454511 0.036752291 -0.47719491 3.0348888e-39
1.968029 0.048984062 -0.49083757 2.9441281e-39
1.9782729 0.075298101 -0.49089819 2.7593753e-39
1.986452 0.08279267 -0.51049966 2.3923948e-39
1.9762263 0.099144042 -0.50207752 2.4845863e-39
1.9897307 0.10223639 -0.49774268 2.7597312e-39
1.9936852 0.130389 -0.49957213 3.1281648e-39
2.0116131 0.14474861 -0.51303285 3.4029398e-39
2.002785 0.15141283 -0.49515548 2.8530016e-39
2.0201588 0.16527651 -0.50944936 2.9455644e-39
2.0406353 0.17733212 -0.5005424 3.1281508e-39
2.0241942 0.19782887 -0.51228774 7.6356459e-39
2.0398679 0.19121028 -0.50352937 4.046161e-39
2.0254204 0.22439845 -0.50751698 1.0215697e-38
2.0358379 0.23901285 -0.51921105 9.6589583e-39
2.040499 0.24955535 -0.50977832 1.2706351e-38
2.008842 -0.19251062 -0.47158712 1.3447554e-38
2.0182498 -0.19045871 -0.4872078 1.2987279e-38
2.0062499 -0.16258164 -0.47263288 1.0124219e-38
2.0084381 -0.13248622 -0.47315833 4.4170889e-39
1.9967558 -0.10160917 -0.4704062 3.3121833e-39
1.9878665 -0.067343116 -0.45678324 3.4962439e-39
1.9965004 -0.075950295 -0.47140023 3.3125449e-39
1.9869351 -0.048636694 -0.46040672 3.2203506e-39
1.9715906 -0.018582568 -0.45683846 3.1281564e-39
1.9676393 0.014830826 -0.4559412 3.1277963e-39
1.9723141 0.048278898 -0.45703575 3.0359678e-39
1.9777614 0.07747817 -0.45753422 3.1277963e-39
1.9887975 0.10475596 -0.45315963 3.1274389e-39
1.9958192 0.10386716 -0.47405106 2.6678971e-39
2.0023279 0.13050224 -0.47282815 2.6682615e-39
2.0229905 0.14474861 -0.46876132 2.8533674e-39
2.0074959 0.15141283 -0.47682452 3.0373971e-39
2.0254285 0.16103019 -0.47680533 2.8533674e-39
2.045433 0.17733212 -0.48187381 3.0363139e-39
2.0308697 0.2068844 -0.48631349 8.7405389e-39
2.0457072 0.19495516 -0.48080704 4.1397804e-39
2.0313144 0.22587249 -0.47855613 9.6625134e-39
2.0312824 0.24675965 -0.47265422 8.1009471e-39
2.047873 0.25772387 -0.4854368 9.5703164e-39
2.0159755 -0.21197797 -0.44382882 1.520034e-38
2.0286791 -0.21331376 -0.44662556 1.3723439e-38
2.0159755 -0.18850902 -0.44382882 1.1048309e-38
2.0286791 -0.20188624 -0.44662556 1.2711428e-38
2.0154102 -0.16731119 -0.44602853 9.6657364e-39
2.0296273 -0.15617615 -0.44293627 8.2870941e-39
2.010113 -0.13212019 -0.44253528 3.7724426e-39
2.0042496 -0.10160917 -0.44124728 3.1292298e-39
1.9957819 -0.072955042 -0.42598316 3.6795323e-39
2.0045617 -0.074638844 -0.4400323 3.4043804e-39
1.9888434 -0.04777981 -0.43048221 3.2203478e-39
1.9723758 -0.018508255 -0.42666307 2.8530044e-39
1.9582807 0.024483589 -0.42236286 2.7604515e-39
1.9706591 0.0067222686 -0.42731696 2.7608144e-39
1.9591727 0.047777981 -0.42380145 2.8519366e-39
1.9604535 0.069094315 -0.41881806 2.9444868e-39
1.9735271 0.081483573 -0.42930579 2.8526471e-39
1.9914484 0.10835137 -0.43079162 2.9448371e-39
2.008158 0.13387248 -0.44210771 2.9452001e-39
2.0258348 0.14474861 -0.45769346 2.2083623e-39
2.014946 0.15426494 -0.43819255 2.6700495e-39
2.0348787 0.16645871 -0.4492873 2.8533646e-39
2.0511904 0.17733212 -0.45947146 2.6700481e-39
2.0578756 0.19705757 -0.45304421 2.5757071e-39
2.0386536 0.22509503 -0.44959658 3.9557675e-39
2.0559878 0.23901285 -0.44080287 4.0486778e-39
2.0389421 0.24885139 -0.44887656 4.9713389e-39
2.0531094 0.26214314 -0.45200405 6.342047e-39
2.0667784 0.27152294 -0.45104402 1.206062e-38
2.0201197 -0.21449542 -0.40841928 5.798297e-39
2.0334196 -0.21331376 -0.42817909 6.1591482e-39
2.0241411 -0.19052786 -0.41205516 1.0679534e-38
2.0343678 -0.20188624 -0.4244898 1.086573e-38
2.0235128 -0.17412478 -0.41449928 9.7572216e-39
2.0431314 -0.16051011 -0.41851237 8.1931203e-39
2.0156634 -0.12821285 -0.41290259 3.3121889e-39
2.0362639 -0.14474861 -0.41711122 4.2309152e-39
2.0116806 -0.10236183 -0.41233134 3.3114659e-39
2.0011861 -0.075469904 -0.40056962 3.3121903e-39
2.0108061 -0.079029366 -0.41573313 3.0388306e-39
1.9878421 -0.048322931 -0.39962697 3.2199919e-39
1.9782721 -0.018486237 -0.39769325 3.2200017e-39
1.9637911 0.02568624 -0.39478219 3.1270732e-39
1.9782721 0.0073944959 -0.39769325 3.0359622e-39
1.9644634 0.047732569 -0.39492884 3.1267215e-39
1.9667959 0.071054429 -0.3941384 2.7611802e-39
1.977878 0.085564889 -0.39922798 3.1281522e-39
1.9944715 0.10811743 -0.4009499 3.0366824e-39
2.0036972 0.12720367 -0.39518306 3.4033084e-39
2.0136256 0.13631524 -0.4135285 3.2203534e-39
2.0181773 0.1560685 -0.41383508 3.0374027e-39
2.0431256 0.17253576 -0.41796198 3.1292368e-39
2.0508952 0.18389726 -0.40839046 3.5866304e-39
2.0665441 0.19795401 -0.42410147 3.4072656e-39
2.0478435 0.2268066 -0.42026442 3.2192814e-39
2.0636642 0.21588257 -0.41093311 2.3920319e-39
2.0470808 0.25094312 -0.42323294 3.681333e-39
2.0627046 0.26214311 -0.41466683 4.9652321e-39
2.0636642 0.2775633 -0.41093311 1.4832634e-38
2.0295727 -0.21560366 -0.38489228 6.7241755e-39
2.0308619 -0.19380842 -0.385903 1.0771369e-38
2.0466933 -0.18284036 -0.37652898 9.7579278e-39
2.029166 -0.17412478 -0.39250213 9.3877216e-39
2.0514092 -0.16951926 -0.39032033 8.7441557e-39
2.0691814 -0.15902066 -0.3894642 6.8119837e-39
2.0221786 -0.12929654 -0.38260698 3.4051062e-39
2.0468333 -0.14502752 -0.39205432 3.6795309e-39
2.0120783 -0.10101467 -0.36257118 2.8540904e-39
2.0190203 -0.10421454 -0.38377056 3.1277977e-39
2.0055881 -0.078440368 -0.37275898 3.2210667e-39
1.9922849 -0.04824587 -0.37028643 2.9448427e-39
1.9856341 -0.018486239 -0.36904612 3.220715e-39
1.9655033 0.023408441 -0.36381289 2.8522968e-39
1.9852661 0.0059155966 -0.37047848 2.8530058e-39
1.9683882 0.047664456 -0.36584601 2.9437693e-39
1.9725201 0.075549938 -0.36555201 3.035609e-39
1.9837939 0.088733949 -0.37620798 3.4032999e-39
1.9765534 0.095555961 -0.35616973 3.2193053e-39
2.0012133 0.1088433 -0.37270695 3.1277991e-39
2.0097857 0.13641299 -0.37149063 3.3118372e-39
2.0170507 0.14049663 -0.39143401 3.4033196e-39
2.0238955 0.15522936 -0.3854607 3.1292368e-39
2.0497561 0.17191927 -0.38871711 3.4047349e-39
2.053756 0.18389726 -0.39725861 3.033451e-39
2.0810006 0.19748425 -0.39570364 4.514332e-39
2.1097898 0.20418349 -0.38813686 5.8252187e-39
2.0551863 0.23561835 -0.3916927 3.1281718e-39
2.0752771 0.22259477 -0.3918598 2.4831611e-39
2.0560718 0.24848023 -0.3882471 3.497662e-39
2.0681419 0.26471317 -0.39350906 3.5876982e-39
2.0684619 0.2775633 -0.39226449 9.5692388e-39
2.0382738 -0.22207217 -0.35706231 4.6980521e-39
2.0540433 -0.21606606 -0.35596445 6.2610029e-39
2.0357614 -0.1968367 -0.36683881 1.0956472e-38
2.0539966 -0.19422531 -0.35775441 7.9161845e-39
2.062974 -0.17623489 -0.36138928 7.270808e-39
2.0772011 -0.16317518 -0.36227459 5.7971297e-39
2.0185966 -0.12720367 -0.33720639 3.49872e-39
2.0305364 -0.13128442 -0.35824317 3.9561178e-39
2.0642455 -0.14558531 -0.3564418 4.1361959e-39
2.0155501 -0.10754241 -0.3416428 3.036681e-39
2.0251689 -0.11039022 -0.35984519 2.8522856e-39
2.0026348 -0.078041293 -0.34206617 3.3118232e-39
1.9989287 -0.048212837 -0.34142065 2.8530058e-39
1.9929962 -0.018486237 -0.340399 3.1288725e-39
1.9746432 0.019702753 -0.33640692 2.9444826e-39
1.992602 0.0052817827 -0.34193376 3.0370342e-39
1.9709266 0.047535781 -0.33663347 2.851938e-39
1.9702477 0.076755956 -0.3365137 3.0356034e-39
1.9816762 0.09702605 -0.33623615 3.036688e-39
1.9959798 0.11177382 -0.3419382 2.8519338e-39
2.0085683 0.13788807 -0.34308237 2.8519395e-39
2.0267298 0.15805873 -0.35377041 3.4962257e-39
2.0603516 0.16991119 -0.36195204 3.4965718e-39
2.0770977 0.17733212 -0.358661 3.1292312e-39
2.0895023 0.19575356 -0.36262125 2.4842317e-39
2.1117446 0.20418349 -0.3805308 6.3769029e-39
2.063292 0.23753396 -0.36015242 2.8519282e-39
2.0822823 0.22204404 -0.36460087 2.1150989e-39
2.0638986 0.2528587 -0.35779107 3.3125421e-39
2.0747948 0.2667692 -0.36762193 4.1419426e-39
2.0838883 0.28186947 -0.36208248 6.1594635e-39
2.0679448 -0.22188622 -0.32999444 4.6987653e-39
2.0619943 -0.1945321 -0.329043 3.220352e-39
2.0718744 -0.17112662 -0.32675686 2.392392e-39
2.0845265 -0.16201213 -0.3349779 1.9317824e-39
2.024184 -0.12720367 -0.31546518 5.0606479e-39
2.0395484 -0.13731007 -0.32317567 3.401156e-39
2.0659978 -0.14530641 -0.33355203 1.3800478e-39
2.0092888 -0.1077266 -0.31316039 3.4047391e-39
2.0011015 -0.077675231 -0.31187192 3.0363195e-39
2.0018473 -0.048091739 -0.311984 2.8519395e-39
1.9882627 -0.0088205505 -0.31060731 3.2207276e-39
2.0004418 -0.022855716 -0.31142634 3.1274375e-39
1.9857147 0.014667675 -0.31012309 2.8530058e-39
2.0012786 0.014788992 -0.30817106 2.8523052e-39
1.9775257 0.047515597 -0.30819359 2.7600998e-39
1.9816207 0.076932572 -0.30883178 2.9444868e-39
1.9886285 0.10633666 -0.30918345 2.6682629e-39
1.9975977 0.11091744 -0.32249463 2.5764596e-39
1.9911898 0.1249578 -0.29921669 2.7597564e-39
2.0097046 0.13823049 -0.31395346 2.9437665e-39
2.0260465 0.15713395 -0.30821809 3.2203688e-39
2.0367923 0.16126314 -0.32425803 3.4043761e-39
2.0706029 0.1711266 -0.33170435 3.0370314e-39
2.0828547 0.17733212 -0.33625865 2.6693362e-39
2.0910654 0.1972812 -0.33368957 2.3924004e-39
2.0717151 0.22795598 -0.32737523 2.208012e-39
2.0814157 0.22166514 -0.34185925 1.8406644e-39
2.0707004 0.25403756 -0.33132371 2.8526485e-39
2.084774 0.2698532 -0.3287912 3.4047363e-39
2.0854285 0.28163901 -0.33277345 5.0570662e-39
2.0725729 -0.22157431 -0.29993239 4.8835125e-39
2.0546048 -0.18926607 -0.293515 4.4213979e-39
2.0658662 -0.19723058 -0.30192325 4.1437348e-39
2.055547 -0.17412478 -0.2898488 3.2232317e-39
2.0705967 -0.16250172 -0.30073601 2.0246885e-39
2.0256553 -0.12682936 -0.28563383 3.8650012e-39
2.0476899 -0.13966054 -0.29631686 3.0341657e-39
1.9975933 -0.095555961 -0.27429974 3.4033154e-39
2.0100198 -0.1089557 -0.28448763 3.865713e-39
1.9985081 -0.073504582 -0.27074018 3.4072698e-39
2.0075362 -0.07788869 -0.28382096 2.9451987e-39
1.9966786 -0.058803666 -0.2778593 3.0381076e-39
2.0075078 -0.045504589 -0.28393117 3.0352461e-39
1.9972013 -0.013650852 -0.27582526 3.0363153e-39
2.0065958 -0.022183487 -0.28748149 2.8522828e-39
1.9925174 0.01547951 -0.28177515 3.1277935e-39
2.0095611 0.0073944959 -0.27594304 3.1288781e-39
1.9848037 0.047515597 -0.27987343 2.9437735e-39
1.9875437 0.076877058 -0.28025976 3.0363223e-39
1.9957638 0.10658166 -0.28141883 2.8519324e-39
1.9966786 0.13047065 -0.2778593 2.8519352e-39
2.0112793 0.14266881 -0.28733671 3.1281522e-39
2.0302589 0.159474 -0.28379074 3.4050992e-39
2.0447073 0.1677202 -0.29586861 3.0377474e-39
2.073612 0.17589724 -0.30392396 2.760806e-39
2.0814102 0.19539082 -0.28965065 3.217115e-39
2.0929255 0.19678114 -0.30453274 3.5923757e-39
2.0789161 0.22751389 -0.29935527 2.2998461e-39
2.0898914 0.22102265 -0.30887803 1.9321454e-39
2.0787399 0.25592369 -0.30004033 3.1285151e-39
2.0886121 0.2698532 -0.31385633 4.2337767e-39
2.0804567 0.28350827 -0.29336128 9.2987476e-39
2.0908508 0.28013334 -0.30514434 4.6875886e-39
2.0615141 -0.21197797 -0.26662958 4.6029516e-39
2.078078 -0.22391193 -0.27047592 4.607999e-39
2.0982072 -0.23901285 -0.27651912 3.3226776e-39
2.0611999 -0.19305137 -0.26785168 4.7872994e-39
2.0617073 -0.16480705 -0.26587754 2.5764274e-39
2.0719764 -0.15490642 -0.27814782 1.8406574e-39
2.0277002 -0.12894924 -0.25357166 3.2214212e-39
2.0556605 -0.14025792 -0.26874599 2.2069358e-39
2.0044541 -0.1010688 -0.24760303 3.0363349e-39
2.0156209 -0.10912753 -0.25637978 3.7724482e-39
2.003293 -0.075766265 -0.25212094 3.1288711e-39
2.0141623 -0.083804287 -0.25803861 3.313614e-39
2.0032649 -0.048022997 -0.25223047 3.0363223e-39
2.0123217 -0.044366974 -0.26520038 3.3111085e-39
2.003082 -0.018376146 -0.25294235 2.7611717e-39
1.9986818 0.014644404 -0.25238675 2.9441281e-39
1.9916415 0.04728505 -0.25042924 2.9430575e-39
1.9927682 0.076786235 -0.25164378 3.1274347e-39
2.0017056 0.10651606 -0.25277358 2.7597382e-39
2.003082 0.13598348 -0.25294235 3.0356048e-39
2.0049114 0.15435964 -0.24582325 3.3125392e-39
2.0260677 0.16580442 -0.25510335 3.036681e-39
2.0473373 0.17311195 -0.27358338 3.0366754e-39
2.0566132 0.18305963 -0.26159468 2.8526569e-39
2.0827036 0.19830824 -0.27256513 1.8399427e-39
2.0779338 0.22514312 -0.27003306 2.4831583e-39
2.0836301 0.25371236 -0.26988658 3.3114771e-39
2.0982072 0.2698532 -0.27651912 4.0486595e-39
2.1011603 0.28111979 -0.27248979 5.8886345e-39
2.0696795 -0.21765596 -0.23485593 5.5277847e-39
2.0837979 -0.2250011 -0.24179117 5.43488e-39
2.0604637 -0.19229177 -0.23757234 4.2341382e-39
2.0619643 -0.1622321 -0.23775901 2.3012768e-39
2.0307841 -0.13117433 -0.22549924 2.6675426e-39
2.0597084 -0.14321467 -0.23749748 1.749196e-39
2.0101659 -0.10562754 -0.2226152 3.4047461e-39
2.0196838 -0.11831193 -0.23655327 3.7742601e-39
2.0104001 -0.077179812 -0.22446588 3.1288753e-39
2.0093753 -0.047928922 -0.22147653 3.1281564e-39
2.0096788 -0.01877105 -0.22236222 3.0359594e-39
2.005795 0.015639033 -0.22229643 2.6686258e-39
1.9953856 0.047575857 -0.21839739 2.9434092e-39
1.9906248 0.076386057 -0.21865129 2.8522884e-39
2.0001664 0.10600165 -0.21969207 2.7604543e-39
2.0058863 0.13506112 -0.22109757 2.8526499e-39
2.0104001 0.1617101 -0.22446588 2.9452001e-39
2.0224445 0.1774679 -0.2258106 3.1285319e-39
2.0431354 0.18919145 -0.2256504 2.6682685e-39
2.0617051 0.19766386 -0.23696072 1.8403127e-39
2.0795612 0.20315595 -0.24863346 1.9317796e-39
2.071564 0.22333394 -0.22752355 2.5746393e-39
2.0813673 0.22474129 -0.24160628 2.4835157e-39
2.071564 0.24226055 -0.22752355 3.1281634e-39
2.0880013 0.25678384 -0.24150589 3.2203548e-39
2.108057 0.28171256 -0.24689595 5.790325e-39
2.0732744 -0.21675105 -0.21015371 5.9873223e-39
2.0657063 -0.19207707 -0.20813321 4.0504686e-39
2.0567765 -0.15713395 -0.18864124 2.6704082e-39
2.064198 -0.16182202 -0.2079758 2.5767819e-39
2.0177183 -0.1249578 -0.19598933 3.310747e-39
2.0475795 -0.13923424 -0.19764455 2.0246913e-39
2.0100694 -0.1063098 -0.19086464 3.4043846e-39
2.0107641 -0.076883666 -0.19171244 3.4058279e-39
2.0067029 -0.047260441 -0.18875001 3.7738803e-39
2.0083938 -0.017860143 -0.18986504 3.2203534e-39
2.0070713 0.013625847 -0.19008213 2.7604557e-39
1.9978701 0.047265135 -0.18684281 3.0348916e-39
1.9986253 0.076392666 -0.18691753 2.7597382e-39
2.0084572 0.10599632 -0.18783306 2.8515765e-39
2.0088406 0.1359292 -0.188941 2.8522926e-39
2.0151443 0.16514084 -0.19372913 2.8526499e-39
2.0190907 0.18559909 -0.19064997 3.2196318e-39
2.0417094 0.19863522 -0.19905806 2.6675468e-39
2.0613878 0.20321836 -0.2189104 1.5644474e-39
2.0567765 0.21699451 -0.18864124 1.7491932e-39
2.0693691 0.22313237 -0.20851557 2.2991272e-39
2.086514 0.22855046 -0.22157866 2.8515751e-39
2.0744214 0.24878788 -0.20676224 3.1288753e-39
2.0944462 0.26360366 -0.21481918 3.3129036e-39
2.0997381 0.27941287 -0.21029866 5.0545718e-39
2.1169615 0.28587767 -0.22095266 7.5466901e-39
2.0716915 -0.21450828 -0.17881691 6.9088947e-39
2.0631089 -0.19155377 -0.16400117 4.6947604e-39
2.0710955 -0.19569176 -0.1811364 4.6965667e-39
2.0559518 -0.16764161 -0.16935186 3.3125477e-39
2.0695057 -0.17060308 -0.18732151 3.4040314e-39
2.0259514 -0.12863302 -0.16395323 2.851931e-39
2.0463142 -0.14192623 -0.17149757 2.3913214e-39
2.0192626 -0.10547522 -0.16051839 3.8653487e-39
2.0134606 -0.076678902 -0.15932332 5.0620926e-39
1.9933602 -0.036128439 -0.15417191 3.4015217e-39
2.0083926 -0.048079263 -0.15915659 4.0490239e-39
1.992461 -0.023483487 -0.15767106 4.8787874e-39
2.0056157 -0.016355963 -0.15871203 4.7865917e-39
2.0114841 0.014578348 -0.15917972 3.1285151e-39
2.0043497 0.047251374 -0.1586159 2.8519282e-39
2.0066283 0.076422945 -0.1587894 2.9437679e-39
2.0058663 0.10547889 -0.15874138 2.9437721e-39
2.0142167 0.13514312 -0.15939547 2.9441309e-39
2.0196185 0.16421197 -0.16259992 2.8522884e-39
2.0231814 0.190937 -0.167366 3.1278019e-39
2.0401976 0.20735413 -0.16878328 2.7597396e-39
2.0589066 0.22559047 -0.1658891 2.5746365e-39
2.070755 0.22956149 -0.18246175 2.1158276e-39
2.0739822 0.25162515 -0.18102917 2.9441281e-39
2.0988395 0.26664218 -0.17361781 3.4040328e-39
2.100034 0.27861285 -0.18504167 5.241484e-39
2.0660887 -0.21699451 -0.15240584 6.6276849e-39
2.0787165 -0.21638992 -0.15148036 6.080604e-39
2.061388 -0.19687046 -0.14177009 6.0784039e-39
2.0356219 -0.16066003 -0.12632358 3.312912e-39
2.0437636 -0.1682248 -0.14285329 3.2210737e-39
2.0273099 -0.13436024 -0.13389094 2.6686216e-39
2.0426903 -0.14788991 -0.14703102 2.943405e-39
2.0219662 -0.1066042 -0.13219428 4.2341368e-39
2.0229492 -0.076748163 -0.13119118 4.1430202e-39
2.0012736 -0.044799265 -0.1233795 5.0599332e-39
2.0145128 -0.048336282 -0.13358806 4.2334151e-39
2.0205405 -0.018224999 -0.13102046 4.2337753e-39
2.0239301 0.014599633 -0.13123991 2.9441351e-39
2.0153961 0.047322933 -0.13069877 2.851938e-39
2.0115886 0.076326609 -0.13044775 2.8512136e-39
2.0184476 0.10575687 -0.13087767 2.5760714e-39
2.0230134 0.1352367 -0.13119274 2.8519352e-39
2.0260298 0.165407 -0.13245273 2.6693362e-39
2.0335925 0.19284144 -0.13422048 2.5764274e-39
2.0436106 0.20704587 -0.14345014 2.8522856e-39
2.035465 0.21610351 -0.1269338 2.8519507e-39
2.0533953 0.22858319 -0.14246105 2.9434134e-39
2.0670025 0.24813063 -0.13920733 3.0352461e-39
2.0802226 0.25858474 -0.15097728 3.3121973e-39
2.0801218 0.2709578 -0.14601307 4.601525e-39
2.1110191 0.27859378 -0.16479446 6.2524032e-39
2.1289124 0.2852734 -0.15704003 9.5728037e-39
2.0944202 -0.21356238 -0.12653233 5.7100362e-39
2.111165 -0.22093211 -0.12565702 3.4145033e-39
2.0433321 -0.18376146 -0.096321553 4.5114776e-39
2.0566621 -0.19556499 -0.11120635 5.8954672e-39
2.0417638 -0.16381024 -0.1024236 3.4972934e-39
2.0509725 -0.1774679 -0.11480304 3.7735258e-39
2.0294607 -0.13519357 -0.10283963 2.7604585e-39
2.0241723 -0.1056688 -0.10257607 3.5887758e-39
2.02265 -0.076464228 -0.10247196 4.7869393e-39
2.0041511 -0.043354128 -0.11218221 4.7876553e-39
2.0255837 -0.047644768 -0.10190537 4.6032767e-39
2.0302289 -0.018271789 -0.10286418 4.3263296e-39
2.0095465 0.028902752 -0.09118738 3.1299459e-39
2.0256422 0.013795076 -0.10319988 3.0373971e-39
2.0070288 0.044799261 -0.10098497 3.219273e-39
2.0190914 0.04825221 -0.10262325 3.0366866e-39
2.0287638 0.076706417 -0.10278985 2.8522898e-39
2.0302913 0.10599633 -0.10287267 2.7604557e-39
2.0302913 0.1352367 -0.10287267 3.4965774e-39
2.0380013 0.16511536 -0.10325461 3.0373999e-39
2.0344918 0.19412614 -0.10310039 2.7604529e-39
2.0413718 0.21631353 -0.1039492 2.5757253e-39
2.0562732 0.23216391 -0.11024695 2.7601082e-39
2.0723643 0.25142875 -0.11191639 3.2199933e-39
2.0857418 0.26343119 -0.1241439 3.4033028e-39
2.0894885 0.2709578 -0.10956441 7.4419612e-39
2.047549 -0.19035195 -0.075895675 7.1840551e-39
2.056494 -0.19965138 -0.09331768 6.2631904e-39
2.041786 -0.16483027 -0.074716583 3.7742517e-39
2.0180895 -0.12825596 -0.057945494 3.6795379e-39
2.0292053 -0.13543929 -0.074955359 3.4962299e-39
2.032136 -0.10568783 -0.07434994 3.4973005e-39
2.0396805 -0.076841742 -0.074623533 3.681333e-39
2.0382729 -0.047530733 -0.074576974 4.8777168e-39
2.0375693 -0.018275229 -0.074552536 3.8650124e-39
2.0326593 0.014558533 -0.074372865 3.3121889e-39
2.0298989 0.04734771 -0.074266449 3.1281676e-39
2.0375693 0.076755956 -0.074552476 3.0366782e-39
2.0382726 0.10603669 -0.074577004 3.4047447e-39
2.0396798 0.13538806 -0.074625991 4.0497596e-39
2.0481167 0.16532478 -0.074942023 4.141951e-39
2.0410888 0.19406056 -0.07466764 3.5880626e-39
2.0460103 0.21654588 -0.074851364 3.9579465e-39
2.0653865 0.23363119 -0.082820952 3.0359664e-39
2.0832231 0.24842128 -0.085732698 3.4958739e-39
2.0968416 0.26117924 -0.088988557 4.5082154e-39
2.091362 0.2709578 -0.10227467 7.6302943e-39
2.0541317 -0.18676749 -0.047985014 7.9194775e-39
2.0399792 -0.16344608 -0.045086376 5.2472308e-39
2.0212369 -0.13367522 -0.045698505 3.6824204e-39
2.0335834 -0.13442202 -0.041848604 5.155747e-39
2.0421553 -0.10646755 -0.045126457 5.4323269e-39
2.0490811 -0.076909862 -0.046330586 5.0628241e-39
2.0462599 -0.047543347 -0.0462594 5.5241526e-39
2.048378 -0.018310551 -0.046303581 4.5096573e-39
2.0470581 0.014625688 -0.046268329 3.6802512e-39
2.0440762 0.047493581 -0.046218939 3.1285319e-39
2.0461931 0.076819494 -0.046268001 3.2196388e-39
2.0519071 0.10637225 -0.046382118 3.7735188e-39
2.053318 0.13580434 -0.046416473 5.8911512e-39
2.056139 0.16538532 -0.046487603 5.8003961e-39
2.0531285 0.1928234 -0.052677594 5.4316234e-39
2.0689175 0.19965139 -0.044975646 7.1793775e-39
2.0766864 0.22767679 -0.052625772 6.1688255e-39
2.0906105 0.24941897 -0.056985836 6.2595638e-39
2.0988555 0.25590461 -0.073115714 3.9583136e-39
2.0607128 -0.18376146 -0.028689815 7.8165101e-39
2.0595102 -0.16292185 -0.020111358 1.1241759e-38
2.0748992 -0.1774679 -0.021699885 1.5948029e-38
2.0567765 -0.13627033 -0.017222213 1.1053025e-38
2.0521045 -0.10525136 -0.017189329 9.7644495e-39
2.0595 -0.077766851 -0.018678371 6.5383199e-39
2.0614479 -0.046699081 -0.019516956 6.9063738e-39
2.0620425 -0.018358488 -0.017991424 5.709641e-39
2.0565631 0.015621352 -0.016347907 3.7731713e-39
2.0508873 0.04727919 -0.015117244 3.4965816e-39
2.052062 0.076753438 -0.017906647 3.772444e-39
2.0606241 0.10644542 -0.017986396 6.7212538e-39
2.0628238 0.13513534 -0.020475412 9.1169151e-39
2.0618105 0.15876992 -0.024418317 9.024718e-39
2.0824909 0.1717148 -0.01970931 1.0314374e-38
2.0847945 0.19697797 -0.025380604 1.1327822e-38
2.0904787 0.22458918 -0.03071568 1.3077383e-38
2.0680311 -0.15435964 -0.00021332597 2.0540143e-38
2.0785801 -0.16267891 -0.0073763034 1.9081527e-38
2.0696943 -0.13498114 0.0062585915 1.9343409e-38
2.0698605 -0.10382523 0.006905789 1.6026908e-38
2.0838387 -0.10880473 0.013085899 1.6766284e-38
2.0684884 -0.08269266 0.0015664528 1.3539791e-38
2.0835352 -0.075082578 0.011905462 1.3908577e-38
2.08267 -0.048885826 0.0085388925 9.8541214e-39
2.0702672 -0.013067483 0.0084878467 5.8915212e-39
2.0838387 -0.025352556 0.013085899 7.4599091e-39
2.0363185 0.028848929 0.027718671 1.0953612e-38
2.0619872 0.012966973 0.011980678 6.0762487e-39
2.036797 0.04718899 0.025046917 1.0678821e-38
2.048121 0.045716383 0.0078316908 4.7858939e-39
2.0353167 0.064849541 0.031185415 1.076884e-38
2.0567484 0.076439932 0.011421811 5.8925848e-39
2.0679412 0.10033965 0.009257352 5.7053433e-39
2.0875938 0.11562715 0.0084131965 8.2846461e-39
2.0972352 0.13858274 0.0041462756 1.2616033e-38
2.1047857 0.16711071 -0.0018275616 1.3907126e-38
2.119463 0.16558534 0.0070713121 1.5012775e-38
2.1033373 0.18706422 -0.0074642031 1.5294021e-38
2.1166527 0.19192845 -0.00386333 1.7593531e-38
2.0877826 -0.096128441 0.02843258 2.072885e-38
2.0881507 -0.075423852 0.029864946 1.77808e-38
2.0790083 -0.05880367 0.042501479 1.695253e-38
2.0928526 -0.04712794 0.035012793 1.1239219e-38
2.0705144 -0.01172734 0.041591357 1.344937e-38
2.0916991 -0.025910094 0.035636704 7.5488677e-39
1.9955401 0.028110091 0.071262799 9.3909838e-39
2.0196054 0.028499082 0.058438096 1.0310411e-38
2.0431552 0.016084686 0.049789019 1.1138727e-38
2.0601203 0.0072807339 0.035073277 1.0865026e-38
1.9855587 0.046443772 0.069442771 8.5615763e-39
2.0143588 0.047422219 0.050297562 1.0033458e-38
2.0347052 0.046785321 0.039855395 1.0863565e-38
1.9893891 0.065847337 0.073040232 8.1945832e-39
2.0141778 0.06986177 0.059416156 8.2828048e-39
2.0368881 0.075519882 0.052030735 9.5728345e-39
2.0593886 0.082313403 0.039279006 1.0494788e-38
2.0262184 0.092884406 0.062073518 9.8497956e-39
2.0712183 0.096423239 0.042321607 1.1045098e-38
2.1035559 0.11270046 0.029544819 1.1326024e-38
2.1112528 0.13655688 0.023335898 1.3995391e-38
2.1303632 0.13587523 0.02538028 1.4180828e-38
2.1213362 0.16558534 0.014361016 1.934703e-38
2.1099257 -0.044704586 0.05031433 1.299634e-38
2.1450539 -0.037853207 0.058439359 1.2306422e-38
