# .PCD v0.7 - Point Cloud Data file format
VERSION 0.7
FIELDS x y z rgb
SIZE 4 4 4 4
TYPE F F F F
COUNT 1 1 1 1
WIDTH 135
HEIGHT 1
VIEWPOINT 0 0 0 1 0 0 0
POINTS 135
DATA ascii
3.2745631 -0.36066055 -1.4069829 1.2435944e-38
3.240448 -0.33793578 -1.3991592 1.0514637e-38
3.2399602 -0.31455657 -1.4012278 8.8482848e-39
3.2760406 -0.30913761 -1.4007143 1.188856e-38
3.240448 -0.28055045 -1.3991592 1.0319075e-38
3.2765329 -0.28766975 -1.3986247 1.1247891e-38
3.2092586 -0.25247705 -1.3789234 7.0069169e-39
3.2397165 -0.25823393 -1.4022622 1.2876813e-38
3.2775178 -0.2511743 -1.3944457 9.2123673e-39
3.2092586 -0.2398532 -1.3789234 8.5548108e-39
3.2409353 -0.22529049 -1.3970904 1.3529373e-38
3.2775178 -0.21897247 -1.3944457 1.603306e-38
3.2419107 -0.2040367 -1.392953 1.5126887e-38
3.275548 -0.18891744 -1.4028038 1.2158693e-38
3.3111334 -0.18217981 -1.4087477 1.2628294e-38
3.2775178 -0.16744953 -1.3944457 1.2353501e-38
3.3091435 -0.16049173 -1.4171916 1.0506e-38
3.2775178 -0.13524771 -1.3944457 1.3363337e-38
3.3081481 -0.13663486 -1.4214134 7.6551254e-39
3.2775178 -0.1159266 -1.3944457 1.345589e-38
3.3081481 -0.11711559 -1.4214134 7.0061784e-39
3.3456829 -0.10518899 -1.4234469 1.3456607e-38
3.2506869 -0.36981651 -1.3557165 1.4184069e-38
3.2140849 -0.345052 -1.3584447 1.1977136e-38
3.2482493 -0.34218654 -1.36606 1.1243898e-38
3.2477612 -0.31880733 -1.3681287 1.0415259e-38
3.2819502 -0.30913761 -1.3756398 1.0963022e-38
3.2448361 -0.28055045 -1.3805408 1.0776124e-38
3.2822454 -0.28595233 -1.3743861 1.0690755e-38
3.2477615 -0.26142201 -1.3681287 8.3004906e-39
3.2824426 -0.24902751 -1.3735503 9.8476586e-39
3.2448361 -0.22954127 -1.3805408 1.1883117e-38
3.2819502 -0.22541285 -1.3756398 1.2530666e-38
3.2448361 -0.2040367 -1.3805408 1.5404574e-38
3.2819502 -0.19965139 -1.3756398 1.2808351e-38
3.3171039 -0.18217981 -1.3834161 1.2529619e-38
3.3165066 -0.16396184 -1.3859491 1.1525191e-38
3.3547318 -0.15778348 -1.3850529 1.123999e-38
3.2804728 -0.12880734 -1.3819084 1.0885577e-38
3.3171036 -0.13663486 -1.3834161 1.2347048e-38
3.3547318 -0.14463486 -1.3850529 1.2348787e-38
3.2814577 -0.11163303 -1.3777293 1.252496e-38
3.3190939 -0.10844037 -1.3749722 1.317177e-38
3.253612 -0.36981651 -1.3433043 1.3817781e-38
3.2903223 -0.36495414 -1.3401177 1.0500902e-38
3.2543435 -0.34431189 -1.3402011 1.0968016e-38
3.2913072 -0.33919263 -1.3359386 5.1582946e-39
3.253612 -0.31880733 -1.3433043 8.5835655e-39
3.289928 -0.3142899 -1.3417892 8.2950998e-39
3.2565374 -0.28055045 -1.330892 1.2534637e-38
3.2888448 -0.28766975 -1.3463863 9.584768e-39
3.2565374 -0.25504586 -1.330892 1.1145959e-38
3.2863824 -0.2511743 -1.3568339 9.0254677e-39
3.2887461 -0.22412476 -1.3468041 1.1059516e-38
3.2893372 -0.1953578 -1.3442968 1.1615914e-38
3.3245666 -0.19519266 -1.3517514 1.1706658e-38
3.3245666 -0.16266054 -1.3517514 1.2720815e-38
3.3230741 -0.13663486 -1.3580844 1.1612354e-38
3.3607643 -0.13806054 -1.359457 1.3642741e-38
3.3230741 -0.11711559 -1.3580844 1.1699182e-38
3.3607643 -0.11833761 -1.359457 1.4194132e-38
3.226634 -0.3787156 -1.3052002 1.4371662e-38
3.2629733 -0.37491745 -1.3035852 1.225947e-38
3.2967243 -0.36066055 -1.3129537 5.8980162e-39
3.2653136 -0.34431192 -1.2936554 4.70161e-39
3.296232 -0.33919263 -1.3150432 5.0667912e-39
3.2643383 -0.3103058 -1.2977927 3.8711473e-39
3.2952468 -0.32201836 -1.3192222 8.8532411e-39
3.2967243 -0.28337613 -1.3129536 2.8519605e-39
3.2638509 -0.21678898 -1.2998614 1.745236e-39
3.2967243 -0.2318532 -1.3129537 8.317756e-39
3.2964287 -0.19321102 -1.3142072 1.3807919e-39
3.3320293 -0.19519266 -1.3200868 3.0366922e-39
3.2972169 -0.16315596 -1.3108641 1.9343076e-39
3.3290443 -0.15615413 -1.3327527 5.5140394e-40
3.3310347 -0.13880366 -1.3243089 3.0363307e-39
3.3637805 -0.13148624 -1.3466591 3.4916084e-39
3.366797 -0.1117633 -1.3338611 4.0505107e-39
3.2697017 -0.36981651 -1.2750371 1.1338607e-38
3.2697017 -0.35068804 -1.2750371 5.897984e-39
3.302634 -0.33489907 -1.2878791 2.7651444e-39
3.2697017 -0.30605504 -1.2750371 3.1317633e-39
3.302634 -0.32201836 -1.2878791 2.1219232e-39
3.2711644 -0.28055045 -1.2688309 2.4874631e-39
3.302634 -0.28015596 -1.2878791 1.9368047e-39
3.3350146 -0.29929543 -1.3074211 3.4058223e-39
3.2711644 -0.24866971 -1.2688309 9.0186084e-39
3.2692139 -0.22103973 -1.2771057 3.783618e-39
3.3041115 -0.2318532 -1.2816105 7.9529419e-39
3.302634 -0.19321102 -1.2878792 2.4889009e-39
3.2711644 -0.15302752 -1.2688309 2.0218915e-39
3.3021417 -0.16315596 -1.2899687 3.3150784e-39
3.3041115 -0.13524771 -1.2816105 2.7593669e-40
3.3350146 -0.13663486 -1.3074211 2.8580421e-39
3.3385968 -0.11191045 -1.2922221 4.7956343e-39
3.2425616 -0.34084404 -1.2376206 5.2558011e-39
3.2755525 -0.34431189 -1.2502126 4.8816866e-39
3.3070664 -0.33489907 -1.2690734 3.3125505e-39
3.2770152 -0.31880733 -1.2440065 5.3515925e-39
3.3080513 -0.31343117 -1.2648942 4.5197158e-39
3.2425616 -0.27772477 -1.2376206 2.6682685e-39
3.2770152 -0.29330274 -1.2440065 6.6621821e-39
3.3070664 -0.2962569 -1.2690734 2.482169e-39
3.2411137 -0.26510093 -1.2437642 2.2065672e-39
3.2750647 -0.24654432 -1.2522812 1.0406195e-38
3.2770152 -0.22954127 -1.2440065 7.4876141e-39
3.3080513 -0.22326605 -1.2648942 3.874729e-39
3.2770152 -0.19766055 -1.2440065 3.038144e-39
3.3070664 -0.19321102 -1.2690734 2.8551708e-39
3.276284 -0.16259173 -1.2471095 4.7930895e-39
3.3070664 -0.16744953 -1.2690734 3.1274628e-39
3.3085437 -0.13524771 -1.2628047 1.2725844e-38
3.311203 -0.10562202 -1.2515211 7.8247553e-39
3.3100212 -0.077284403 -1.2565361 8.3757431e-39
3.2478704 -0.30718043 -1.215094 3.402972e-39
3.2148137 -0.27497983 -1.2071396 2.6732893e-39
3.2498014 -0.27772477 -1.2069026 4.4156764e-39
3.2814033 -0.29330274 -1.2253882 3.3100786e-39
3.1808267 -0.25993761 -1.2074918 1.1992466e-39
3.2138579 -0.25414801 -1.2111949 5.3494835e-39
3.2498014 -0.258789 -1.2069026 5.3430025e-39
3.2843287 -0.25185779 -1.212976 8.9343231e-39
3.2498014 -0.2398532 -1.2069026 1.0971266e-38
3.2828662 -0.22316514 -1.2191821 4.2435157e-39
3.2814033 -0.19766055 -1.2253882 2.7626179e-39
3.2811108 -0.1657798 -1.2266294 2.6715181e-39
3.2822809 -0.13262385 -1.2216645 1.4744084e-39
3.2843287 -0.11477064 -1.212976 2.3045278e-39
3.3159308 -0.10304587 -1.2314616 1.9350264e-39
3.2809155 -0.085015289 -1.2274568 4.7819324e-39
3.2205484 -0.29997799 -1.1828082 2.8544576e-39
3.2526972 -0.2840367 -1.1946154 2.2109057e-39
3.2887168 -0.24866971 -1.1943576 1.1055167e-38
3.2887168 -0.12752293 -1.1943576 3.8671648e-39
3.2526972 -0.10099083 -1.1946154 2.2116511e-39
