# .PCD v0.7 - Point Cloud Data file format
VERSION 0.7
FIELDS x y z rgb
SIZE 4 4 4 4
TYPE F F F F
COUNT 1 1 1 1
WIDTH 190
HEIGHT 1
VIEWPOINT 0 0 0 1 0 0 0
POINTS 190
DATA ascii
3.2360599 -0.012752294 -1.4177775 9.2000765e-39
3.1675034 0.018748622 -1.4078747 1.3368372e-38
3.2034667 0 -1.4034978 1.1520829e-38
3.1675034 0.043746788 -1.4078747 1.1421143e-38
3.1672163 0.07499449 -1.4090911 1.0956213e-38
3.2020187 0.069431193 -1.4096414 1.4004379e-38
3.1368141 0.11140183 -1.3942341 1.3084608e-38
3.1675034 0.099992655 -1.4078747 1.1689462e-38
3.1056485 0.14712662 -1.3869736 1.4652265e-38
3.1359622 0.13368221 -1.3978484 1.4468603e-38
3.168937 0.14998899 -1.4017918 1.4837011e-38
3.1325548 0.16710274 -1.4123058 1.1695538e-38
3.1675034 0.16873762 -1.4078747 1.1973571e-38
3.2034667 0.17042202 -1.4034978 1.1057372e-38
3.2005711 0.19566973 -1.4157851 1.0401209e-38
3.200933 0.22722936 -1.4142492 1.1331094e-38
3.2005706 0.25247705 -1.415785 1.1152437e-38
3.2063625 -0.012623854 -1.3912107 4.8680254e-39
3.173238 0.018748622 -1.3835431 1.2815218e-38
3.2063625 0 -1.3912107 1.106023e-38
3.173238 0.043746788 -1.3835431 1.2626883e-38
3.1735244 0.077494308 -1.3823265 1.0964121e-38
3.173238 0.10624219 -1.3835431 1.1432299e-38
3.1410735 0.12996881 -1.3761622 1.1247173e-38
3.1739547 0.14061469 -1.3805016 1.1614522e-38
3.2081001 0.16663487 -1.3838383 1.2441405e-38
3.2073276 0.19356577 -1.3871148 1.2807305e-38
3.1746716 0.21248439 -1.3774602 1.2996725e-38
3.2078104 0.23354128 -1.385067 1.2536469e-38
3.2078104 0.25247705 -1.385067 1.2532497e-38
3.240448 0.26779816 -1.3991592 1.1345474e-38
3.2745631 0.28337616 -1.4069829 9.4885492e-39
3.1804061 0.018748622 -1.3531288 1.1985449e-38
3.1495919 0.043322936 -1.3400185 1.0776132e-38
3.1775389 0.043746788 -1.3652945 1.1242839e-38
3.1800478 0.076556884 -1.3546494 1.244392e-38
3.1798325 0.1074921 -1.3555619 1.3552432e-38
3.2150502 0.10099083 -1.354349 1.410344e-38
3.1799283 0.13332355 -1.3551564 1.3458433e-38
3.2150502 0.13886239 -1.354349 1.4014839e-38
3.1804061 0.16248807 -1.3531288 1.4652305e-38
3.2143264 0.16726606 -1.3574208 1.3918707e-38
3.1804061 0.19686054 -1.3531288 1.2905983e-38
3.2150502 0.1893578 -1.354349 1.3817578e-38
3.1804061 0.2124844 -1.3531288 1.2442143e-38
3.2131195 0.23143731 -1.3625405 1.2626882e-38
3.2121544 0.25247705 -1.3666363 1.2992397e-38
3.2482493 0.25929663 -1.36606 1.2905602e-38
3.2121544 0.27772477 -1.3666363 9.8540934e-39
3.1581104 0.012377981 -1.3038749 4.0569538e-39
3.1861408 0.012499082 -1.3287972 8.6591753e-39
3.1538513 0.043322936 -1.3219467 1.2350637e-38
3.1552708 0.068078898 -1.3159227 1.0225805e-38
3.1875744 0.087493576 -1.3227143 7.0972726e-39
3.189008 0.10624219 -1.3166314 6.4325625e-40
3.2179463 0.10730276 -1.3420618 1.4009707e-38
3.2193942 0.13255045 -1.3359182 8.2954613e-39
3.2208424 0.16411011 -1.3297746 8.198214e-39
3.2208424 0.19566973 -1.3297746 8.8496748e-39
3.2208424 0.22722936 -1.3297746 9.1212311e-39
3.22229 0.25247705 -1.3236309 3.217506e-39
3.2550747 0.26779816 -1.3370981 6.6261701e-39
3.2565374 0.28055045 -1.330892 1.0321922e-38
3.2863824 0.28337616 -1.3568339 1.0320479e-38
3.1623697 0.012377981 -1.2858031 3.4083755e-39
3.1976099 0.012499082 -1.2801341 4.3281513e-39
3.2653136 0 -1.2936554 4.9871778e-39
3.129087 0.044955354 -1.2875272 5.8126547e-39
3.162843 0.041259941 -1.2837951 4.9756956e-39
3.1976099 0.043746788 -1.2801341 4.3267388e-39
3.1309621 0.061302751 -1.2795715 3.7710315e-39
3.1623697 0.074267887 -1.2858031 3.4998172e-39
3.1947427 0.087493576 -1.2923 3.9583024e-39
3.1947427 0.10624219 -1.2923 4.0522833e-39
3.195101 0.13592751 -1.2907792 3.8689879e-39
3.1961763 0.16873762 -1.2862171 2.7637095e-39
3.1961763 0.18748623 -1.2862171 3.2217926e-39
3.2280819 0.20198166 -1.2990565 4.9688292e-39
3.2280822 0.22722936 -1.2990566 4.3292528e-39
3.2653136 0.22954127 -1.2936554 3.6828156e-39
3.2280819 0.25247705 -1.2990565 2.6704433e-39
3.262388 0.26354739 -1.3060675 4.779766e-39
3.2594628 0.28055045 -1.3184798 1.0317619e-38
3.2982018 0.27049541 -1.306685 5.971461e-39
3.201911 0.018748622 -1.2618855 2.7637599e-39
3.2697017 0 -1.2750371 7.8290503e-39
3.201911 0.043746788 -1.2618855 3.6821289e-39
3.1666291 0.068078898 -1.2677312 3.8675305e-39
3.2016239 0.072494678 -1.2631021 4.4207912e-39
3.2353218 0.08836697 -1.2683386 9.2351174e-41
3.201911 0.099992655 -1.2618855 1.4734121e-39
3.2338738 0.11361468 -1.2744821 1.6580878e-39
3.2004774 0.14998899 -1.2679684 3.4944376e-39
3.2338738 0.13255045 -1.2744821 3.4087258e-39
3.1704149 0.16916573 -1.2516674 2.392406e-39
3.2033446 0.16248807 -1.2558026 2.3938676e-39
3.2353218 0.15148625 -1.2683386 1.659157e-39
3.2004774 0.18748623 -1.2679684 2.576091e-39
3.2343562 0.19777371 -1.2724342 5.7092697e-39
3.2324259 0.22722936 -1.2806257 3.2193305e-39
3.2697017 0.22316512 -1.2750371 4.1462894e-39
3.2692139 0.24654432 -1.2771057 2.3945696e-39
3.2062118 0.018748622 -1.2436368 1.7334602e-38
3.2422719 0.015148625 -1.2388493 1.8622094e-38
3.2062118 0.043746788 -1.2436368 1.9729893e-38
3.2411137 0.044183489 -1.2437642 1.9455821e-38
3.2770152 0.044633027 -1.2440065 1.6774602e-38
3.2062118 0.06874495 -1.2436368 2.010549e-38
3.2415965 0.075743116 -1.2417164 1.9730249e-38
3.2770152 0.089266047 -1.2440065 1.9731685e-38
3.3129761 0.077284403 -1.2439989 1.465114e-38
3.2391827 0.10519878 -1.2519555 1.3101883e-38
3.2760398 0.11051986 -1.2481438 6.1749926e-39
3.3129761 0.09660551 -1.2439989 1.078721e-38
3.2090793 0.14998899 -1.2314712 3.3107694e-39
3.2396655 0.13255045 -1.2499077 2.5782406e-39
3.2770152 0.13389908 -1.2440065 2.7651304e-39
3.2076454 0.16873762 -1.237554 2.5775176e-39
3.2382176 0.15148625 -1.2560514 3.4033196e-39
3.277015 0.16577981 -1.2440064 3.1314004e-39
3.3129761 0.15456881 -1.2439989 2.6725775e-39
3.2391827 0.19356577 -1.2519555 2.3052551e-39
3.2740898 0.2040367 -1.2564187 3.0367119e-39
3.3114986 0.1964312 -1.2502675 2.7622648e-39
3.3469553 0.19519266 -1.2567577 2.48711e-39
3.2740898 0.21678898 -1.2564187 3.1278383e-39
3.310612 0.2267009 -1.2540286 2.9463001e-39
3.2740898 0.24229357 -1.2564187 1.7510121e-39
3.3100212 0.24473393 -1.2565361 2.3009293e-39
3.3439701 0.26025686 -1.2694236 3.6745002e-39
3.3879111 -0.013148624 -1.2442752 4.3371168e-39
3.2469053 0.012623854 -1.2191898 1.5668891e-38
3.2799406 0.025504587 -1.2315943 1.4556795e-38
3.3159308 0.012880734 -1.2314616 9.2209643e-41
3.351433 0.016266055 -1.2377591 1.8399567e-39
3.3894191 0 -1.2378762 2.5757379e-39
3.2799406 0.044633027 -1.2315943 1.4098303e-38
3.3159308 0.045082569 -1.2314616 9.2219452e-41
3.3529255 0.045544952 -1.2314262 2.8548289e-39
3.2814033 0.063761465 -1.2253882 7.2819918e-39
3.3159308 0.077284403 -1.2314616 9.2225057e-41
3.3529255 0.071570635 -1.2314262 3.2221765e-39
3.2799406 0.11477064 -1.2315943 1.660222e-39
3.3159308 0.09660551 -1.2314616 8.2726215e-40
3.3521793 0.10735596 -1.2345927 2.7647829e-39
3.2799406 0.13389908 -1.2315943 3.2243009e-39
3.3159308 0.14168808 -1.2314616 2.3952745e-39
3.3519306 0.13446605 -1.2356482 2.4900009e-39
3.3909273 0.14463486 -1.2314773 2.9477182e-39
3.2799406 0.16577981 -1.2315943 2.3935117e-39
3.351433 0.16266054 -1.2377591 3.220736e-39
3.3909273 0.16435778 -1.2314773 3.2203857e-39
3.3506866 0.19193944 -1.2409256 1.8439e-39
3.3899219 0.19284648 -1.2357433 1.568748e-39
3.3499403 0.22772476 -1.244092 2.3048669e-39
3.3891172 0.22089687 -1.239156 2.7611759e-39
3.4268901 0.23918532 -1.2445378 2.0250795e-39
3.358398 0.017350459 -1.2082055 3.0385083e-39
3.3588958 0.045544952 -1.2060945 4.3281527e-39
3.3939435 0.04602018 -1.2186793 3.4923104e-39
3.3559108 0.071570635 -1.2187604 3.3132833e-39
3.3218405 0.10948624 -1.2063872 2.9491671e-39
3.3559108 0.091089904 -1.2187604 3.3122127e-39
3.3559108 0.13012843 -1.2187604 3.042432e-39
3.361881 0.16916697 -1.1934288 4.9703076e-39
3.3939435 0.1709321 -1.2186793 2.7630088e-39
3.361881 0.18217981 -1.1934288 4.6069242e-39
3.394949 0.19284648 -1.2144133 2.7615557e-39
3.3954518 0.22352658 -1.2122803 3.9600919e-39
3.297493 -0.012752294 -1.1571209 4.6094606e-39
3.3307052 -0.012880734 -1.1687754 6.6384217e-39
3.3301139 0.0051522935 -1.1712829 5.8954882e-39
3.3668566 0.021688074 -1.1723191 5.5296022e-39
3.364866 0.039038531 -1.1807629 3.7782328e-39
3.4029925 0.03944587 -1.1802853 5.0675395e-39
3.3668566 0.18651743 -1.1723191 5.8987351e-39
3.3999763 0.19722936 -1.1930833 4.9713669e-39
3.4014843 0.21695229 -1.1866844 3.7775335e-39
3.3366148 -0.012880734 -1.143701 7.5553137e-39
3.3062689 0 -1.1198844 4.9785906e-39
3.3366148 0 -1.143701 5.2548118e-39
3.3718317 0.017350459 -1.1512094 6.2668057e-39
3.4090252 0.026297247 -1.1546894 6.3557657e-39
3.3708365 0.039038531 -1.1554313 4.3389666e-39
3.3366148 0.18033028 -1.143701 5.7042685e-39
3.372329 0.19519266 -1.1490983 5.9905678e-39
3.407517 0.21695229 -1.1610883 5.9884126e-39
3.4482284 0.22589725 -1.154002 2.5808232e-39
3.2729688 -0.012623854 -1.108605 7.6522513e-39
3.4120414 0.21037798 -1.1418914 1.5624534e-39
