# .PCD v0.7 - Point Cloud Data file format
VERSION 0.7
FIELDS x y z rgb
SIZE 4 4 4 4
TYPE F F F F
COUNT 1 1 1 1
WIDTH 140
HEIGHT 1
VIEWPOINT 0 0 0 1 0 0 0
POINTS 140
DATA ascii
2.9759176 -0.30684772 -1.392517 1.1992625e-38
2.9759173 -0.28088367 -1.392517 1.1703828e-38
2.9772711 -0.2596404 -1.3867735 1.3277973e-38
3.005044 -0.25015047 -1.3997097 1.3643137e-38
2.9759173 -0.18882936 -1.392517 1.2795766e-38
3.0365014 -0.18639818 -1.4013723 1.6212749e-38
3.0047705 -0.16438457 -1.4008691 1.4744468e-38
3.0378809 -0.16234678 -1.3955197 1.5211214e-38
3.0054994 -0.13500184 -1.3977773 1.3817854e-38
3.0351222 -0.12987742 -1.4072248 1.2714742e-38
3.005044 -0.095295414 -1.3997097 7.9256362e-39
3.0358119 -0.10522477 -1.4042984 1.0324162e-38
3.0054994 -0.07941284 -1.3977774 1.013471e-38
3.0351219 -0.064136997 -1.4072248 1.0601077e-38
2.9562035 -0.30398533 -1.3453872 1.2256624e-38
2.9813321 -0.30684772 -1.3695427 1.2437426e-38
2.9528508 -0.28937066 -1.3596122 1.1800686e-38
2.9826858 -0.27734312 -1.3637992 1.2348106e-38
2.9826858 -0.25373948 -1.3637992 1.2168039e-38
2.9826858 -0.22423486 -1.3637992 1.0778292e-38
3.0113287 -0.22394422 -1.3730429 1.0688593e-38
3.0118754 -0.20250276 -1.3707241 1.0964426e-38
3.041743 -0.19000587 -1.3791327 1.2072572e-38
3.0146081 -0.16081101 -1.3591298 1.1981856e-38
3.0406396 -0.16234678 -1.3838147 1.3826824e-38
3.0109646 -0.13500184 -1.3745888 1.3366234e-38
3.0132418 -0.10720734 -1.3649271 1.2624715e-38
3.0100539 -0.07941284 -1.3784536 1.271727e-38
3.0422947 -0.069748983 -1.3767918 1.2810176e-38
3.0731173 -0.048572477 -1.3855085 1.2637649e-38
2.9588854 -0.30398533 -1.3340073 1.2713279e-38
2.9908078 -0.30684772 -1.329338 1.225158e-38
2.9588854 -0.29229358 -1.3340073 1.0977395e-38
2.9897923 -0.2817688 -1.3336456 1.2719394e-38
2.9894538 -0.25373948 -1.3350815 1.3183265e-38
2.9615676 -0.22214311 -1.3226274 1.0056916e-38
2.9894538 -0.2281688 -1.3350815 1.1802139e-38
2.9908078 -0.19473028 -1.329338 1.1701637e-38
3.0173407 -0.19059083 -1.3475356 1.1707044e-38
2.9921618 -0.16522568 -1.3235945 1.3276168e-38
3.0173407 -0.16676696 -1.3475356 1.1984378e-38
2.9881005 -0.13572112 -1.3408251 1.2538271e-38
3.0200732 -0.13698716 -1.3359413 1.3643537e-38
3.018707 -0.10720735 -1.3417385 1.2443565e-38
3.018707 -0.077427521 -1.3417385 1.2536111e-38
3.0516744 -0.060128435 -1.3369948 1.4196989e-38
3.0191624 -0.05558899 -1.3398061 1.2812691e-38
3.0489156 -0.048102751 -1.3486998 1.2908466e-38
2.9682727 -0.30398533 -1.2941775 3.6853169e-39
2.9682727 -0.29229358 -1.2941775 3.5952652e-39
2.9957714 -0.27931011 -1.3082783 4.4258204e-39
2.9696138 -0.26306424 -1.2884876 9.5022049e-39
2.9957714 -0.25177249 -1.3082783 3.6767227e-39
2.9642496 -0.21045138 -1.3112475 8.7474571e-39
2.9948688 -0.23013577 -1.3121073 8.1949658e-39
2.9642496 -0.19875965 -1.3112475 1.1055186e-38
2.9957714 -0.19276331 -1.3082783 1.0053256e-38
3.0269048 -0.19654679 -1.3069557 9.3171396e-39
2.9948688 -0.1711266 -1.3121073 1.1048337e-38
3.0255382 -0.16676696 -1.3127527 3.0384915e-39
3.0241723 -0.13698716 -1.31855 6.7273761e-39
3.0247579 -0.10550564 -1.3160654 7.0943607e-39
3.0255384 -0.077427529 -1.3127528 7.2751787e-39
3.0269048 -0.053603668 -1.3069557 5.5191527e-39
3.0016372 -0.30684772 -1.2833896 4.3313645e-39
3.0029907 -0.28914496 -1.2776459 2.9480923e-39
2.9733686 -0.25955671 -1.2725556 2.8530479e-39
3.002991 -0.24783854 -1.2776459 3.5012731e-39
3.0043445 -0.18882936 -1.2719024 7.3903977e-39
3.0019078 -0.16286531 -1.2822409 2.3952773e-39
3.0016372 -0.13572112 -1.2833896 3.0413684e-39
3.0029907 -0.10818348 -1.2776459 3.4973117e-39
3.0310037 -0.095295414 -1.2895644 2.4885603e-39
3.0056982 -0.076711923 -1.2661588 3.5877038e-39
3.0310037 -0.077427521 -1.2895644 2.9488098e-39
3.0043445 -0.053108253 -1.2719024 4.6000495e-39
2.9830244 -0.30398533 -1.2315878 3.8729437e-39
3.0084054 -0.30684772 -1.2546717 4.9717467e-39
2.9821303 -0.28449908 -1.2353811 2.5864999e-39
3.0084054 -0.29504588 -1.2546717 3.5016361e-39
2.9523282 -0.25873885 -1.2354127 2.7644242e-39
2.9812362 -0.26501286 -1.2391744 5.5303183e-39
3.0097592 -0.18882936 -1.2489282 6.9308488e-39
2.9776602 -0.16368441 -1.2543477 2.6707824e-39
3.0097589 -0.16522568 -1.2489282 2.2119608e-39
2.9776602 -0.13445505 -1.2543477 3.4090747e-39
3.0097592 -0.13572112 -1.2489282 2.8562583e-39
2.9776602 -0.11691743 -1.2543477 3.6845812e-39
3.0097592 -0.11211743 -1.2489282 7.5571578e-39
3.0392015 -0.095295407 -1.2547815 6.5459262e-39
3.0097592 -0.076711923 -1.2489282 9.7731151e-39
3.0111129 -0.053108256 -1.2431847 1.466332e-38
3.036469 -0.053603671 -1.2663758 2.3881825e-39
2.9870474 -0.31275412 -1.2145178 7.5549816e-39
2.9585292 -0.27804771 -1.2091011 5.7996745e-39
2.9874945 -0.28839633 -1.2126212 2.7672954e-39
2.9585292 -0.26646239 -1.2091011 9.2267096e-39
2.9873157 -0.25488001 -1.2133799 4.0522973e-39
3.0192349 -0.25373948 -1.2087233 3.8660774e-39
2.9585292 -0.2201211 -1.2091011 5.8810857e-39
2.9883885 -0.22214311 -1.2088279 6.0777271e-39
3.0192351 -0.22423486 -1.2087233 6.1681291e-39
2.9883885 -0.19875965 -1.2088279 9.9467122e-39
3.0158508 -0.19473028 -1.2230823 8.3908771e-39
3.0473993 -0.19059083 -1.2199987 5.0661592e-39
2.9883885 -0.15199266 -1.2088279 2.6704643e-39
3.0161405 -0.1652257 -1.2218515 2.3012964e-39
3.0473993 -0.1786789 -1.2199987 1.3789814e-39
2.9870474 -0.13445505 -1.2145178 3.0399306e-39
3.0151739 -0.11211742 -1.2259541 2.3016748e-39
3.0446668 -0.095295414 -1.231593 3.3157734e-39
2.9883885 -0.070150465 -1.2088279 3.6817015e-39
3.0147228 -0.078678899 -1.2278686 1.4729973e-39
3.0138202 -0.047207341 -1.2316976 2.571754e-39
2.9910705 -0.30398533 -1.1974479 5.2544138e-39
2.9910705 -0.2864477 -1.1974479 2.9470161e-39
2.9910705 -0.26891011 -1.1974479 4.0469149e-39
2.9964347 -0.21045138 -1.174688 1.0966248e-38
3.0219424 -0.21833394 -1.1972362 8.4690542e-39
3.0232959 -0.19473028 -1.1914927 1.0416656e-38
3.0514982 -0.19654679 -1.2026073 1.005004e-38
3.0219424 -0.15342386 -1.1972362 3.1314452e-39
3.0517712 -0.16914935 -1.2014478 3.7749747e-39
3.0847788 -0.15633394 -1.1965349 4.8827502e-39
2.9910705 -0.13445505 -1.1974479 2.8551877e-39
3.0219424 -0.14162202 -1.1972362 2.4892596e-39
3.0514982 -0.13698716 -1.2026073 2.8584078e-39
3.0847788 -0.14430825 -1.1965349 5.3415872e-39
2.9910705 -0.11691743 -1.1974479 3.0399419e-39
3.0219424 -0.11801834 -1.1972362 1.4787174e-39
3.0004578 -0.21045138 -1.1576182 1.124427e-38
2.9256289 -0.2162165 -1.104581 1.5293986e-38
2.9559965 -0.19520366 -1.0977901 1.288763e-38
2.978462 -0.20853578 -1.1245284 1.3452265e-38
2.9056797 -0.19171008 -1.0671666 1.3915771e-38
2.9328079 -0.19061193 -1.0741211 1.4011212e-38
2.9347658 -0.17069726 -1.0658139 1.2990931e-38
2.9108536 -0.18043302 -1.0452139 1.318289e-38
2.9373763 -0.19345689 -1.0547376 1.4464609e-38
2.9373763 -0.16500735 -1.0547376 1.1888846e-38
