# .PCD v0.7 - Point Cloud Data file format
VERSION 0.7
FIELDS x y z rgb
SIZE 4 4 4 4
TYPE F F F F
COUNT 1 1 1 1
WIDTH 128
HEIGHT 1
VIEWPOINT 0 0 0 1 0 0 0
POINTS 128
DATA ascii
2.5093119 -0.21812476 -1.3455594 1.1983286e-38
2.5136542 -0.19290964 -1.3501759 8.0181471e-39
2.5204003 -0.17180917 -1.3441107 1.0136836e-38
2.5417695 -0.1630532 -1.3539158 8.6624305e-39
2.5204003 -0.12127706 -1.3441107 6.6283547e-39
2.5425682 -0.13757613 -1.3503648 8.8475547e-39
2.5204003 -0.11117064 -1.3441107 6.9993247e-39
2.5414495 -0.099360548 -1.3553361 8.4697408e-39
2.5436869 -0.081526607 -1.3453938 1.1799181e-38
2.5087473 -0.21854313 -1.3241554 1.0871533e-38
2.5476022 -0.22419818 -1.3279951 1.133718e-38
2.5683486 -0.2311101 -1.3360103 1.2071525e-38
2.5205617 -0.19167951 -1.3221385 8.7571513e-39
2.5270567 -0.17180917 -1.3145312 1.1697696e-38
2.547416 -0.15965626 -1.3288236 8.5723985e-39
2.5226192 -0.12127706 -1.3342508 9.4853557e-39
2.5503988 -0.14267156 -1.3155673 8.6721359e-39
2.5680666 -0.13224633 -1.3372631 8.5706035e-39
2.5226192 -0.10611743 -1.3342508 8.016701e-39
2.5475225 -0.10190826 -1.3283502 1.0040664e-38
2.5706036 -0.1027156 -1.3259895 9.5807547e-39
2.5481613 -0.081526607 -1.3255093 1.0877973e-38
2.5683486 -0.066765137 -1.3360105 9.1252094e-39
2.5689929 -0.039618876 -1.3331473 9.4903877e-39
2.5940006 -0.031067891 -1.3267821 8.7470774e-39
2.5660934 -0.015407339 -1.3460314 8.6652864e-39
2.5917273 -0.015533946 -1.3368855 8.9386573e-39
2.6095724 0.0090931188 -1.3361552 9.3992655e-39
2.6174343 0.031321101 -1.3274101 1.0041381e-38
2.637203 0.031585321 -1.3488795 9.6761859e-39
2.5292757 -0.21223487 -1.3046714 6.7295607e-39
2.5167375 -0.18966055 -1.2886484 9.6769454e-39
2.5318112 -0.16459031 -1.2934029 1.0415232e-38
2.5548735 -0.15286238 -1.2956828 9.8634708e-39
2.5337131 -0.13138348 -1.2849516 9.6823684e-39
2.5548732 -0.14267156 -1.2956828 1.023623e-38
2.5736103 -0.12668256 -1.3126281 9.7655565e-39
2.5571108 -0.10190825 -1.2857406 1.0416646e-38
2.5747378 -0.099291742 -1.3076177 8.9393635e-39
2.5751138 -0.071900919 -1.3059475 8.5713013e-39
2.5753956 -0.042370182 -1.304695 8.8479092e-39
2.5985479 -0.015533946 -1.3065755 8.7549821e-39
2.5773687 0.020543119 -1.2959266 1.0319432e-38
2.5990024 0.0082847709 -1.3045548 9.4925401e-39
2.5773687 0.030814679 -1.2959266 1.0685313e-38
2.6197264 0.041761469 -1.3172244 1.1144869e-38
2.4941525 -0.19897246 -1.2648889 9.9535239e-39
2.5252538 -0.19104587 -1.258775 6.0834654e-39
2.5357003 -0.16441415 -1.2624558 6.17278e-39
2.5593481 -0.15286238 -1.2757984 4.2352607e-39
2.5385206 -0.12969907 -1.2635885 6.1720681e-39
2.5593481 -0.13248073 -1.2757984 7.0011001e-39
2.5615857 -0.096812837 -1.2658563 8.204695e-39
2.5624804 -0.073373951 -1.2618793 3.4991123e-39
2.5796239 -0.071900912 -1.2859056 9.5843602e-39
2.5632637 -0.043311007 -1.2583996 3.1303256e-39
2.5805259 -0.039031927 -1.2818973 9.9531413e-39
2.5833821 -0.017119266 -1.269204 6.8181396e-39
2.6030948 -0.010355963 -1.286369 9.4950372e-39
2.5627043 0.020381652 -1.2608851 9.6736888e-39
2.5824425 0.010271559 -1.2733794 8.9350461e-39
2.6061261 0.0034519879 -1.2728978 4.1477229e-39
2.5403695 0.030319266 -1.255372 9.8605996e-39
2.5615854 0.030572476 -1.2658563 9.9520455e-39
2.5028892 -0.15917797 -1.2260652 2.3920739e-39
2.5243015 -0.15044038 -1.2311225 2.6686328e-39
2.5368655 -0.13776146 -1.2390597 2.6689943e-39
2.5660603 -0.096812844 -1.2459719 8.1125036e-39
2.5440676 -0.067376144 -1.2389389 2.1161933e-39
2.5660603 -0.071335778 -1.2459719 3.4947823e-39
2.5675521 -0.03736636 -1.2393438 2.4871058e-39
2.5705349 -0.020381652 -1.2260875 2.1212057e-39
2.5881929 -0.014380184 -1.247826 3.2189381e-39
2.588644 0.015407339 -1.2458217 2.8541031e-39
2.6121893 0.0077669723 -1.2459557 2.9466448e-39
2.5660603 0.030572476 -1.2459719 4.5921363e-39
2.588644 0.030814679 -1.2458217 2.8566226e-39
2.622834 0.036372475 -1.2510331 4.9688614e-39
2.5750093 -0.030572476 -1.206203 3.218557e-39
2.5754569 -0.016305322 -1.2042146 6.915747e-39
2.5931542 -0.010271559 -1.2257799 3.0399124e-39
2.5761282 0.020381652 -1.201232 6.0820711e-39
2.5954092 0.0068477062 -1.2157589 5.5288721e-39
2.5772469 0.035667889 -1.1962608 7.5528586e-39
2.5942817 0.03595046 -1.2207694 4.5104e-39
2.5397146 -0.15044038 -1.1626297 1.7517268e-39
2.5839589 -0.091717429 -1.1664343 5.4442379e-39
2.5839589 -0.066240363 -1.1664343 2.8526709e-39
2.5458441 -0.036877066 -1.167276 1.9335789e-39
2.5828402 -0.038215593 -1.1714053 2.393478e-39
2.5408156 -0.020058716 -1.1577375 2.5771602e-39
2.5794842 -0.015286239 -1.1863186 1.3779262e-39
2.5603387 0.010106422 -1.1666334 1.4715301e-39
2.5808265 0.010190826 -1.1803534 5.8014877e-39
2.5603387 0.040425688 -1.1666334 5.5104927e-39
2.5802298 0.033969417 -1.1830046 5.4344863e-39
2.5636668 -0.15159634 -1.1518435 2.9463127e-39
2.5214546 -0.13430642 -1.1435649 1.7506352e-39
2.551441 -0.12924613 -1.1378497 5.3444669e-39
2.5906708 -0.14267156 -1.1366076 3.4101467e-39
2.5210903 -0.11275107 -1.1451826 1.0230495e-38
2.5550022 -0.10318623 -1.1425221 1.1520847e-38
2.5861962 -0.091717429 -1.156492 5.9009141e-39
2.6089394 -0.092444032 -1.1556331 6.2700637e-39
2.6326513 -0.093203671 -1.1550258 6.541271e-39
2.5861959 -0.071335778 -1.156492 2.4856793e-39
2.6089394 -0.061629359 -1.1556331 2.5804042e-39
2.6418524 -0.074236438 -1.1590369 3.4101481e-39
2.6788092 -0.073699079 -1.1639911 4.0530022e-39
2.5203624 -0.049743116 -1.1484179 2.3030747e-39
2.5861962 -0.050954126 -1.156492 2.4849506e-39
2.6078119 -0.046222016 -1.1606436 2.1194177e-39
2.6433845 -0.046791743 -1.1597122 2.4867709e-39
2.5203624 -0.0099486234 -1.1484179 2.7593809e-39
2.5636668 0.020212844 -1.1518435 3.1278019e-39
2.563297 0.033688072 -1.153487 3.4951565e-39
2.5568874 -0.12402936 -1.1182023 6.0787795e-39
2.528007 -0.10943487 -1.1144472 1.1798909e-38
2.5583553 -0.10723669 -1.1116792 1.1523031e-38
2.5929081 -0.10190825 -1.1266655 1.1333217e-38
2.6507699 -0.097190209 -1.1443532 8.2004056e-39
2.6586924 -0.083522938 -1.1440684 3.7703589e-39
2.4963682 -0.11753394 -1.0637374 1.2345582e-38
2.5160098 -0.10858716 -1.072107 1.1526292e-38
2.4423509 -0.11489175 -1.0304835 1.2252298e-38
2.4642506 -0.11577248 -1.0242645 1.2343755e-38
2.4808631 -0.10693211 -1.0415404 1.1065678e-38
2.5203443 -0.098715596 -1.0528456 9.9460732e-39
