# .PCD v0.7 - Point Cloud Data file format
VERSION 0.7
FIELDS x y z rgb
SIZE 4 4 4 4
TYPE F F F F
COUNT 1 1 1 1
WIDTH 127
HEIGHT 1
VIEWPOINT 0 0 0 1 0 0 0
POINTS 127
DATA ascii
2.5081036 -0.20041955 -1.4124366 1.0959805e-38
2.5089331 -0.1222899 -1.4091424 8.4769337e-39
2.5338237 -0.21570276 -1.4003843 1.13303e-38
2.6023314 -0.23162569 -1.4149864 1.3071609e-38
2.5114205 -0.19872108 -1.3992599 1.1245741e-38
2.5345402 -0.19369228 -1.3975384 1.1615228e-38
2.5338237 -0.16434495 -1.4003843 1.1526267e-38
2.5114205 -0.1222899 -1.3992599 9.5692906e-39
2.5338237 -0.136465 -1.4003843 1.1430497e-38
2.5134106 -0.10598458 -1.3913538 9.1251953e-39
2.5338237 -0.092444032 -1.4003843 1.1610872e-38
2.5346594 -0.070188992 -1.397064 1.502249e-38
2.5546448 -0.082847707 -1.4118916 1.418081e-38
2.5346594 -0.047933947 -1.397064 1.2350268e-38
2.5571725 -0.03365688 -1.4018488 1.1524112e-38
2.5571728 -0.015533946 -1.4018488 1.1707057e-38
2.5338237 0.020543119 -1.4003843 1.0043214e-38
2.5614922 0.0069180429 -1.4003918 1.1794935e-38
2.5811994 0.033931192 -1.4006184 1.2164081e-38
2.6010466 0.042113762 -1.4200914 1.1610904e-38
2.6253965 0.053082563 -1.4216754 1.1522292e-38
2.5400918 -0.21570276 -1.3754821 1.21536e-38
2.5213706 -0.19362569 -1.3597295 1.1521966e-38
2.5213706 -0.1630532 -1.3597295 1.2078014e-38
2.5213706 -0.13757615 -1.3597296 1.2540429e-38
2.5213704 -0.097831927 -1.3597295 1.0132866e-38
2.5413451 -0.092444032 -1.3705018 9.5897636e-39
2.5413451 -0.071900912 -1.3705018 1.1329645e-38
2.5408437 -0.047249176 -1.3724939 1.243959e-38
2.5639129 -0.034519877 -1.3750682 1.1337918e-38
2.5647559 -0.015533946 -1.3717207 1.1245364e-38
2.5438523 0.020543119 -1.3605407 1.1974299e-38
2.564395 0.0073971166 -1.3731554 1.1609833e-38
2.5799623 0.041677061 -1.3741252 1.1982561e-38
2.5281222 -0.19216986 -1.3329054 7.190204e-39
2.5280037 -0.16645014 -1.333376 9.772748e-39
2.5501204 -0.15920918 -1.3356386 7.2859645e-39
2.5263453 -0.14267156 -1.3399644 1.4199538e-38
2.5463595 -0.13353027 -1.3505799 1.511793e-38
2.5275888 -0.10190825 -1.335023 1.0773561e-38
2.5488667 -0.092444032 -1.3406191 9.40968e-39
2.5313201 -0.066240363 -1.3201991 4.601511e-39
2.5481503 -0.073368289 -1.343465 1.0135746e-38
2.5488667 -0.041086238 -1.340619 1.1060942e-38
2.5723393 -0.015533946 -1.3415926 8.111049e-39
2.5463595 0.020543119 -1.3505799 1.095871e-38
2.5793276 0.010384098 -1.3452373 9.2141526e-39
2.5793252 0.041555148 -1.3452463 1.0689294e-38
2.5111773 -0.19539082 -1.3059978 6.3575202e-39
2.5362947 -0.18343486 -1.300434 4.5161397e-39
2.536917 -0.17069633 -1.2979634 4.055872e-39
2.5551345 -0.16434495 -1.3157169 4.059116e-39
2.5538809 -0.092444032 -1.3206973 8.215478e-39
2.5338075 -0.066240363 -1.3103167 3.0338098e-39
2.5538809 -0.082172476 -1.3206973 2.1140129e-39
2.5362949 -0.043311007 -1.300434 2.1197652e-39
2.5547168 -0.034238532 -1.317377 2.0250584e-39
2.5588953 -0.020543119 -1.3007755 1.9382732e-39
2.5782368 -0.013807951 -1.3181593 2.6725957e-39
2.5848606 0.0090825688 -1.315402 3.1317535e-39
2.5852106 0.043023854 -1.3173758 5.7957298e-39
2.5226891 -0.19202201 -1.2602612 3.4969768e-39
2.5425136 -0.18343486 -1.2757275 2.4878583e-39
2.5226891 -0.15159634 -1.2602612 2.395629e-39
2.5425136 -0.16814862 -1.2757275 2.4889303e-39
2.5614026 -0.17461652 -1.2908146 2.6718726e-39
2.5177555 -0.040425688 -1.2798626 2.5818182e-39
2.5420988 -0.03736636 -1.2773746 2.6725817e-39
2.5651631 -0.030814679 -1.2758733 2.5807546e-39
2.5639098 -0.015407339 -1.2808537 4.7905854e-39
2.5645363 0.017975228 -1.2783636 6.2686008e-39
2.5858202 0.0034519879 -1.2880311 4.6098305e-39
2.5639098 0.03595046 -1.2808537 3.5005809e-39
2.5862417 0.051779814 -1.2863574 6.889107e-39
2.5437574 0.061144952 -1.2707863 1.1418189e-38
2.4862149 -0.19897246 -1.2290068 3.9590087e-39
2.5059011 -0.18554312 -1.2409254 4.2348991e-39
2.4881575 -0.17907523 -1.2212886 4.1452216e-39
2.5530853 -0.12993301 -1.2337265 3.7702972e-39
2.5300899 -0.090957798 -1.2308589 6.1817847e-39
2.5507224 -0.10394643 -1.2431149 9.8656106e-39
2.5537071 -0.061144952 -1.2312559 3.3121847e-39
2.5739384 -0.071900919 -1.2410103 2.8530283e-39
2.5537071 -0.030572476 -1.2312559 3.0391936e-39
2.5701776 -0.030814679 -1.2559515 2.6686398e-39
2.5537071 -0.020381652 -1.2312559 2.9466602e-39
2.5709298 -0.014380184 -1.2529633 4.6969324e-39
2.5499761 0.020381652 -1.2460798 7.830844e-39
2.5717893 0.0073368284 -1.2495482 5.3430109e-39
2.5710731 0.038151506 -1.2523941 7.1869291e-39
2.4712932 -0.18755963 -1.2022551 3.4079831e-39
2.4905858 -0.19897246 -1.2116408 4.2352424e-39
2.5132453 -0.19055779 -1.2117473 3.2232219e-39
2.4712932 -0.16781652 -1.2022551 2.480664e-39
2.4918001 -0.17161375 -1.2068169 2.3023866e-39
2.5350235 -0.15159634 -1.2112575 2.4874813e-39
2.5586822 -0.15286238 -1.2114908 3.5884171e-39
2.5571897 -0.13248071 -1.2174203 3.6802568e-39
2.580833 -0.13353027 -1.2136178 5.1607763e-39
2.5322618 -0.10096513 -1.209938 1.0599234e-38
2.5599258 -0.091717429 -1.2065494 9.0409339e-39
2.5325565 -0.080851376 -1.2210582 2.2984097e-39
2.5561948 -0.071335778 -1.2213733 3.2207206e-39
2.5783257 -0.071900919 -1.2235787 3.4955012e-39
2.6064134 -0.074697986 -1.2250624 3.7738901e-39
2.6485889 -0.068434864 -1.2312065 3.4105138e-39
2.5561948 -0.045858715 -1.2213733 3.0377614e-39
2.5789526 -0.041086238 -1.2210884 3.1285235e-39
2.6145525 -0.036393579 -1.2209934 2.6732977e-39
2.5784512 -0.014380182 -1.2230806 2.4867597e-39
2.6145525 -0.020796331 -1.2209934 1.938262e-39
2.5574384 0.020381652 -1.2164321 2.7611787e-39
2.5784512 0.0041086236 -1.2230806 2.3027187e-39
2.5574384 0.030572476 -1.2164321 3.219294e-39
2.563657 -0.1222899 -1.1917255 5.1435151e-39
2.5359588 -0.10583486 -1.1788638 1.1058767e-38
2.5649006 -0.091717429 -1.1867843 1.0236239e-38
2.6077278 -0.082847707 -1.2009943 5.6113175e-39
2.6511588 -0.068434864 -1.2209966 4.0555063e-39
2.6052001 -0.051779814 -1.2110369 3.9611709e-39
2.651159 -0.042113762 -1.2209966 3.9607995e-39
2.6289814 -0.020880735 -1.2107826 3.3201301e-39
2.5388696 -0.12081468 -1.1529596 7.6392556e-39
2.5100124 -0.10943487 -1.1344591 1.1329281e-38
2.5328066 -0.097527131 -1.1463209 1.1519391e-38
2.5136549 -0.10446055 -1.1199876 1.1517981e-38
2.5148692 -0.089537613 -1.1151637 1.2161914e-38
