# .PCD v0.7 - Point Cloud Data file format
VERSION 0.7
FIELDS x y z rgb
SIZE 4 4 4 4
TYPE F F F F
COUNT 1 1 1 1
WIDTH 230
HEIGHT 1
VIEWPOINT 0 0 0 1 0 0 0
POINTS 230
DATA ascii
2.2052529 0.28135785 -1.3668509 1.0685718e-38
2.2149072 0.31423119 -1.3694807 1.1791686e-38
2.1734126 0.3561101 -1.3537365 1.2347756e-38
2.1891568 0.35412294 -1.3610411 1.2990601e-38
2.208636 0.3449578 -1.3655746 1.2339837e-38
2.1734126 0.36946425 -1.3537365 1.2437782e-38
2.1894653 0.3765358 -1.3597323 1.2440285e-38
2.2080142 0.37464219 -1.3551353 1.0044303e-38
2.2607157 0.37825322 -1.3669229 9.4047039e-39
2.1734126 0.39617252 -1.3537365 1.3357928e-38
2.1906993 0.40343121 -1.3544966 1.3814233e-38
2.2241704 0.41830459 -1.3650509 1.1146341e-38
2.2555511 0.43310091 -1.3757572 1.1057715e-38
2.2233708 0.23557431 -1.3292106 7.7390127e-39
2.3100793 0.23490825 -1.3601789 3.3132777e-39
2.3511033 0.2260049 -1.3684759 5.0711268e-39
2.1968691 0.24654129 -1.3283185 9.6726238e-39
2.210603 0.25502753 -1.3441517 1.0872263e-38
2.1948125 0.28912571 -1.3370445 1.1336122e-38
2.2121565 0.27856359 -1.3375617 1.0687151e-38
2.1958408 0.3048147 -1.3326814 9.2026493e-39
2.2148514 0.32087341 -1.3392036 1.0597499e-38
2.224016 0.3422406 -1.3432878 9.2145351e-39
2.2501557 0.35557979 -1.35288 9.8599087e-39
2.214128 0.37530276 -1.3488113 9.9546267e-39
2.2604415 0.37586641 -1.3523939 1.0231237e-38
2.2790339 0.38096145 -1.3676659 1.1147073e-38
2.1927559 0.39894864 -1.3457706 1.0138296e-38
2.2214568 0.40257913 -1.3451784 9.953189e-39
2.2578146 0.40712205 -1.3498073 1.0231229e-38
2.2790339 0.39025325 -1.3676659 1.0966622e-38
2.254781 0.43317011 -1.3472654 1.0963733e-38
2.2649484 0.4520587 -1.3489635 1.1245008e-38
2.2822309 0.46923304 -1.3541 1.1058083e-38
2.2822309 0.4924624 -1.3541 1.1241043e-38
2.2854285 0.51569176 -1.3405341 1.1608376e-38
2.3004305 0.51488072 -1.3597052 1.0137917e-38
2.4438937 0.17768808 -1.3569268 1.2344824e-38
2.4248149 0.20568441 -1.3463337 4.4308105e-39
2.4431393 0.19414067 -1.3601297 5.8973197e-39
2.234601 0.23643301 -1.3207955 5.2454413e-39
2.2702394 0.23986788 -1.3265144 5.3383628e-39
2.3143904 0.23490825 -1.3418874 6.4471907e-39
2.3412366 0.22802202 -1.3522168 8.3772004e-39
2.2020106 0.25662708 -1.3065033 1.0318003e-38
2.2179549 0.24735412 -1.3129587 6.999675e-39
2.2020106 0.28389606 -1.3065033 8.2929586e-39
2.2177775 0.28759113 -1.313712 9.7626824e-39
2.2009823 0.3048147 -1.3108664 1.1430103e-38
2.2186651 0.31854263 -1.3099462 1.0690748e-38
2.2236006 0.34249225 -1.3114229 1.0596043e-38
2.2375214 0.3746554 -1.308404 1.1519423e-38
2.2508328 0.37554494 -1.3303897 1.1333237e-38
2.23773 0.40466422 -1.307519 1.1883179e-38
2.2538679 0.40404162 -1.3175119 1.1611267e-38
2.2366869 0.42739815 -1.3119445 1.1981487e-38
2.2599924 0.43155229 -1.317681 1.3086376e-38
2.2720029 0.46435961 -1.3190314 1.3639578e-38
2.2723558 0.48896146 -1.3175347 1.3082811e-38
2.2896917 0.50175411 -1.3224461 1.3183272e-38
2.2882705 0.51414317 -1.3284755 1.1974645e-38
2.4088748 0.19442201 -1.3267832 1.0781145e-38
2.1958778 0.24482569 -1.2584178 3.9648044e-39
2.2089803 0.25899288 -1.2769316 4.6947857e-39
2.2225108 0.24374312 -1.2936277 5.8976406e-39
2.2092087 0.27791929 -1.2759621 5.4377429e-39
2.2256172 0.29339451 -1.2804475 6.7277741e-39
2.2098942 0.30780306 -1.2730534 6.1713479e-39
2.2248778 0.31725296 -1.2835857 6.4504529e-39
2.2256169 0.34304592 -1.2804475 5.7125305e-39
2.2305505 0.37307337 -1.2791313 5.4370254e-39
2.2365544 0.4053295 -1.2788792 6.2646239e-39
2.2613389 0.4396624 -1.2858129 6.3539427e-39
2.2722108 0.46940914 -1.2919947 6.909622e-39
2.2779491 0.49818709 -1.2938027 7.2733892e-39
2.2939546 0.50175411 -1.3043582 4.5179586e-39
2.1825182 0.2386899 -1.2409948 6.1814288e-39
2.200218 0.25706699 -1.2400039 3.7775279e-39
2.2133219 0.26895416 -1.25851 3.769619e-39
2.2172067 0.2848922 -1.2420274 3.3140106e-39
2.2307944 0.29790828 -1.2584807 6.9225896e-39
2.2160642 0.31377983 -1.2468752 3.2246806e-39
2.2349362 0.32047707 -1.2409071 3.4951565e-39
2.2176638 0.34764808 -1.2400883 2.9463043e-39
2.2321751 0.34003672 -1.2526228 3.2207318e-39
2.2020047 0.36946425 -1.2324218 5.888699e-39
2.2169211 0.3765358 -1.2432393 3.6878364e-39
2.2328653 0.3881835 -1.2496939 2.6675622e-39
2.2455063 0.40924504 -1.2531255 2.5778777e-39
2.2523324 0.43194494 -1.2455614 2.5767931e-39
2.2668021 0.44332623 -1.262633 2.6700803e-39
2.2811501 0.47077212 -1.2645283 4.6976429e-39
2.285054 0.49818715 -1.2636566 3.1285347e-39
2.2861121 0.51663852 -1.259167 5.6023268e-39
2.3024807 0.52033764 -1.2681824 5.6023254e-39
2.2411489 0.2347156 -1.2145468 5.2486671e-39
2.204047 0.25817984 -1.2237564 3.8643285e-39
2.2233765 0.25500834 -1.2158493 5.0628647e-39
2.2411489 0.26179817 -1.2145468 1.3196955e-38
2.2225766 0.28688443 -1.2192427 2.8530661e-39
2.2448459 0.28569251 -1.214554 1.3274799e-38
2.2215483 0.3048147 -1.2236058 4.327141e-39
2.2461028 0.31597063 -1.2196845 1.1338677e-38
2.2215483 0.35412294 -1.2236058 3.5862647e-39
2.2434142 0.3415902 -1.2223724 4.514758e-39
2.2760475 0.35264587 -1.2234054 1.7432558e-38
2.204047 0.36501285 -1.2237564 2.5760896e-39
2.2215483 0.3765358 -1.2236058 3.8635943e-39
2.2485735 0.37487614 -1.2222773 2.763006e-39
2.2822244 0.37031925 -1.2233529 3.6781142e-39
2.2538552 0.40226421 -1.2234074 2.9441505e-39
2.2554617 0.43194494 -1.2322848 2.8537303e-39
2.2817757 0.43633762 -1.2304876 3.4079859e-39
2.2869294 0.46593535 -1.2315558 5.1572015e-39
2.2917559 0.49511185 -1.235221 3.4955236e-39
2.3110068 0.50175411 -1.2320067 4.6926417e-39
2.3304958 0.50551927 -1.2321398 5.0585403e-39
2.3099411 0.51104587 -1.2365286 3.7717588e-39
2.3304958 0.51488072 -1.2321398 3.8632369e-39
2.3830984 0.18596512 -1.2181908 5.7128822e-39
2.2504411 0.23514494 -1.1947373 4.6904528e-39
2.2844524 0.22899084 -1.1877439 5.5194932e-39
2.2531803 0.25355232 -1.1961915 1.6407599e-38
2.2954354 0.25772476 -1.1934541 2.1300023e-38
2.3195329 0.25087705 -1.1958308 9.396362e-39
2.2549813 0.27714497 -1.2006953 2.1480158e-38
2.2920635 0.28774524 -1.2002894 1.9359673e-38
2.3195329 0.28804407 -1.1958308 1.4560734e-38
2.2900238 0.31502202 -1.2098764 2.0834798e-38
2.3186803 0.31777763 -1.1994485 2.0464138e-38
2.2617199 0.33646238 -1.2057315 1.9091007e-38
2.2945285 0.34786275 -1.2053499 1.4472943e-38
2.3195329 0.34379449 -1.1958308 1.1527301e-38
2.2905662 0.3778609 -1.2046025 3.5931184e-39
2.3195329 0.37166968 -1.1958308 4.053714e-39
2.2617199 0.39102384 -1.2057315 3.8632523e-39
2.2866848 0.40525872 -1.2076963 3.773544e-39
2.3186193 0.40618199 -1.1997068 4.3263479e-39
2.2901196 0.4287017 -1.2107782 4.1441132e-39
2.3165488 0.43857026 -1.2084924 4.4185393e-39
2.341831 0.43845049 -1.2047528 3.9590073e-39
2.296694 0.46589723 -1.2142686 4.6936997e-39
2.3158028 0.46226424 -1.2116578 4.8777336e-39
2.3456469 0.46510088 -1.2092683 4.0519232e-39
2.3739293 0.47504586 -1.2135036 3.6867168e-39
2.3142042 0.48781651 -1.2184408 5.0603382e-39
2.3459663 0.49154285 -1.2138273 4.4196323e-39
2.3739293 0.48454678 -1.2135036 4.3256486e-39
2.4562712 0.17630091 -1.2128676 1.1342195e-38
2.3416631 0.20220773 -1.1847583 4.606878e-39
2.3869336 0.18837705 -1.2019182 3.9654953e-39
2.4576192 0.19393101 -1.2071476 3.9568507e-39
2.3030431 0.22602935 -1.1873295 4.2348767e-39
2.3237958 0.22300182 -1.1777428 4.1448251e-39
2.3030431 0.26293212 -1.1873295 1.2707506e-38
2.3233695 0.25552291 -1.1795516 2.8537667e-39
2.3433812 0.25744039 -1.1774689 3.7731909e-39
2.3225172 0.28618568 -1.1831692 2.2087743e-39
2.3428442 0.29254588 -1.1797469 3.7775265e-39
2.3227301 0.31591928 -1.1822648 2.2109099e-39
2.3482854 0.31416699 -1.1773664 3.9629701e-39
2.3221974 0.34147155 -1.1845258 3.0363784e-39
2.3516228 0.34646523 -1.1793115 3.958322e-39
2.3216646 0.36237797 -1.1867869 4.2348851e-39
2.3504951 0.37468305 -1.188696 3.684584e-39
2.3797414 0.38637063 -1.1888435 4.0515728e-39
2.3488789 0.40404224 -1.1955554 3.2236114e-39
2.3793781 0.4085395 -1.1903847 3.7739084e-39
2.3512697 0.43066567 -1.193692 3.4083656e-39
2.3896687 0.43776551 -1.1903123 3.4083474e-39
2.3879189 0.46639305 -1.197739 4.1448391e-39
2.4194591 0.47273761 -1.1946905 3.8685871e-39
2.4400952 0.47633395 -1.1943172 4.3259723e-39
2.3405178 0.49303734 -1.189618 5.5195031e-39
2.3898101 0.49023366 -1.2042453 4.3242053e-39
2.4179838 0.492033 -1.2009509 5.5238064e-39
2.4389801 0.4909156 -1.1990482 5.3340132e-39
2.4607649 0.17630091 -1.193801 9.6797984e-39
2.3520732 0.20334314 -1.1681978 4.4235699e-39
2.4542809 0.19724697 -1.186438 4.6097633e-39
2.3553452 0.22551192 -1.1681181 2.857689e-39
2.3972323 0.23174311 -1.1644514 3.6878336e-39
2.424439 0.2170734 -1.1735622 3.4137508e-39
2.4423251 0.21386422 -1.1848553 4.2377634e-39
2.3280592 0.26016882 -1.1596551 3.955078e-39
2.3573084 0.25201687 -1.1680703 3.1299767e-39
2.3870065 0.25652474 -1.1580184 4.238848e-39
2.355345 0.28188992 -1.1681181 3.5005641e-39
2.3935137 0.28207856 -1.1652813 4.0522987e-39
2.4238856 0.28943118 -1.1759096 3.500934e-39
2.4456701 0.29163304 -1.1706625 4.51473e-39
2.3455286 0.31360918 -1.168357 3.3172532e-39
2.3929484 0.31474128 -1.1763983 3.6838735e-39
2.4238856 0.32319814 -1.1759096 3.5927751e-39
2.4471917 0.31001154 -1.1766613 4.6991031e-39
2.4869201 0.32576147 -1.1743691 4.0508554e-39
2.3929484 0.34335414 -1.1763983 4.0512155e-39
2.4238856 0.34731743 -1.1759096 3.8668271e-39
2.4481499 0.34339339 -1.172596 4.9746166e-39
2.3945813 0.37530109 -1.1743146 3.6817169e-39
2.4255455 0.37384859 -1.1688669 3.0377783e-39
2.4514034 0.37494123 -1.1681323 3.7731895e-39
2.3998914 0.40355554 -1.171157 3.3132917e-39
2.4260988 0.40037981 -1.1665193 2.1208596e-39
2.4467852 0.40342569 -1.1659317 3.9622499e-39
2.4039817 0.42446116 -1.1731768 3.3143595e-39
2.4246233 0.4373627 -1.1727796 2.5796812e-39
2.4233322 0.45826605 -1.1782572 3.6834868e-39
2.4492149 0.46781161 -1.1846833 3.2225282e-39
2.3759792 0.20748624 -1.1219808 7.6525792e-39
2.4283121 0.20260184 -1.1571288 3.6791708e-39
2.3666558 0.22785228 -1.1201284 6.3604307e-39
2.4041998 0.2176044 -1.1373783 7.0093776e-39
2.370506 0.24947339 -1.1244971 4.6984164e-39
2.3935449 0.26602569 -1.1302757 4.5118307e-39
2.4098387 0.27765507 -1.148326 4.8820496e-39
2.4675055 0.33791006 -1.1652012 4.5100427e-39
2.4305251 0.4148514 -1.1477385 3.8671732e-39
2.4142313 0.43084407 -1.129688 3.2229052e-39
2.4294186 0.43414679 -1.1524336 4.4214302e-39
2.3709629 0.23255047 -1.1018538 6.2653624e-39
2.4030797 0.22130001 -1.1116158 5.9898517e-39
2.3798735 0.24898347 -1.1054574 6.1724633e-39
2.3989937 0.26127523 -1.1071569 5.8965911e-39
2.40569 0.4067266 -1.1036557 5.0646556e-39
2.4184241 0.43693683 -1.1118971 4.9753438e-39
2.441591 0.45344219 -1.1007863 5.8025878e-39
2.3846333 0.24521101 -1.0852621 5.3441376e-39
2.4200206 0.40853119 -1.0833294 5.7989962e-39
2.4249387 0.42964727 -1.0842581 7.3620003e-39
