# .PCD v0.7 - Point Cloud Data file format
VERSION 0.7
FIELDS x y z rgb
SIZE 4 4 4 4
TYPE F F F F
COUNT 1 1 1 1
WIDTH 190
HEIGHT 1
VIEWPOINT 0 0 0 1 0 0 0
POINTS 190
DATA ascii
3.1679811 -0.14165628 -1.4058471 4.8755714e-39
3.2012947 -0.11045872 -1.4127133 1.0046452e-38
3.2034667 -0.08836697 -1.4034978 1.0226134e-38
3.2716081 -0.019321101 -1.4195201 1.2628622e-38
3.2745631 -0.34133944 -1.4069829 4.5172397e-39
3.3111334 -0.34484035 -1.4087477 5.7150571e-39
3.2760406 -0.27049541 -1.4007143 1.1615209e-38
3.3101385 -0.29495779 -1.4129696 3.225024e-39
3.2419107 -0.24229357 -1.392953 5.1431858e-39
3.2765329 -0.25332108 -1.3986248 6.8249905e-39
3.275548 -0.22755963 -1.4028038 5.7968144e-39
3.1746716 -0.16248807 -1.3774602 7.0011001e-39
3.142493 -0.1361578 -1.3701383 9.6049187e-39
3.173238 -0.1374899 -1.3835431 9.1108082e-39
3.2063625 -0.10730276 -1.3912107 1.1057699e-38
3.2078104 -0.082055047 -1.385067 9.0294096e-39
3.240448 -0.063761465 -1.3991592 9.5850539e-39
3.2389853 -0.044633027 -1.4053653 1.2717609e-38
3.2760406 -0.045082569 -1.4007143 8.1121308e-39
3.3096409 -0.026025688 -1.4150805 8.2907754e-39
3.3471909 -0.019722935 -1.4170479 8.570951e-39
3.3842142 -0.013288073 -1.4256098 9.3045517e-39
3.4228096 0 -1.4275011 9.0304606e-39
3.2487364 -0.35281345 -1.3639911 1.2255141e-38
3.2824426 -0.33919263 -1.3735503 6.6359063e-39
3.2506869 -0.30605504 -1.3557165 2.8526765e-39
3.2834275 -0.32201836 -1.3693712 4.4235685e-39
3.3141186 -0.31881469 -1.3960818 3.5913052e-39
3.2492242 -0.2869266 -1.3619225 2.5735617e-39
3.2804728 -0.2962569 -1.3819084 1.4726007e-39
3.2492244 -0.25504586 -1.3619226 3.7757329e-39
3.2477615 -0.22316512 -1.3681287 3.1249797e-39
3.1832736 -0.18748623 -1.340963 8.8356422e-39
3.1804061 -0.16873762 -1.3531288 6.0017067e-39
3.1197116 -0.13486606 -1.3273058 8.0131179e-39
3.1467524 -0.12996881 -1.3520664 1.013899e-38
3.1775389 -0.14998899 -1.3652945 7.7145937e-39
3.1495919 -0.11140183 -1.3400185 1.0412371e-38
3.1804059 -0.10499229 -1.3531287 9.4921688e-39
3.213892 -0.078267895 -1.3592639 9.029034e-39
3.2477615 -0.063761465 -1.3681287 9.4914527e-39
3.2819502 -0.045082569 -1.3756398 9.5822162e-39
3.3200889 -0.045544952 -1.3707502 9.9509987e-39
3.3532236 -0.019722935 -1.391452 8.9390006e-39
3.3933589 -0.013288073 -1.3868086 9.2152428e-39
3.4274299 0 -1.407897 8.9354077e-39
3.2553673 -0.34431189 -1.3358569 9.0279564e-39
3.2863824 -0.34777981 -1.3568339 9.4057549e-39
3.223738 -0.3029725 -1.3174874 3.4036727e-39
3.2545869 -0.31455657 -1.3391668 3.9589975e-39
3.2215662 -0.28088072 -1.3267027 3.0395831e-39
3.253612 -0.29330274 -1.3433043 5.5241624e-39
3.2227726 -0.25668502 -1.321583 7.1001327e-39
3.253612 -0.26779816 -1.3433043 7.164982e-39
3.2208424 -0.22722936 -1.3297746 9.9510072e-39
3.1870966 -0.1916526 -1.324742 5.8926478e-39
3.2208421 -0.20198166 -1.3297746 8.2083145e-39
3.1558387 -0.16586494 -1.3135133 3.4069237e-39
3.1253366 -0.14712662 -1.3034385 2.6700943e-39
3.154865 -0.13262124 -1.3176439 5.0671667e-39
3.1253366 -0.11034495 -1.3034385 2.5804449e-39
3.1552708 -0.099023849 -1.3159227 6.4443586e-39
3.1861408 -0.087493576 -1.3287972 1.0499459e-38
3.2193942 -0.075743124 -1.3359182 9.6733006e-39
3.2558062 -0.073325686 -1.3339951 5.3440745e-39
3.2922921 -0.045082569 -1.3317595 3.3172392e-39
3.3230741 -0.045544952 -1.3580844 9.8558898e-39
3.359256 -0.026297247 -1.3658561 1.0223606e-38
3.2627542 -0.34271789 -1.3045161 8.2929137e-39
3.2280819 -0.3029725 -1.2990565 3.0370622e-39
3.262388 -0.31880733 -1.3060675 3.1339213e-39
3.2280819 -0.2840367 -1.2990565 2.1201408e-39
3.2280819 -0.258789 -1.2990565 1.8428224e-39
3.1954596 -0.21560916 -1.2892585 1.565532e-39
3.2275991 -0.23564525 -1.3011044 2.759755e-39
3.1637895 -0.18566972 -1.2797792 1.3850798e-39
3.1940258 -0.19686054 -1.2953414 2.0254186e-39
3.1623697 -0.16710274 -1.2858031 2.3023726e-39
3.1976099 -0.17498715 -1.2801341 2.7611886e-39
3.1281493 -0.14712662 -1.291505 7.0036042e-39
3.1626537 -0.1386334 -1.2845982 2.9463099e-39
3.1956985 -0.1374899 -1.2882447 4.1448517e-39
3.2295299 -0.12623852 -1.292913 4.3374812e-39
3.129087 -0.1062581 -1.2875272 3.2261156e-39
3.1623697 -0.10521284 -1.2858031 2.764057e-39
3.2285643 -0.10519878 -1.2970086 2.7622606e-39
3.2275991 -0.084159017 -1.3011044 3.0431634e-39
3.2623882 -0.066949539 -1.3060676 2.6700761e-39
3.2295299 -0.050495416 -1.292913 3.2261534e-39
3.2653136 -0.03825688 -1.2936554 3.4973215e-39
3.2952468 -0.038642202 -1.3192222 3.8625125e-39
3.2653136 -0.025504587 -1.2936554 3.7695994e-39
3.3290443 -0.019519266 -1.3327527 5.9887335e-39
3.268239 -0.36981651 -1.2812431 1.5385102e-38
3.269702 -0.34431192 -1.2750372 7.9270039e-39
3.2338738 -0.3029725 -1.2744821 2.3002272e-39
3.268239 -0.31880733 -1.2812431 3.0392538e-39
3.2338738 -0.2840367 -1.2744821 2.4838898e-39
3.2033446 -0.24998163 -1.2558026 2.3913354e-39
3.2333908 -0.26089296 -1.27653 2.5757099e-39
3.201911 -0.22498345 -1.2618855 2.3016481e-39
3.1666291 -0.18566972 -1.2677312 2.5792986e-39
3.2014329 -0.19581896 -1.2639132 1.7520729e-39
3.2353218 -0.1893578 -1.2683386 1.6623856e-39
3.1701784 -0.16710274 -1.2526714 1.9364656e-39
3.2004774 -0.16248807 -1.2679684 2.3052397e-39
3.201911 -0.14998899 -1.2618855 1.6577529e-39
3.2338738 -0.13255045 -1.2744821 4.7956511e-39
3.2324259 -0.10730276 -1.2806257 2.6704489e-39
3.2697017 -0.10839449 -1.2750371 9.1306716e-39
3.2324259 -0.082055047 -1.2806257 3.12819e-39
3.268239 -0.0828899 -1.2812431 3.1382612e-39
3.3011568 -0.064403668 -1.2941477 2.209098e-39
3.3743377 -0.078891739 -1.3018662 6.9193568e-39
3.4101245 -0.066440366 -1.3156732 2.0214753e-39
3.2324259 -0.050495416 -1.2806257 3.2322575e-39
3.268239 -0.051009174 -1.2812431 2.210191e-39
3.3748403 -0.048211619 -1.2997332 3.0363377e-39
3.2770152 -0.36981651 -1.2440065 1.5295794e-38
3.2440095 -0.35346788 -1.231477 1.5027132e-38
3.2748213 -0.34431192 -1.2533157 8.0199226e-39
3.2415276 -0.31198955 -1.2420089 1.7502694e-39
3.2411139 -0.2840367 -1.2437643 1.6591626e-39
3.2062118 -0.24998163 -1.2436368 2.4838842e-39
3.2416928 -0.26005137 -1.2413068 1.5676676e-39
3.2062118 -0.231233 -1.2436368 1.9332216e-39
3.2416928 -0.22975412 -1.2413067 1.6595171e-39
3.2755525 -0.21678898 -1.2502126 1.751361e-39
3.2071676 -0.1916526 -1.2395816 1.6595297e-39
3.2430439 -0.19777371 -1.2355727 2.0290115e-39
3.1751475 -0.17329173 -1.2315875 1.3786297e-39
3.2076454 -0.16873762 -1.237554 5.6160273e-39
3.2411137 -0.16095413 -1.2437642 1.2997046e-38
3.2770152 -0.15940367 -1.2440065 1.3729184e-38
3.3129761 -0.15456881 -1.2439989 4.408485e-39
3.2396655 -0.13255045 -1.2499077 1.6777811e-38
3.2770152 -0.13389908 -1.2440065 1.5302324e-38
3.2740898 -0.11477064 -1.2564187 1.6501954e-38
3.3454626 -0.078077063 -1.2630907 2.1158304e-39
3.3803701 -0.065743119 -1.2762702 2.304518e-39
3.3788621 -0.03944587 -1.2826692 2.123012e-39
3.2483535 -0.35346788 -1.2130462 1.3922604e-38
3.282866 -0.34112385 -1.219182 4.9728159e-39
3.3188858 -0.33489907 -1.2189244 1.0137918e-39
3.2478704 -0.3113884 -1.215094 2.4856793e-39
3.2814033 -0.31880733 -1.2253882 2.4863911e-39
3.3879111 -0.32871559 -1.2442752 2.3027271e-39
3.2478704 -0.28193274 -1.215094 2.392783e-39
3.2843287 -0.29330274 -1.212976 2.7633746e-39
3.2469053 -0.26510093 -1.2191898 1.7527876e-39
3.283232 -0.25345182 -1.2176306 2.4878401e-39
3.2822809 -0.2218899 -1.2216645 2.3942011e-39
3.3188858 -0.2318532 -1.2189244 2.5778735e-39
3.2828662 -0.19766055 -1.2191821 2.3034432e-39
3.3188858 -0.18033028 -1.2189244 2.670781e-39
3.2809155 -0.17428134 -1.2274568 1.7491946e-39
3.3169158 -0.16315596 -1.2272825 2.1194177e-39
3.3529255 -0.15615413 -1.2314262 3.587729e-39
3.3909273 -0.16435778 -1.2314773 1.9350138e-39
3.2799406 -0.14027523 -1.2315943 1.1516487e-38
3.3894191 -0.14463486 -1.2378762 3.0374083e-39
3.2555928 -0.27772477 -1.1823281 5.1607847e-39
3.2887168 -0.29330274 -1.1943576 7.7393826e-39
3.2575235 -0.26089296 -1.1741366 4.0598391e-39
3.2901795 -0.24866971 -1.1881515 5.2501118e-39
3.3218405 -0.24473393 -1.2063872 5.9862293e-39
3.3559108 -0.22772476 -1.2187604 3.5016108e-39
3.3939435 -0.2235266 -1.2186793 3.7792978e-39
3.4314628 -0.21925321 -1.2251374 3.5012661e-39
3.3218405 -0.20609175 -1.2063872 2.1215897e-39
3.3559108 -0.18868624 -1.2187604 1.4790705e-39
3.3939435 -0.19065504 -1.2186793 2.4896225e-39
3.4329867 -0.19267707 -1.2186705 2.2130342e-39
3.3939435 -0.16435778 -1.2186793 2.6682699e-39
3.4329867 -0.16610092 -1.2186705 1.6598927e-39
3.2628329 -0.258789 -1.1516101 4.423577e-39
3.2960303 -0.24229357 -1.1633271 4.6976583e-39
3.4029925 -0.19065504 -1.1802853 4.6986869e-39
3.4360352 -0.19267707 -1.2057368 2.1190407e-39
3.4029925 -0.16435778 -1.1802853 4.7923609e-39
3.4360352 -0.17274496 -1.2057368 2.8580603e-39
3.2671769 -0.258789 -1.1331793 5.4359464e-39
3.3033438 -0.25504586 -1.1322966 4.0512309e-39
3.3395696 -0.19321102 -1.1311637 1.2889325e-39
3.4060087 -0.18408072 -1.1674874 2.2069344e-39
3.407517 -0.16435778 -1.1610883 2.9516853e-39
3.3738215 -0.14314128 -1.1427654 3.4994669e-39
3.4060087 -0.14463486 -1.1674874 2.760132e-39
3.2729688 -0.17673394 -1.108605 2.0239935e-39
3.3768067 -0.15615413 -1.1300997 4.2345376e-39
