# .PCD v0.7 - Point Cloud Data file format
VERSION 0.7
FIELDS x y z rgb
SIZE 4 4 4 4
TYPE F F F F
COUNT 1 1 1 1
WIDTH 168
HEIGHT 1
VIEWPOINT 0 0 0 1 0 0 0
POINTS 168
DATA ascii
3.2034667 -0.10099083 -1.4034978 1.5616084e-39
3.2034667 -0.08836697 -1.4034978 7.3021523e-39
3.2716081 -0.051522937 -1.4195201 9.93765e-39
3.3476937 -0.34624708 -1.414915 8.8515021e-39
3.3471909 -0.32871559 -1.4170479 3.0395579e-39
3.2775178 -0.28337616 -1.3944457 5.152482e-39
3.2404482 -0.25504586 -1.3991593 9.495445e-39
3.2092586 -0.21460551 -1.3789234 3.4061936e-39
3.2399602 -0.22529049 -1.4012278 4.5089819e-39
3.2092586 -0.19566974 -1.3789234 4.5139901e-39
3.2389853 -0.19766055 -1.4053653 2.3956669e-39
3.2092586 -0.17673394 -1.3789234 5.2548048e-39
3.2401555 -0.16322936 -1.4004004 5.4341612e-39
3.2409353 -0.13602446 -1.3970904 7.4523757e-39
3.240448 -0.10839449 -1.3991592 1.0881255e-38
3.208293 -0.084159017 -1.3830191 1.0606417e-38
3.2399602 -0.06801223 -1.4012278 9.1211988e-39
3.2760406 -0.045082569 -1.4007143 8.7524486e-39
3.2389853 -0.012752294 -1.4053653 1.9353186e-38
3.2745631 -0.012880734 -1.4069829 1.4656964e-38
3.3101385 -0.021688074 -1.4129696 9.9539134e-39
3.3486991 -0.019722935 -1.4106489 7.3731112e-39
3.3081481 0 -1.4214134 1.4844165e-38
3.3456829 0 -1.4234469 8.3653819e-39
3.3171036 -0.36435962 -1.3834161 1.3540819e-38
3.318099 -0.34700918 -1.3791941 1.0782908e-38
3.2834275 -0.30913761 -1.3693712 3.5877276e-39
3.3171039 -0.3209835 -1.3834161 3.4991123e-39
3.2492242 -0.28055045 -1.3619225 2.941275e-39
3.2834275 -0.2962569 -1.3693712 3.1260138e-39
3.3141186 -0.29929543 -1.3960818 2.0236207e-39
3.2150502 -0.25247705 -1.354349 9.2263074e-39
3.2460063 -0.25504586 -1.375576 9.6790922e-39
3.2136023 -0.22091743 -1.3604926 3.4937355e-39
3.1813619 -0.19581896 -1.3490735 4.9745969e-39
3.2150502 -0.1893578 -1.354349 4.5139719e-39
3.1804061 -0.17498715 -1.3531288 2.022211e-39
3.213892 -0.16158533 -1.3592639 8.4751358e-39
3.2136023 -0.13255045 -1.3604926 6.6290862e-39
3.2140849 -0.10940673 -1.3584447 7.3763735e-39
3.2448361 -0.10201835 -1.3805408 7.2557721e-39
3.2131195 -0.07995107 -1.3625405 9.2162994e-39
3.2477615 -0.070137605 -1.3681287 8.2936312e-39
3.2804728 -0.051522937 -1.3819084 7.6490003e-39
3.3156111 -0.045544952 -1.3897489 8.2003412e-39
3.3537264 -0.043828744 -1.3893189 9.2126952e-39
3.3933589 -0.053152293 -1.3868086 8.2021054e-39
3.3532236 -0.026297247 -1.391452 8.3854611e-39
3.3887866 -0.013288073 -1.4062093 8.292555e-39
3.391835 0 -1.3932755 7.9244984e-39
3.2565374 -0.33155963 -1.330892 6.4537165e-39
3.290076 -0.34133944 -1.3411624 1.0323373e-38
3.2565374 -0.30605504 -1.330892 3.7742853e-39
3.2893372 -0.31772479 -1.3442967 2.7619355e-39
3.2550747 -0.2869266 -1.3370981 4.328496e-39
3.2208424 -0.25878897 -1.3297746 3.8660956e-39
3.2208424 -0.22722936 -1.3297746 8.4773456e-39
3.2208424 -0.19566973 -1.3297746 8.7528353e-39
3.2204287 -0.16771691 -1.33153 5.0689604e-39
3.1882913 -0.13436514 -1.3196729 3.8689823e-39
3.2179463 -0.13886239 -1.3420618 3.9600933e-39
3.1581104 -0.099023849 -1.3038749 5.9952565e-39
3.1875744 -0.10624219 -1.3227143 5.618914e-39
3.2179463 -0.11361468 -1.3420618 3.5009522e-39
3.1581104 -0.086645864 -1.3038749 2.5789483e-39
3.1875744 -0.081244037 -1.3227143 6.2707322e-39
3.2179463 -0.075743124 -1.3420618 8.9343077e-39
3.3597589 -0.043828744 -1.363723 5.8025653e-39
3.3994555 -0.03986422 -1.3609413 3.8610425e-39
3.359256 -0.019722935 -1.3658561 8.660983e-39
3.2653136 -0.33793578 -1.2936554 9.7737723e-39
3.2952468 -0.33489907 -1.3192222 7.0082832e-39
3.2629733 -0.31115597 -1.3035852 3.4112411e-39
3.2280819 -0.2840367 -1.2990565 4.234504e-39
3.2280819 -0.258789 -1.2990565 2.8544618e-39
3.2653136 -0.25504586 -1.2936554 1.9361264e-39
3.2280822 -0.22722936 -1.2990566 2.3952871e-39
3.1976099 -0.18748623 -1.2801341 3.2243149e-39
3.2275991 -0.19777371 -1.3011044 3.0406565e-39
3.1976099 -0.17498715 -1.2801341 3.2264813e-39
3.2275991 -0.16831803 -1.3011044 3.410518e-39
3.1637895 -0.12377981 -1.2797792 3.5037787e-39
3.1947427 -0.1390523 -1.2923 3.9633401e-39
3.1337743 -0.098084405 -1.2676378 3.5956534e-39
3.1637895 -0.11140183 -1.2797792 2.951e-39
3.1918755 -0.10624219 -1.3044658 6.8196376e-39
3.1637895 -0.086645864 -1.2797792 3.961531e-39
3.2295299 -0.08836697 -1.292913 3.0406761e-39
3.2638509 -0.076513752 -1.2998614 2.5832825e-39
3.2982018 -0.064403668 -1.306685 2.6693755e-39
3.2982018 -0.051522937 -1.306685 2.4842555e-39
3.3290443 -0.052051377 -1.3327527 2.8544618e-39
3.368305 -0.03944587 -1.3274621 2.5775008e-39
3.3637805 -0.019722935 -1.3466591 9.2166287e-39
3.4040279 -0.026576146 -1.3415407 2.2098126e-39
3.4443715 -0.013427523 -1.3360151 4.2312628e-39
3.2353218 -0.34084404 -1.2683386 1.2623949e-38
3.2697017 -0.33155963 -1.2750371 5.7168479e-39
3.2353218 -0.30928442 -1.2683386 1.7535302e-39
3.2338738 -0.2840367 -1.2744821 2.3945654e-39
3.2343562 -0.26089299 -1.2724342 2.3952871e-39
3.2338741 -0.22722936 -1.2744823 2.8551849e-39
3.2004774 -0.19373578 -1.2679684 3.7717448e-39
3.2353218 -0.19566974 -1.2683386 3.2232513e-39
3.2023888 -0.17082079 -1.2598579 3.499834e-39
3.2333908 -0.1556942 -1.27653 2.6751166e-39
3.2338738 -0.13255045 -1.2744821 3.4112383e-39
3.1666291 -0.10521284 -1.2677312 3.9622849e-39
3.2338738 -0.10730276 -1.2744821 3.6842785e-39
3.2697017 -0.089266047 -1.2750371 6.4569773e-39
3.3011568 -0.064403668 -1.2941477 3.3179342e-39
3.3041115 -0.051522937 -1.2816105 2.483178e-39
3.3409848 -0.039038531 -1.2820895 2.1204981e-39
3.3728294 -0.03944587 -1.3082651 2.4845919e-39
3.3409848 -0.026025688 -1.2820895 2.3063201e-39
3.4101245 -0.01993211 -1.3156732 2.945577e-39
3.2401481 -0.345052 -1.2478598 1.4194491e-38
3.2770152 -0.33793578 -1.2440065 8.3854947e-39
3.2411139 -0.31198955 -1.2437643 2.3963647e-39
3.2411139 -0.2840367 -1.2437643 2.3031069e-39
3.2411139 -0.258789 -1.2437643 2.7611984e-39
3.2407517 -0.22880736 -1.2453002 2.4882072e-39
3.2770152 -0.21678898 -1.2440065 3.0395761e-39
3.2396655 -0.19566974 -1.2499077 3.0388643e-39
3.2770152 -0.19766055 -1.2440065 3.2221723e-39
3.2062118 -0.16873762 -1.2436368 3.2232667e-39
3.2411137 -0.16411009 -1.2437642 3.2228954e-39
3.2770152 -0.15940367 -1.2440065 6.5440316e-39
3.2396655 -0.13255045 -1.2499077 8.2918894e-39
3.2770152 -0.13389908 -1.2440065 1.530267e-38
3.2391827 -0.10940673 -1.2519555 1.3741115e-38
3.2740898 -0.10201835 -1.2564187 1.5768338e-38
3.3110061 -0.11163303 -1.252357 1.4750585e-38
3.3439701 -0.091089904 -1.2694236 1.5859799e-38
3.3818784 -0.098614678 -1.2698712 1.1530891e-38
3.4207935 -0.093016513 -1.2704053 7.3505952e-40
3.2740898 -0.0828899 -1.2564187 1.5305205e-38
3.3070664 -0.064403668 -1.2690734 7.5665647e-39
3.3449655 -0.073739447 -1.2652018 9.4950723e-39
3.3818784 -0.065743119 -1.2698712 1.2867858e-39
3.4207935 -0.079728439 -1.2704053 1.9389655e-39
3.3070664 -0.051522937 -1.2690734 1.932158e-39
3.3454626 -0.052051377 -1.2630907 3.4962285e-39
3.3803701 -0.03944587 -1.2762702 2.579307e-39
3.3439701 -0.026025688 -1.2694236 2.1179912e-39
3.2483535 -0.34084404 -1.2130462 9.5984208e-39
3.2828658 -0.33155963 -1.219182 3.308624e-39
3.2469053 -0.30928442 -1.2191898 2.4878401e-39
3.2843287 -0.31243119 -1.212976 2.2127007e-39
3.2469053 -0.27772477 -1.2191898 3.0417201e-39
3.2834511 -0.28820184 -1.2166996 3.2232387e-39
3.2469053 -0.26510093 -1.2191898 2.8566422e-39
3.2822809 -0.25504586 -1.2216645 2.6722397e-39
3.3159308 -0.25761467 -1.2314616 2.215579e-39
3.3529255 -0.26025686 -1.2314262 2.7640949e-39
3.2799406 -0.22316512 -1.2315943 3.1310571e-39
3.3159308 -0.2318532 -1.2314616 2.6729544e-39
3.2799406 -0.17215595 -1.2315943 2.8540932e-39
3.3864028 -0.13148624 -1.2506742 3.3093275e-39
3.3864028 -0.1117633 -1.2506742 4.4185547e-39
3.4258742 -0.097445868 -1.2488492 2.5789497e-39
3.2205484 -0.33747521 -1.1828082 1.3831459e-38
3.2555931 -0.27772477 -1.1823282 9.0297277e-39
3.2584891 -0.25247705 -1.170041 5.8273725e-39
3.2887168 -0.26779816 -1.1943576 8.0148597e-39
3.2633154 -0.25668502 -1.1495622 5.4481756e-39
3.2633154 -0.23564525 -1.1495622 3.6809897e-39
3.2671769 -0.25247705 -1.1331793 8.6822393e-39
