# .PCD v0.7 - Point Cloud Data file format
VERSION 0.7
FIELDS x y z rgb
SIZE 4 4 4 4
TYPE F F F F
COUNT 1 1 1 1
WIDTH 132
HEIGHT 1
VIEWPOINT 0 0 0 1 0 0 0
POINTS 132
DATA ascii
3.9274871 0.075999998 -1.4135391 8.4705479e-39
3.8876197 -0.15020183 -1.3675094 1.1496038e-38
3.930824 -0.152 -1.3987099 1.095904e-38
3.9324927 -0.12920001 -1.3912953 1.1804685e-38
3.9319365 -0.096266665 -1.3937669 1.1426563e-38
3.981652 -0.1076844 -1.4005861 1.373394e-38
3.9324927 -0.068400003 -1.3912953 1.235321e-38
3.9324927 -0.038000003 -1.3912953 1.2441438e-38
3.9324927 -0.015200001 -1.3912953 1.170637e-38
3.9324927 0.015200001 -1.3912953 1.2254841e-38
3.9799635 0 -1.4080902 1.2168055e-38
3.9341612 0.038000003 -1.3838807 1.1338302e-38
3.9782748 0.038458712 -1.4155943 1.1422907e-38
3.8876197 0.075100914 -1.3675094 1.3177163e-38
3.9324927 0.068400003 -1.3912953 1.2905254e-38
3.9782748 0.061533943 -1.4155943 1.2155826e-38
3.9341612 0.091200002 -1.3838807 1.3088579e-38
3.9782748 0.092300914 -1.4155943 1.3921197e-38
3.892566 -0.15771192 -1.3455287 7.3677877e-39
3.9391668 -0.12920001 -1.361637 1.3370184e-38
3.9391668 -0.091200002 -1.361637 1.4199238e-38
3.9867182 -0.1076844 -1.3780739 1.4008351e-38
3.9391668 -0.068400003 -1.361637 1.3553149e-38
3.9391668 -0.038000003 -1.361637 1.4011617e-38
3.9374983 -0.015200001 -1.3690516 1.2446455e-38
3.9884069 -0.015383486 -1.3705698 1.3465986e-38
3.8942149 0.015020183 -1.3382019 1.4375733e-38
3.9386106 0.0050666672 -1.3641086 1.3729282e-38
3.8942149 0.045060549 -1.3382019 1.2174216e-38
3.9386106 0.035466667 -1.3641086 1.2726998e-38
3.8931155 0.070094191 -1.3430865 1.2257401e-38
3.9374983 0.060800005 -1.3690516 1.2348842e-38
3.8942149 0.090121098 -1.3382019 1.1805046e-38
3.9374983 0.091200002 -1.3690516 1.2629756e-38
3.8991611 -0.15771192 -1.3162214 7.651538e-39
3.9458408 -0.12920001 -1.3319787 4.0501519e-39
3.9458408 -0.091200002 -1.3319787 7.6407312e-39
3.9934728 -0.1076844 -1.3480576 4.7902141e-39
3.9458408 -0.068400003 -1.3319787 6.8199529e-39
3.9458408 -0.038000003 -1.3319787 6.540838e-39
3.9458408 -0.015200001 -1.3319787 7.5528404e-39
3.8991611 0.015020183 -1.3162214 7.925576e-39
3.9458408 0 -1.3319787 7.7473168e-39
3.9458408 0.038000003 -1.3319787 1.0415563e-38
3.8991611 0.067590825 -1.3162214 1.1700219e-38
3.90081 0.090121098 -1.3088944 7.1833908e-39
3.9057562 -0.15771192 -1.2869139 4.2395486e-39
3.9074051 -0.13518165 -1.279587 2.5836244e-39
3.9519589 -0.12666668 -1.3047919 2.6689971e-39
3.9541836 -0.098800004 -1.2949058 2.8580757e-39
3.9985387 -0.099992655 -1.3255453 3.5902444e-39
3.9519589 -0.070933335 -1.3047919 2.7630032e-39
4.0019159 -0.061533943 -1.3105371 2.8548177e-39
3.9525149 -0.038000003 -1.3023204 2.8548261e-39
3.9525149 -0.015200001 -1.3023204 3.407672e-39
3.9057562 0.015020183 -1.2869139 2.3963591e-39
3.9525149 0 -1.3023204 3.0420985e-39
3.9057562 0.037550457 -1.2869139 2.9455714e-39
3.9052067 0.070094191 -1.2893561 3.6813414e-39
3.9541836 0.060800005 -1.2949058 3.220366e-39
3.9057562 0.090121098 -1.2869139 3.1425449e-39
3.9608576 -0.1824 -1.2652475 3.4140913e-39
3.9107027 -0.15771192 -1.2649332 3.7782174e-39
3.9608576 -0.1596 -1.2652475 4.0486946e-39
3.9123514 -0.12767155 -1.2576064 7.2874905e-39
3.9591892 -0.098800004 -1.272662 7.1945928e-39
3.9608576 -0.075999998 -1.2652475 1.374478e-38
4.0064192 -0.066661768 -1.2905263 4.4269303e-39
4.0052934 -0.038458712 -1.295529 1.0106122e-39
4.0574403 -0.046711929 -1.2960997 5.1835446e-39
3.9107027 0.015020183 -1.2649332 1.8412641e-40
4.0052934 0 -1.295529 7.3511557e-40
3.9107027 0.037550457 -1.2649332 2.3023908e-39
3.9107027 0.067590825 -1.2649332 3.0374307e-39
4.118506 -0.22071192 -1.2661479 8.6667577e-39
3.9675317 -0.1824 -1.2355891 4.699466e-39
4.0120482 -0.18460183 -1.2655126 5.1593581e-39
4.0625677 -0.20241834 -1.2733135 5.4291235e-39
3.9658632 -0.1596 -1.2430037 8.1953161e-39
3.9172978 -0.12767155 -1.2356257 2.0382094e-38
3.9675317 -0.12920001 -1.2355891 2.2221575e-38
3.9658632 -0.098800004 -1.2430037 1.9450765e-38
3.9658632 -0.075999998 -1.2430037 1.972989e-38
4.0137367 -0.061533943 -1.2580086 1.8364199e-38
4.0120482 -0.038458712 -1.2655126 1.4184192e-38
4.0642772 -0.046711929 -1.2657181 1.4143109e-38
4.1150451 -0.031530276 -1.2815285 1.6159087e-38
4.1667705 -0.015963303 -1.297637 1.7297887e-38
4.1167755 0.007882569 -1.2738382 8.5788921e-39
4.1667705 0 -1.297637 1.6056493e-38
4.0188026 -0.18460183 -1.2354963 4.6065445e-39
4.0676956 -0.20241834 -1.2505274 4.8726805e-39
4.0199285 -0.15896268 -1.2304935 2.5789511e-39
4.0711141 -0.17127708 -1.2353365 3.6842379e-39
3.9725373 -0.12920001 -1.2133454 6.6247996e-39
4.0204916 -0.1076844 -1.2279922 7.8312307e-39
4.0694046 -0.093423858 -1.242932 7.0724963e-39
4.0188026 -0.076917425 -1.2354963 1.0132166e-38
4.0699744 -0.067472786 -1.2404002 6.2520963e-39
4.0694046 -0.038926609 -1.242932 1.5304874e-38
4.0694046 -0.015570642 -1.242932 1.5842619e-38
4.0221801 0.015383486 -1.2204881 7.0993886e-39
4.0694046 0.0077853212 -1.242932 5.8857871e-39
4.0221801 0.030766971 -1.2204881 4.5280227e-39
4.0762415 -0.18684772 -1.2125504 3.7814782e-39
3.9792113 -0.152 -1.1836871 3.5002109e-39
4.0762415 -0.17127708 -1.2125504 2.9499379e-39
3.9792113 -0.12920001 -1.1836871 1.4007231e-38
4.027246 -0.1076844 -1.1979759 1.576149e-38
4.1271591 -0.094590828 -1.2276967 1.0319111e-38
4.0745325 -0.07006789 -1.2201458 1.3624434e-38
4.1288896 -0.070943117 -1.2200063 1.0684566e-38
4.1842933 -0.071834862 -1.2197678 1.0042118e-38
4.0745325 -0.038926609 -1.2201458 2.0565763e-38
4.027246 -0.015383486 -1.1979759 1.114055e-38
3.9775429 0.015200001 -1.1911017 1.4923076e-38
4.027246 0.0076917429 -1.1979759 1.2888688e-38
4.077951 0 -1.2049551 1.1056996e-38
3.9775429 0.030400002 -1.1911017 9.6891759e-39
4.028935 0.030766971 -1.1904718 1.2000529e-38
4.077951 0.046711929 -1.2049551 5.0513601e-39
4.0813694 -0.18684772 -1.1897643 5.1579526e-39
3.9858856 -0.152 -1.1540288 6.8102531e-39
4.0356894 -0.16921835 -1.1604555 4.3257229e-39
4.0813694 -0.17127708 -1.1897643 8.396635e-39
3.9858856 -0.12920001 -1.1540288 1.5018845e-38
4.0323124 -0.1076844 -1.1754636 1.639604e-38
4.1323504 -0.094590828 -1.2046258 1.2166917e-38
4.0323124 0.015383486 -1.1754636 1.6584381e-38
4.0830784 0.0077853212 -1.182169 1.4468557e-38
4.0813694 0.038926609 -1.1897643 1.060177e-38
4.1358118 0.039412845 -1.1892453 1.2529238e-38
