# .PCD v0.7 - Point Cloud Data file format
VERSION 0.7
FIELDS x y z rgb
SIZE 4 4 4 4
TYPE F F F F
COUNT 1 1 1 1
WIDTH 131
HEIGHT 1
VIEWPOINT 0 0 0 1 0 0 0
POINTS 131
DATA ascii
2.3796217 -0.16401102 -1.3637182 1.382899e-38
2.3796217 -0.13989174 -1.3637182 1.327115e-38
2.3840482 -0.18330641 -1.3449373 1.3368036e-38
2.4123721 -0.20005322 -1.3555359 1.3175333e-38
2.3840482 -0.164011 -1.3449372 1.2443561e-38
2.381835 -0.14471559 -1.3543277 1.374005e-38
2.4054153 -0.13623171 -1.3539169 1.354882e-38
2.3637154 -0.10531744 -1.3440247 9.4115086e-39
2.3840482 -0.11577248 -1.3449373 1.1609155e-38
2.4044147 -0.11665321 -1.3457069 1.134336e-38
2.3840482 -0.086829357 -1.3449373 1.0502387e-38
2.4032998 -0.072908252 -1.3504379 1.3449042e-38
2.4167395 -0.047478896 -1.355688 1.4658046e-38
2.4239163 -0.021547889 -1.3501471 1.2715105e-38
2.4399309 -0.017275229 -1.3737414 1.2805137e-38
2.4155643 0.016851041 -1.3538799 1.1984374e-38
2.4393647 0 -1.3761436 1.3640308e-38
2.4154019 0.042344954 -1.3572114 1.1793888e-38
2.4429879 0.057255048 -1.3607702 1.2252689e-38
2.3895812 -0.18813026 -1.3214612 1.3549539e-38
2.4066448 -0.20414312 -1.3362452 1.3907799e-38
2.3906877 -0.164011 -1.3167659 1.1980079e-38
2.3725007 -0.12446605 -1.3067487 1.4665596e-38
2.3914256 -0.1350679 -1.3136359 1.3732149e-38
2.4066448 -0.14095595 -1.3362452 1.2716564e-38
2.3703043 -0.11489175 -1.3160678 1.1252236e-38
2.3912411 -0.084417433 -1.3144184 1.0137549e-38
2.4084289 -0.071936145 -1.3286755 1.0592069e-38
2.4197297 -0.048801225 -1.3291627 1.1801422e-38
2.4208651 -0.019526079 -1.3257284 1.1883195e-38
2.4218769 0.01329608 -1.3270978 1.1709232e-38
2.4288592 0.047013577 -1.3291738 1.2529286e-38
2.4484229 0.059229359 -1.3377104 1.307702e-38
2.4315555 0.068561465 -1.3177339 1.2355672e-38
2.3772073 -0.18875073 -1.2867796 1.3083872e-38
2.3995404 -0.18330641 -1.2792044 1.0106389e-39
2.3973274 -0.164011 -1.2885947 9.9524757e-39
2.4200249 -0.16525871 -1.279474 1.2816251e-38
2.3973274 -0.13368964 -1.2885947 9.4003935e-39
2.4155648 -0.14095595 -1.2983977 1.4287414e-38
2.3790898 -0.10053027 -1.2787918 1.0778974e-38
2.3984339 -0.11577248 -1.2838995 7.9345835e-39
2.3790898 -0.086168803 -1.2787918 1.2157942e-38
2.3973274 -0.075573698 -1.2885947 9.7702116e-39
2.4133348 -0.068047702 -1.3078595 1.0392591e-38
2.3988028 -0.054670338 -1.2823344 1.0317983e-38
2.4151189 -0.04666128 -1.30029 1.1797093e-38
2.4203031 -0.019462219 -1.2941458 9.0301271e-39
2.3995404 0.019295413 -1.2792044 1.3917185e-38
2.425993 0.015410091 -1.297744 9.7705886e-39
2.4203291 0.046749353 -1.2956202 1.114921e-38
2.4586134 0.059229359 -1.2944729 3.5924136e-39
2.4338024 0.068561465 -1.3082006 1.2629748e-38
2.3478534 -0.19805504 -1.2413167 1.1710985e-38
2.3748937 -0.1966812 -1.253003 8.6577586e-39
2.4017537 -0.18330641 -1.2698139 7.0717704e-39
2.4035242 -0.16208145 -1.2623016 7.2856128e-39
2.4233699 -0.16525871 -1.2652812 3.8718437e-39
2.3867769 -0.12446605 -1.2461754 3.499139e-39
2.4036508 -0.13782437 -1.261765 4.1459167e-39
2.3848798 -0.10444704 -1.2542236 6.6280254e-39
2.3851297 -0.078988068 -1.2531646 8.4823343e-39
2.4030817 -0.075252101 -1.2641796 6.2746824e-39
2.3869967 -0.04787156 -1.2452435 3.2221681e-39
2.402307 -0.048238531 -1.2674663 1.5644502e-39
2.4050734 -0.02894312 -1.2557282 2.4885547e-39
2.4233699 -0.01458165 -1.2652812 3.8657312e-39
2.4039669 0.019295413 -1.2604234 2.5768169e-39
2.4264605 0.012498558 -1.2646234 3.0392048e-39
2.4271643 0.048678901 -1.2637135 3.5949121e-39
2.4267151 0.068047702 -1.2510884 6.0643783e-39
2.3369384 -0.21531378 -1.2048043 1.4833394e-38
2.3539834 -0.1949113 -1.2153076 7.8337461e-39
2.3695703 -0.20902018 -1.2319988 9.9693445e-39
2.3565075 -0.17919265 -1.2045979 3.2261506e-39
2.3927071 -0.13404037 -1.2210141 3.9593702e-39
2.4100533 -0.13506788 -1.2345998 3.7760594e-39
2.3900716 -0.10531744 -1.2321969 6.2614023e-39
2.4106064 -0.11577248 -1.2322522 3.225066e-39
2.3911698 -0.067020178 -1.2275374 1.6541193e-39
2.4111598 -0.07476972 -1.2299047 6.5566769e-39
2.3906207 -0.050265137 -1.2298671 2.8559149e-39
2.4117131 -0.048238531 -1.2275571 3.4051357e-39
2.4103298 -0.019295413 -1.233426 3.3147267e-39
2.4322901 -0.019442201 -1.2274337 3.5905905e-39
2.3922679 0.021542203 -1.222878 3.0396013e-39
2.4109225 0.01102595 -1.2309107 3.3165666e-39
2.3944643 0.052658714 -1.2135589 9.2345569e-41
2.4102376 0.045022633 -1.2338173 3.0385209e-39
2.3390861 -0.21531378 -1.1956925 1.455574e-38
2.323796 -0.19512662 -1.177743 9.6848515e-39
2.3390861 -0.20127158 -1.1956925 1.1888234e-38
2.362998 -0.15089908 -1.1770589 1.3836823e-38
2.3433812 -0.14978349 -1.1774689 5.5267814e-39
2.3929753 -0.13236855 -1.1949663 5.8079659e-39
2.4001749 -0.10723229 -1.1893296 6.0798655e-39
2.4010532 -0.086168803 -1.1856019 1.0219677e-38
2.4172461 -0.077181652 -1.2040809 7.7627661e-39
2.4400952 -0.068047702 -1.1943172 1.751333e-39
2.4400952 -0.058326606 -1.1943172 2.5800553e-39
2.4010532 -0.0095743118 -1.1856019 3.6856364e-39
2.4161394 -0.0096477065 -1.2087761 2.6693615e-39
2.3988569 0.0095743118 -1.194921 1.1524769e-38
2.4169693 0.012059632 -1.2052547 7.3731168e-39
2.437865 0.029163303 -1.2037791 3.3096988e-39
2.4165082 0.048238531 -1.2072111 1.4014757e-38
2.4378653 0.043744951 -1.2037791 3.5862983e-39
2.3848269 -0.15201467 -1.1672659 3.410881e-39
2.347676 -0.14978349 -1.1592453 5.5609829e-40
2.3998916 -0.13380387 -1.171157 3.133564e-39
2.3920603 -0.10475474 -1.1656359 6.7248762e-39
2.4043479 -0.086168803 -1.1716236 1.151724e-38
2.4227791 -0.077181652 -1.1806049 6.8314743e-39
2.4607649 -0.068561465 -1.193801 3.2221373e-39
2.4607649 -0.058766972 -1.193801 3.6852959e-39
2.4032497 -0.0095743118 -1.176283 3.0413544e-39
2.4249921 -0.0096477065 -1.1712145 2.4881988e-39
2.4521995 -0.016250765 -1.1720198 3.4079845e-39
2.4869201 -0.01974312 -1.1743691 4.0540644e-39
2.4043479 0 -1.1716236 3.2229164e-39
2.4242017 0.015160682 -1.1745682 2.2141371e-39
2.4451127 0.012151375 -1.1730281 2.8569855e-39
2.4216723 0.057886239 -1.1853001 2.6725943e-39
2.4423251 0.038884401 -1.1848553 3.1292774e-39
2.4290497 -0.13185199 -1.1539987 5.7100012e-39
2.3658078 -0.1035107 -1.13753 6.4533354e-39
2.4017 -0.10491376 -1.1392652 6.8883937e-39
2.4283121 -0.11577248 -1.1571288 5.8191203e-39
2.4283121 0.024119265 -1.1571288 3.4126788e-39
2.4675055 0.0097944951 -1.1652012 3.5934954e-39
2.4098387 0.038297247 -1.148326 3.7764307e-39
