# .PCD v0.7 - Point Cloud Data file format
VERSION 0.7
FIELDS x y z rgb
SIZE 4 4 4 4
TYPE F F F F
COUNT 1 1 1 1
WIDTH 127
HEIGHT 1
VIEWPOINT 0 0 0 1 0 0 0
POINTS 127
DATA ascii
2.5291681 -0.20041955 -1.3743618 1.0959805e-38
2.5299475 -0.1222899 -1.3710555 8.4769337e-39
2.554703 -0.21570276 -1.3619219 1.13303e-38
2.6234238 -0.23162569 -1.3754869 1.3071609e-38
2.5322855 -0.19872108 -1.3611364 1.1245741e-38
2.5553763 -0.19369228 -1.3590655 1.1615228e-38
2.554703 -0.16434495 -1.361922 1.1526267e-38
2.5322855 -0.1222899 -1.3611364 9.5692906e-39
2.554703 -0.136465 -1.361922 1.1430497e-38
2.5341556 -0.10598458 -1.3532012 9.1251953e-39
2.554703 -0.092444032 -1.3619219 1.1610872e-38
2.5554883 -0.070188992 -1.3585894 1.502249e-38
2.5756955 -0.082847707 -1.3731132 1.418081e-38
2.5554883 -0.047933947 -1.3585894 1.2350268e-38
2.5780711 -0.03365688 -1.3630334 1.1524112e-38
2.5780714 -0.015533946 -1.3630334 1.1707057e-38
2.554703 0.020543119 -1.3619219 1.0043214e-38
2.5823681 0.0069180429 -1.3615113 1.1794935e-38
2.602077 0.033931192 -1.3614401 1.2164081e-38
2.622216 0.042113762 -1.3806107 1.1610904e-38
2.6465871 0.053082563 -1.3818265 1.1522292e-38
2.5605938 -0.21570276 -1.3369279 1.21536e-38
2.5416367 -0.19362569 -1.3214601 1.1521966e-38
2.5416367 -0.1630532 -1.3214601 1.2078014e-38
2.5416367 -0.13757615 -1.3214601 1.2540429e-38
2.5416365 -0.097831927 -1.3214601 1.0132866e-38
2.5617719 -0.092444032 -1.3319291 9.5897636e-39
2.5617719 -0.071900912 -1.3319291 1.1329645e-38
2.5613005 -0.047249176 -1.3339286 1.243959e-38
2.5844059 -0.034519877 -1.336154 1.1337918e-38
2.5851984 -0.015533946 -1.3327941 1.1245364e-38
2.5641282 0.020543119 -1.3219315 1.1974299e-38
2.5848589 0.0073971166 -1.3342341 1.1609833e-38
2.6004391 0.041677061 -1.3349686 1.1982561e-38
2.5479822 -0.19216986 -1.2945369 7.190204e-39
2.5478709 -0.16645014 -1.2950094 9.772748e-39
2.570019 -0.15920918 -1.2969373 7.2859645e-39
2.5463121 -0.14267156 -1.301622 1.4199538e-38
2.5664845 -0.13353027 -1.3119338 1.511793e-38
2.5474808 -0.10190825 -1.2966626 1.0773561e-38
2.5688407 -0.092444032 -1.3019361 9.40968e-39
2.5509875 -0.066240363 -1.2817839 4.601511e-39
2.5681674 -0.073368289 -1.3047926 1.0135746e-38
2.5688407 -0.041086238 -1.3019361 1.1060942e-38
2.5923252 -0.015533946 -1.3025547 8.111049e-39
2.5664845 0.020543119 -1.3119338 1.095871e-38
2.5993681 0.010384098 -1.3060935 9.2141526e-39
2.5993659 0.041555148 -1.3061026 1.0689294e-38
2.5306323 -0.19539082 -1.2678887 6.3575202e-39
2.5556629 -0.18343486 -1.2619458 4.5161397e-39
2.5562477 -0.17069633 -1.2594661 4.055872e-39
2.5747316 -0.16434495 -1.276942 4.059116e-39
2.5735533 -0.092444032 -1.2819408 8.215478e-39
2.5533254 -0.066240363 -1.2718649 3.0338098e-39
2.5735533 -0.082172476 -1.2819408 2.1140129e-39
2.5556631 -0.043311007 -1.2619458 2.1197652e-39
2.5743389 -0.034238532 -1.2786083 2.0250584e-39
2.5782659 -0.020543119 -1.2619456 1.9382732e-39
2.597868 -0.013807951 -1.2790351 2.6725957e-39
2.6044493 0.0090825688 -1.276178 3.1317535e-39
2.6048291 0.043023854 -1.2781463 5.7957298e-39
2.5414515 -0.19202201 -1.2219833 3.4969768e-39
2.5615077 -0.18343486 -1.2371482 2.4878583e-39
2.5414515 -0.15159634 -1.2219833 2.395629e-39
2.5615077 -0.16814862 -1.2371482 2.4889303e-39
2.5806222 -0.17461652 -1.251948 2.6718726e-39
2.5368147 -0.040425688 -1.241657 2.5818182e-39
2.5611176 -0.03736636 -1.2388014 2.6725817e-39
2.5841568 -0.030814679 -1.2369516 2.5807546e-39
2.5829785 -0.015407339 -1.2419504 4.7905854e-39
2.5835676 0.017975228 -1.2394509 6.2686008e-39
2.604995 0.0034519879 -1.2487957 4.6098305e-39
2.5829785 0.03595046 -1.2419504 3.5005809e-39
2.6053913 0.051779814 -1.2471159 6.889107e-39
2.5626764 0.061144952 -1.2321887 1.1418189e-38
2.5045087 -0.19897246 -1.1912837 3.9590087e-39
2.5243731 -0.18554312 -1.2029035 4.2348991e-39
2.5063345 -0.17907523 -1.183537 4.1452216e-39
2.5714431 -0.12993301 -1.1949922 3.7702972e-39
2.5484066 -0.090957798 -1.1924725 6.1817847e-39
2.5692222 -0.10394643 -1.2044153 9.8656106e-39
2.5720277 -0.061144952 -1.1925124 3.3121847e-39
2.5924039 -0.071900919 -1.2019597 2.8530283e-39
2.5720277 -0.030572476 -1.1925124 3.0391936e-39
2.5888693 -0.030814679 -1.2169563 2.6686398e-39
2.5720277 -0.020381652 -1.1925124 2.9466602e-39
2.5895762 -0.014380184 -1.213957 4.6969324e-39
2.568521 0.020381652 -1.207391 7.830844e-39
2.590384 0.0073368284 -1.2105292 5.3430109e-39
2.589711 0.038151506 -1.2133857 7.1869291e-39
2.4891846 -0.18755963 -1.1647608 3.4079831e-39
2.5086169 -0.19897246 -1.1738536 4.2352424e-39
2.5312753 -0.19055779 -1.1736177 3.2232219e-39
2.4891846 -0.16781652 -1.1647608 2.480664e-39
2.509758 -0.17161375 -1.1690121 2.3023866e-39
2.5530436 -0.15159634 -1.1727988 2.4874813e-39
2.5767031 -0.15286238 -1.1726743 3.5884171e-39
2.5753005 -0.13248071 -1.1786257 3.6802568e-39
2.5988836 -0.13353027 -1.1744663 5.1607763e-39
2.5502625 -0.10096513 -1.1715212 1.0599234e-38
2.577872 -0.091717429 -1.1677148 9.0409339e-39
2.5507252 -0.080851376 -1.1826357 2.2984097e-39
2.5743654 -0.071335778 -1.1825933 3.2207206e-39
2.5965273 -0.071900919 -1.1844639 3.4955012e-39
2.6246343 -0.074697986 -1.1855228 3.7738901e-39
2.6668978 -0.068434864 -1.1910288 3.4105138e-39
2.5743654 -0.045858715 -1.1825933 3.0377614e-39
2.5971165 -0.041086238 -1.1819645 3.1285235e-39
2.6327107 -0.036393579 -1.1813314 2.6732977e-39
2.5966451 -0.014380182 -1.1839639 2.4867597e-39
2.6327107 -0.020796331 -1.1813314 1.938262e-39
2.5755343 0.020381652 -1.1776339 2.7611787e-39
2.5966451 0.0041086236 -1.1839639 2.3027187e-39
2.5755343 0.030572476 -1.1776339 3.219294e-39
2.5813787 -0.1222899 -1.1528362 5.1435151e-39
2.553489 -0.10583486 -1.1403946 1.1058767e-38
2.5825477 -0.091717429 -1.1478766 1.0236239e-38
2.6255844 -0.082847707 -1.1614375 5.6113175e-39
2.669313 -0.068434864 -1.1807811 4.0555063e-39
2.6232088 -0.051779814 -1.1715174 3.9611709e-39
2.6693132 -0.042113762 -1.1807812 3.9607995e-39
2.6469836 -0.020880735 -1.1709037 3.3201301e-39
2.5560081 -0.12081468 -1.1144494 7.6392556e-39
2.5268745 -0.10943487 -1.0963871 1.1329281e-38
2.5498457 -0.097527131 -1.107903 1.1519391e-38
2.530298 -0.10446055 -1.0818622 1.1517981e-38
2.5314391 -0.089537613 -1.0770205 1.2161914e-38
