# .PCD v0.7 - Point Cloud Data file format
VERSION 0.7
FIELDS x y z rgb
SIZE 4 4 4 4
TYPE F F F F
COUNT 1 1 1 1
WIDTH 158
HEIGHT 1
VIEWPOINT 0 0 0 1 0 0 0
POINTS 158
DATA ascii
2.7980943 0.62037796 -1.4059467 6.4504571e-39
2.8254838 0.62023848 -1.4074327 7.3601969e-39
2.8254838 0.69917798 -1.4074327 4.324564e-39
2.7980943 0.74333578 -1.4059467 9.2119946e-39
2.7980943 0.76569176 -1.4059467 1.4290257e-38
2.7963846 0.79549974 -1.4131999 9.1270381e-39
2.7961712 0.81878716 -1.4141066 8.8353508e-39
2.910691 0.56768078 -1.4120758 7.1747855e-39
2.9401107 0.56120372 -1.413667 1.3548066e-38
2.910691 0.57926607 -1.4120758 2.4892582e-39
2.8564496 0.6258899 -1.3981042 9.3052706e-39
2.91202 0.61981463 -1.4064375 8.7510374e-39
2.8293643 0.63151556 -1.3909682 1.5304836e-38
2.8564496 0.64864951 -1.3981042 1.0970253e-38
2.8306577 0.68226242 -1.38548 6.7241629e-39
2.8590603 0.66002941 -1.3870277 4.6031954e-40
2.8822415 0.67173028 -1.4107281 4.9620203e-39
2.805146 0.70141834 -1.376027 6.4393224e-39
2.8280709 0.71045506 -1.3964565 7.3519306e-39
2.8538392 0.69416887 -1.4091804 1.0039219e-38
2.7771041 0.74228626 -1.3773092 6.8156341e-39
2.8035889 0.73455304 -1.3826326 9.3092769e-39
2.8280709 0.72173208 -1.3964565 7.2557609e-39
2.7758334 0.75336516 -1.3827008 7.6381584e-39
2.8037357 0.76680958 -1.3820109 8.7539031e-39
2.7783749 0.79768074 -1.3719174 5.8018535e-39
2.8023679 0.78991073 -1.3878136 9.399641e-39
2.8032227 0.82158178 -1.3841869 1.0316558e-38
2.8293643 0.84577984 -1.3909682 1.0485453e-38
2.8551445 0.86486602 -1.4036423 9.2109576e-39
2.8538392 0.88762569 -1.4091804 1.4371699e-38
2.8835585 0.87841648 -1.4051398 1.2339809e-38
2.9387698 0.90026426 -1.4193569 1.4737212e-38
2.8384187 0.55257612 -1.3525511 8.3840458e-39
2.8616707 0.56899083 -1.3759514 1.847853e-39
2.8875096 0.56264585 -1.3883753 7.3677723e-39
2.8634112 0.5841639 -1.3685671 3.3150952e-39
2.8875096 0.59709358 -1.3883753 2.0236221e-39
2.8358316 0.62023848 -1.3635274 1.1246749e-38
2.8629761 0.6088202 -1.3704133 1.050487e-38
2.8358316 0.64279264 -1.3635274 9.7713229e-39
2.7859993 0.68689179 -1.3395671 1.4395098e-38
2.810061 0.67813087 -1.3551738 1.0407029e-38
2.8341069 0.66910583 -1.370845 4.8717094e-39
2.7851522 0.7053566 -1.3431616 1.4368578e-38
2.8083513 0.6986239 -1.3624271 8.1853529e-39
2.7859993 0.73120737 -1.3395671 5.7146689e-39
2.8083515 0.73774678 -1.3624271 5.9873686e-39
2.7594862 0.77433574 -1.338721 4.5118405e-39
2.7851522 0.76075107 -1.3431616 4.7916714e-39
2.8083513 0.76010275 -1.3624271 4.3310478e-39
2.7594862 0.790811 -1.338721 3.4019477e-39
2.7828226 0.8004505 -1.3530463 5.799348e-39
2.8096335 0.82717061 -1.3569871 8.3779081e-39
2.8358316 0.84577984 -1.3635274 9.9390891e-39
2.8616707 0.86486602 -1.3759514 1.5009845e-38
2.8914609 0.87267518 -1.3716109 1.2338671e-38
2.944581 0.90416145 -1.3947004 1.3628339e-38
2.7936239 0.53178716 -1.3072166 1.2521695e-38
2.8160441 0.53654313 -1.3297875 1.2894069e-38
2.8177538 0.55144709 -1.3225342 6.3633061e-39
2.8410056 0.5638532 -1.3415748 3.4015343e-39
2.8432691 0.58499771 -1.3319705 5.8973015e-39
2.7923532 0.62041837 -1.3126084 3.5938569e-39
2.8156774 0.61159527 -1.3313417 5.3419669e-39
2.7923532 0.63149726 -1.3126084 4.0458317e-39
2.8160439 0.65204901 -1.3297875 7.9245096e-39
2.7906587 0.67765933 -1.3197973 1.0508123e-38
2.8168991 0.67813087 -1.3261608 1.5659678e-39
2.7910824 0.70351011 -1.3180002 4.6991241e-39
2.7670453 0.74138534 -1.3066493 3.7796929e-39
2.7902353 0.72751445 -1.3215946 4.9717411e-39
2.7363915 0.7695545 -1.301576 6.2718126e-39
2.7645257 0.7660982 -1.3173399 5.798269e-39
2.7885408 0.75336516 -1.3287836 5.7097013e-39
2.7405102 0.79482937 -1.3058963 6.733532e-39
2.7645257 0.80179453 -1.3173399 6.5534441e-39
2.7885408 0.81983852 -1.3287836 3.4177249e-39
2.798707 0.54286605 -1.2856498 7.0922532e-39
2.8237367 0.55442792 -1.2971479 6.4486873e-39
2.8245912 0.58498102 -1.2935212 4.6951668e-39
2.8487666 0.57513028 -1.3086457 5.7096985e-39
2.8237364 0.61478901 -1.2971478 3.96048e-39
2.7746041 0.65900922 -1.2745776 4.4189541e-39
2.798707 0.65365505 -1.2856498 3.7771832e-39
2.8233702 0.64512926 -1.298702 3.8707885e-39
2.7746041 0.67548442 -1.2745776 4.3264109e-39
2.7961655 0.6758129 -1.2964332 4.4221841e-39
2.7737641 0.70294309 -1.2781411 4.42217e-39
2.7961655 0.70904958 -1.2964332 3.9647638e-39
2.7717695 0.73452067 -1.2866044 4.4214484e-39
2.7961655 0.72012848 -1.2964332 4.3292499e-39
2.7392559 0.76494414 -1.2800813 4.606197e-39
2.7733443 0.77982754 -1.2799228 3.7814754e-39
2.7281606 0.7925055 -1.2765597 6.0784544e-39
2.7733443 0.7963028 -1.2799228 5.3405671e-39
2.798707 0.79768074 -1.2856498 4.6036985e-39
2.8263009 0.80481464 -1.2862679 5.6118122e-39
2.8263009 0.81599271 -1.2862679 1.0421338e-38
2.7554965 0.53351557 -1.24231 7.0043413e-39
2.8339937 0.53654313 -1.2536283 1.2252658e-38
2.8319423 0.55442792 -1.2623322 5.2508882e-39
2.8314292 0.58125502 -1.264508 3.8672082e-39
2.8063314 0.62041837 -1.2532995 4.4164275e-39
2.8314292 0.61339176 -1.264508 3.9590395e-39
2.7783835 0.65900922 -1.2585417 4.1452244e-39
2.8046372 0.64626914 -1.2604884 3.7789474e-39
2.8288651 0.63714492 -1.275388 3.96371e-39
2.7529988 0.68594861 -1.2529076 4.6036915e-39
2.7796433 0.67548442 -1.2531964 3.8700809e-39
2.8063314 0.66473395 -1.2532995 4.3299856e-39
2.7546639 0.70772475 -1.2458426 4.3296157e-39
2.7771237 0.70294309 -1.2638869 3.77933e-39
2.7529988 0.73494494 -1.2529076 4.2381459e-39
2.7804832 0.73589355 -1.2496328 3.5012871e-39
2.7513337 0.75490648 -1.2599728 4.2392179e-39
2.7783835 0.76884401 -1.2585417 2.4821606e-39
2.8063314 0.76444405 -1.2532995 1.1334341e-38
2.8339937 0.76569176 -1.2536283 1.9453602e-38
2.8037899 0.7866019 -1.2640829 1.2160523e-38
2.8319423 0.79587233 -1.2623322 2.0092871e-38
2.8288651 0.81599271 -1.275388 1.7239117e-38
2.8571742 0.82322568 -1.2729727 1.7876251e-38
2.813956 0.53178716 -1.2209491 1.1802469e-38
2.8365579 0.53654313 -1.2427484 1.2715434e-38
2.8378401 0.5533101 -1.2373084 3.7785859e-39
2.8378398 0.58125502 -1.2373084 4.1455734e-39
2.8378398 0.61478901 -1.2373084 3.9622695e-39
2.8105671 0.64072967 -1.235327 4.2366984e-39
2.8382676 0.65204895 -1.2354951 4.0526855e-39
2.7579944 0.68594861 -1.2317122 3.4105671e-39
2.7855225 0.67365384 -1.2282517 4.3281738e-39
2.8101437 0.66473395 -1.2371242 4.6033341e-39
2.8391221 0.67067891 -1.2318685 3.8672138e-39
2.7586188 0.70500278 -1.2290628 4.3281794e-39
2.7846825 0.70294309 -1.2318152 4.9717565e-39
2.7846825 0.72491008 -1.2318152 3.0428467e-39
2.8088729 0.74228626 -1.2425159 8.571639e-39
2.8365579 0.74892479 -1.2427484 1.0674889e-38
2.8365579 0.77128077 -1.2427484 1.8608762e-38
2.863426 0.77059937 -1.2464466 1.6405364e-38
2.8365579 0.78245872 -1.2427484 1.879676e-38
2.8629949 0.79503304 -1.248276 2.0643165e-38
2.8617013 0.8119486 -1.2537642 2.2212617e-38
2.8416862 0.53654313 -1.2209886 1.2449622e-38
2.8437378 0.55442792 -1.2122847 3.9579507e-39
2.8720491 0.55257612 -1.2098588 6.5477002e-39
2.8442504 0.58125502 -1.2101086 4.14523e-39
2.8164973 0.62041837 -1.2101656 4.2392081e-39
2.8429685 0.6092 -1.2155486 5.0679108e-39
2.8720491 0.60896146 -1.2098588 1.5656287e-39
2.8164973 0.63149726 -1.2101656 3.3208518e-39
2.8416862 0.64832294 -1.2209886 3.5956506e-39
2.7998002 0.56015778 -1.1676718 3.7785915e-39
2.8493791 0.58125502 -1.188349 7.007619e-39
2.8746362 0.59768438 -1.1988825 9.1284604e-39
2.7545691 0.5398165 -1.1372665 2.8591169e-39
2.7792251 0.54984772 -1.1416317 4.325643e-39
