# .PCD v0.7 - Point Cloud Data file format
VERSION 0.7
FIELDS x y z rgb
SIZE 4 4 4 4
TYPE F F F F
COUNT 1 1 1 1
WIDTH 108
HEIGHT 1
VIEWPOINT 0 0 0 1 0 0 0
POINTS 108
DATA ascii
3.2419107 -0.36981651 -1.392953 1.0961151e-38
3.2404482 -0.34431192 -1.3991593 1.1338628e-38
3.240448 -0.31243119 -1.3991592 1.0880881e-38
3.2092586 -0.27772477 -1.3789234 1.0221864e-38
3.2399602 -0.28905198 -1.4012278 1.1054132e-38
3.2092586 -0.26510093 -1.3789234 9.1331099e-39
3.2389853 -0.26779816 -1.4053653 1.2318267e-38
3.2760406 -0.2511743 -1.4007143 1.1325291e-38
3.275548 -0.22755963 -1.4028038 1.5581771e-38
3.2419107 -0.2040367 -1.392953 1.1243559e-38
3.2760406 -0.18677065 -1.4007143 1.1798168e-38
3.3101385 -0.16482936 -1.4129696 1.1705979e-38
3.3111334 -0.14314128 -1.4087477 1.1983308e-38
3.3111334 -0.11711559 -1.4087477 1.2803708e-38
3.2484927 -0.37300459 -1.3650256 1.1515792e-38
3.2804728 -0.38642204 -1.3819084 1.2441319e-38
3.2150502 -0.34715596 -1.354349 1.0319811e-38
3.2465913 -0.33921102 -1.3730935 1.0415965e-38
3.2477617 -0.31243119 -1.3681288 1.0507802e-38
3.2136023 -0.27772477 -1.3604926 8.8490106e-39
3.2462988 -0.29330274 -1.3743348 1.022763e-38
3.2462988 -0.26779816 -1.3743348 6.9204232e-39
3.2814577 -0.25332108 -1.3777293 1.0682067e-38
3.3185964 -0.24724403 -1.3770831 1.1247853e-38
3.2462988 -0.21678898 -1.3743348 1.3456938e-38
3.2824426 -0.22755963 -1.3735503 1.0875114e-38
3.2477617 -0.19766055 -1.3681288 1.1244635e-38
3.2819502 -0.18033028 -1.3756398 1.1799956e-38
3.2804728 -0.16744953 -1.3819084 9.9621741e-39
3.3161089 -0.16049173 -1.387638 1.0509943e-38
3.2834275 -0.12880734 -1.3693712 1.2526752e-38
3.3151138 -0.13880366 -1.39186 1.1430485e-38
3.2506869 -0.10839449 -1.3557165 1.2075478e-38
3.2804728 -0.10948624 -1.3819084 1.1707063e-38
3.253612 -0.36981651 -1.3433043 1.114487e-38
3.220118 -0.35031193 -1.3328464 9.7659026e-39
3.2550747 -0.33793578 -1.3370981 1.0505242e-38
3.2550747 -0.31243119 -1.3370981 1.1245698e-38
3.220118 -0.2840367 -1.3328464 9.7687963e-39
3.253612 -0.29330274 -1.3433043 1.0505284e-38
3.2863824 -0.27049541 -1.3568339 6.8264423e-39
3.1861408 -0.26248074 -1.3287972 8.0199688e-39
3.2893372 -0.2511743 -1.3442967 1.0320856e-38
3.2565374 -0.21678898 -1.330892 1.31771e-38
3.2885985 -0.22863302 -1.3474311 9.5797275e-39
3.2565374 -0.2040367 -1.330892 1.2904111e-38
3.2883523 -0.18891744 -1.3484758 1.115207e-38
3.2893372 -0.16100916 -1.3442967 1.1058434e-38
3.2863824 -0.13524771 -1.3568339 1.1334326e-38
3.3245666 -0.13663486 -1.3517516 1.170559e-38
3.253612 -0.11477064 -1.3433043 1.2623257e-38
3.2893372 -0.1159266 -1.3442967 1.2258803e-38
3.2653136 -0.36981651 -1.2936554 6.3615055e-39
3.2628064 -0.34066841 -1.3042945 4.1459223e-39
3.2609255 -0.31243119 -1.3122737 3.5009452e-39
3.226634 -0.29034865 -1.3052002 1.2861187e-39
3.2638509 -0.24866971 -1.2998614 9.8627632e-39
3.2623882 -0.21997705 -1.3060676 3.1306857e-39
3.2618032 -0.19638532 -1.30855 4.1451866e-39
3.2633631 -0.17428131 -1.3019301 2.1147528e-39
3.2972169 -0.15886237 -1.3108641 2.3913326e-39
3.2967243 -0.14168808 -1.3129537 1.7491988e-39
3.3652887 -0.13148624 -1.34026 2.3005958e-39
3.268239 -0.36981651 -1.2812431 7.4724731e-39
3.2697017 -0.35068804 -1.2750371 3.9568395e-39
3.2338738 -0.31559634 -1.2744821 2.3041579e-39
3.2033446 -0.29997799 -1.2558026 2.398852e-39
3.2353218 -0.2840367 -1.2683386 2.946642e-39
3.2682388 -0.25504586 -1.2812431 8.7614435e-39
3.2338738 -0.22722936 -1.2744821 1.7452346e-39
3.2697017 -0.21678898 -1.2750371 2.6704265e-39
3.2343562 -0.19777371 -1.2724342 3.1292508e-39
3.269702 -0.16577981 -1.2750372 2.1176324e-39
3.2697017 -0.14027523 -1.2750371 1.6573984e-39
3.3041115 -0.12880734 -1.2816105 1.8412922e-40
3.3350146 -0.13012843 -1.3074211 3.4983668e-39
3.3041115 -0.1159266 -1.2816105 9.2302129e-41
3.2090793 -0.37497246 -1.2314712 1.1800308e-38
3.2396655 -0.36609176 -1.2499077 7.2823435e-39
3.2425616 -0.34715596 -1.2376206 4.0508372e-39
3.2415276 -0.31920314 -1.2420089 4.6101332e-39
3.2076454 -0.29997799 -1.237554 3.1314284e-39
3.2411139 -0.28403673 -1.2437643 3.0341713e-39
3.2396655 -0.258789 -1.2499077 8.8489588e-39
3.2405343 -0.23480368 -1.2462217 4.6176904e-39
3.2760398 -0.22103973 -1.2481438 2.4849562e-39
3.2401481 -0.19356577 -1.2478598 2.7619116e-39
3.2750647 -0.19978593 -1.2522812 2.8566296e-39
3.2440095 -0.17673394 -1.231477 1.8453391e-39
3.27526 -0.16322935 -1.2514539 6.5447687e-39
3.2760398 -0.13602446 -1.2481438 8.1045918e-39
3.3070664 -0.12880734 -1.2690734 1.4839507e-38
3.2770152 -0.10839449 -1.2440065 6.7062291e-39
3.3070664 -0.1159266 -1.2690734 1.4106624e-38
3.2119465 -0.36872292 -1.2193054 1.05074e-38
3.2469053 -0.34084404 -1.2191898 3.2221485e-39
3.2476294 -0.31875229 -1.216118 2.3942053e-39
3.2843287 -0.31880733 -1.212976 3.0392146e-39
3.2469053 -0.29034865 -1.2191898 2.5803916e-39
3.2821345 -0.21997705 -1.2222852 2.1194121e-39
3.2469053 -0.1893578 -1.2191898 2.6718614e-39
3.282866 -0.20084862 -1.219182 2.5814678e-39
3.2469053 -0.17673394 -1.2191898 3.0391908e-39
3.2816958 -0.16322935 -1.224147 3.4058265e-39
3.2822809 -0.13262385 -1.2216645 2.3963465e-39
3.2799406 -0.10839449 -1.2315943 2.5746351e-39
3.2526972 -0.15779817 -1.1946154 2.3045516e-39
3.2526972 -0.13886239 -1.1946154 1.476942e-39
