# .PCD v0.7 - Point Cloud Data file format
VERSION 0.7
FIELDS x y z rgb
SIZE 4 4 4 4
TYPE F F F F
COUNT 1 1 1 1
WIDTH 166
HEIGHT 1
VIEWPOINT 0 0 0 1 0 0 0
POINTS 166
DATA ascii
3.2034667 -0.075743124 -1.4034978 6.0683889e-39
3.2005706 0.025247708 -1.415785 1.2814521e-38
3.2034667 0.037871562 -1.4034978 1.354491e-38
3.2760406 -0.30913761 -1.4007143 6.4544648e-39
3.3096409 -0.32532111 -1.4150805 1.2073246e-38
3.2765329 -0.29196331 -1.3986248 1.5662495e-39
3.3096409 -0.27977616 -1.4150805 1.8417448e-39
3.2775178 -0.2511743 -1.3944457 9.3005272e-39
3.2389853 -0.22954127 -1.4053653 1.2733431e-38
3.2745631 -0.2318532 -1.4069829 1.3276176e-38
3.2745631 -0.19965139 -1.4069829 4.9753102e-39
3.2407405 -0.16322936 -1.397918 5.4348604e-39
3.2078104 -0.12623852 -1.385067 7.4757746e-39
3.240448 -0.14027523 -1.3991592 6.5347214e-39
3.208293 -0.10519878 -1.3830191 9.206608e-39
3.2389853 -0.11477064 -1.4053653 8.930349e-39
3.2078106 -0.075743116 -1.3850671 1.1434409e-38
3.240448 -0.044633027 -1.3991592 9.4896661e-39
3.240448 -0.025504587 -1.3991592 8.8446498e-39
3.2760406 -0.012880734 -1.4007143 8.7485165e-39
3.2063625 0.025247708 -1.3912107 1.8719634e-38
3.3091435 0.0043376149 -1.4171916 1.0785082e-38
3.3471909 0.013148624 -1.4170479 7.6486415e-39
3.4228096 0.026855046 -1.4275011 8.4747771e-39
3.3141186 -0.33833393 -1.3960818 1.2989469e-38
3.2492242 -0.31243119 -1.3619225 9.7677005e-39
3.2497115 -0.28905198 -1.3598537 3.1346276e-39
3.2804728 -0.27693579 -1.3819084 2.4863911e-39
3.2499554 -0.25185779 -1.3588195 4.5118097e-39
3.2804728 -0.25761467 -1.3819084 2.2044261e-39
3.2136023 -0.21460551 -1.3604926 5.2583865e-39
3.2477612 -0.22954126 -1.3681287 8.4773036e-39
3.2150502 -0.19566974 -1.354349 1.8381981e-39
3.2448361 -0.19766055 -1.3805408 4.0450918e-39
3.2143264 -0.16095413 -1.3574208 6.7123135e-39
3.2448361 -0.17215595 -1.3805408 4.3267304e-39
3.2136023 -0.13255045 -1.3604926 8.3944785e-39
3.1832736 -0.11249173 -1.340963 4.5003415e-39
3.2131195 -0.10519878 -1.3625405 5.8990742e-39
3.1832736 -0.06874495 -1.340963 7.2769499e-39
3.2128785 -0.078899086 -1.3635645 7.5542977e-39
3.1832736 -0.049996328 -1.340963 1.0139339e-38
3.2121544 -0.050495416 -1.3666363 9.314969e-39
3.2477612 -0.03825688 -1.3681287 7.9198292e-39
3.2462988 -0.025504587 -1.3743348 7.4631685e-39
3.2819502 -0.019321101 -1.3756398 7.9259277e-39
3.3185964 -0.013012844 -1.3770831 8.3879876e-39
3.3171036 0 -1.3834159 7.8319328e-39
3.3517153 0 -1.397851 8.2932697e-39
3.3903108 0.013288073 -1.3997424 8.2932669e-39
3.4624052 0.027141284 -1.4295077 8.4747588e-39
3.22229 -0.30928442 -1.3236309 9.6765797e-39
3.223738 -0.2840367 -1.3174874 2.6722313e-39
3.253612 -0.2869266 -1.3433043 3.0402796e-39
3.223738 -0.258789 -1.3174874 3.2225381e-39
3.2536118 -0.25504586 -1.3433042 4.2391983e-39
3.2218077 -0.22302143 -1.3256789 4.7923441e-39
3.1861408 -0.18748623 -1.3287972 1.1058141e-38
3.2214212 -0.19693212 -1.3273171 7.9263102e-39
3.2208424 -0.16411011 -1.3297746 8.1146616e-39
3.1880524 -0.12915719 -1.3206867 3.0385392e-39
3.2218072 -0.13465442 -1.3256788 4.4199966e-39
3.1875744 -0.10624219 -1.3227143 4.332138e-39
3.2215662 -0.10730276 -1.3267027 3.8707955e-39
3.1875744 -0.06874495 -1.3227143 5.1579582e-39
3.2208419 -0.088366963 -1.3297745 5.5260079e-39
3.2193942 -0.050495416 -1.3359182 5.8018142e-39
3.2550747 -0.044633027 -1.3370981 5.6163496e-39
3.2893372 -0.038642202 -1.3442967 4.9702669e-39
3.253612 -0.025504587 -1.3433043 9.1229813e-39
3.2893372 -0.025761468 -1.3442967 7.079954e-39
3.3245666 -0.013012844 -1.3517514 6.8145228e-39
3.3245666 0 -1.3517514 9.1215744e-39
3.226634 -0.3029725 -1.3052002 8.4837356e-39
3.2638509 -0.30605504 -1.2998614 6.6319547e-39
3.2280819 -0.2840367 -1.2990565 3.8689907e-39
3.2280819 -0.258789 -1.2990565 3.7753307e-39
3.1976099 -0.21248439 -1.2801341 2.8569673e-39
3.2277923 -0.22975412 -1.3002853 2.6718698e-39
3.1961763 -0.19373578 -1.2862171 2.9499168e-39
3.2280819 -0.17042202 -1.2990565 3.3172658e-39
3.1961763 -0.13748991 -1.2862171 3.7771468e-39
3.1976099 -0.10624219 -1.2801341 3.5034395e-39
3.226634 -0.10730276 -1.3052002 4.1452048e-39
3.1951523 -0.071423329 -1.290562 4.609434e-39
3.226634 -0.08836697 -1.3052002 3.9640674e-39
3.2280819 -0.050495416 -1.2990565 2.7615571e-39
3.262388 -0.03825688 -1.3060675 2.580749e-39
3.2594628 -0.025504587 -1.3184798 1.842828e-39
3.296232 -0.021467889 -1.3150432 2.6725775e-39
3.4055521 -0.013288073 -1.3350738 2.9430617e-39
3.2338738 -0.2840367 -1.2744821 2.5832909e-39
3.2338738 -0.258789 -1.2744821 2.9466546e-39
3.2338741 -0.22722936 -1.2744823 2.5800343e-39
3.2004774 -0.19373578 -1.2679684 3.2243331e-39
3.2353218 -0.19566974 -1.2683386 2.2144888e-39
3.201911 -0.16873762 -1.2618855 3.4094474e-39
3.201911 -0.13748991 -1.2618855 3.2272156e-39
3.201911 -0.10624219 -1.2618855 3.8693634e-39
3.201911 -0.087493576 -1.2618855 3.7746903e-39
3.2338738 -0.069431193 -1.2744821 4.7052534e-39
3.2711644 -0.070137613 -1.2688309 1.5397036e-38
3.2324259 -0.050495416 -1.2806257 2.8558995e-39
3.268239 -0.051009174 -1.2812431 1.2900984e-39
3.302634 -0.045082569 -1.2878791 5.5421943e-39
3.3394923 -0.039038531 -1.2884223 8.4938754e-39
3.3011568 -0.025761468 -1.2941477 2.8526625e-39
3.3379998 -0.026025688 -1.2947552 4.4192469e-39
3.3758459 -0.026297247 -1.2954671 3.6795323e-39
3.4086006 -0.013288073 -1.3221401 3.9514515e-39
3.4474518 -0.013427523 -1.3229456 1.9350194e-39
3.2090793 -0.31247705 -1.2314712 1.3553792e-38
3.2418375 -0.30612844 -1.2406924 5.4337954e-39
3.2411139 -0.2840367 -1.2437642 2.0279423e-39
3.2411139 -0.258789 -1.2437642 2.7637095e-39
3.2411139 -0.22722936 -1.2437643 3.2218206e-39
3.2090793 -0.18748623 -1.2314712 3.3164979e-39
3.2411137 -0.19693212 -1.2437642 3.4076356e-39
3.2076454 -0.16873762 -1.237554 3.0421069e-39
3.2440093 -0.16411009 -1.2314769 3.5005613e-39
3.2069287 -0.14061467 -1.2405955 2.8584303e-39
3.2425616 -0.13255045 -1.2376206 4.6994716e-39
3.2391827 -0.10940673 -1.2519555 7.6512045e-39
3.2760398 -0.10626911 -1.2481438 1.5115736e-38
3.3129761 -0.10304587 -1.2439989 1.1698363e-38
3.2382176 -0.08836697 -1.2560514 1.4013384e-38
3.2740896 -0.07651376 -1.2564186 1.5671476e-38
3.3070664 -0.051522937 -1.2690734 1.5762601e-38
3.4146972 -0.026576146 -1.2962728 2.9516951e-39
3.2483535 -0.30928442 -1.2130462 7.2816499e-39
3.2483535 -0.2840367 -1.2130462 3.1324962e-39
3.2483535 -0.258789 -1.2130462 4.5103734e-39
3.2483537 -0.22722936 -1.2130462 3.496611e-39
3.2469053 -0.19566974 -1.2191898 3.6820799e-39
3.2838409 -0.19978593 -1.2150445 2.8541129e-39
3.3188858 -0.18677065 -1.2189244 2.5768001e-39
3.3909273 -0.18408072 -1.2314773 3.3161588e-39
3.2469053 -0.17673394 -1.2191898 3.3136589e-39
3.2814033 -0.16259174 -1.2253882 2.5789623e-39
3.3159308 -0.16744953 -1.2314616 2.8551961e-39
3.3529255 -0.16266054 -1.2314262 3.4040496e-39
3.3909273 -0.16435778 -1.2314773 3.221445e-39
3.2814033 -0.13389908 -1.2253882 2.3020041e-39
3.3529255 -0.14314128 -1.2314262 2.3949074e-39
3.4268901 -0.13952477 -1.2445378 2.7615487e-39
3.2799406 -0.11477064 -1.2315943 3.6738038e-39
3.3159308 -0.1159266 -1.2314616 2.0250823e-39
3.3499403 -0.10410275 -1.244092 1.2864214e-39
3.3864028 -0.10518898 -1.2506742 2.2141497e-39
3.4258742 -0.10187522 -1.2488492 3.0384859e-39
3.4597728 -0.093992658 -1.2706679 2.5796517e-39
3.2205484 -0.27497983 -1.1828082 1.8417742e-39
3.2205484 -0.24998163 -1.1828082 2.760174e-39
3.2541451 -0.258789 -1.1884718 6.0841689e-39
3.2205484 -0.23748255 -1.1828082 3.1307446e-39
3.2548692 -0.21776147 -1.1854 4.7898525e-39
3.2901795 -0.2040367 -1.1881515 3.0428047e-39
3.3574033 -0.19519266 -1.2124275 2.6729292e-39
3.3954518 -0.18408072 -1.2122803 3.319407e-39
3.4314628 -0.16610092 -1.2251374 2.2105399e-39
3.4299386 -0.14616881 -1.2316042 2.4860478e-39
3.2628329 -0.21460551 -1.1516101 4.0501197e-39
3.2633154 -0.19777371 -1.1495622 3.8693382e-39
3.2945676 -0.1912844 -1.1695333 4.6944115e-39
3.364866 -0.18217981 -1.1807629 1.7524148e-39
3.2671769 -0.20198166 -1.1331793 4.5150705e-39
