# .PCD v0.7 - Point Cloud Data file format
VERSION 0.7
FIELDS x y z rgb
SIZE 4 4 4 4
TYPE F F F F
COUNT 1 1 1 1
WIDTH 173
HEIGHT 1
VIEWPOINT 0 0 0 1 0 0 0
POINTS 173
DATA ascii
3.057122 0.048102751 -1.3412544 5.2397142e-39
3.0843091 0.048572477 -1.3661987 5.6074093e-39
3.1181738 0.067433029 -1.3614684 9.1219625e-39
3.1503038 0.074267887 -1.3644451 7.7361751e-39
3.1815827 0.087493576 -1.375762 7.1890997e-39
3.1815827 0.10624219 -1.375762 7.1887284e-39
3.1493981 0.14853577 -1.3684705 8.3736341e-39
3.1818569 0.1349901 -1.3745425 8.6591767e-39
3.1466806 0.17329173 -1.3805465 1.0112703e-38
3.1811254 0.16665442 -1.3777943 9.2959534e-39
3.2165756 0.172526 -1.3751268 1.1522678e-38
3.1802106 0.18748623 -1.3818591 9.9344788e-39
3.2161138 0.19566974 -1.3771795 1.0504199e-38
3.18204 0.2208171 -1.3737296 1.1331415e-38
3.2147279 0.2398532 -1.3833374 1.1607273e-38
3.2147284 0.258789 -1.3833375 1.0498779e-38
3.2147284 0.2840367 -1.3833375 9.8544731e-39
3.0597622 0.048102751 -1.329522 9.8566297e-39
3.1575506 0.086645864 -1.3322425 9.8670778e-39
3.1867962 0.072494671 -1.3525931 7.0047225e-39
3.2230425 0.063119262 -1.3463899 3.9493383e-39
3.1561918 0.099023849 -1.3382806 8.3880199e-39
3.1870708 0.11249173 -1.3513737 8.8453911e-39
3.1870708 0.13748991 -1.3513737 9.0287159e-39
3.2216568 0.17042202 -1.3525479 9.9618294e-39
3.2216568 0.19566974 -1.3525479 1.07844e-38
3.187345 0.22248366 -1.3501542 1.0598188e-38
3.2230425 0.21460551 -1.3463899 1.1061711e-38
3.2216568 0.258789 -1.3525478 1.0504904e-38
3.2216568 0.2840367 -1.3525479 1.078041e-38
3.2230425 0.3029725 -1.3463899 9.4018061e-39
3.2539685 0.31455657 -1.3683827 9.8598835e-39
3.1934738 0.079160854 -1.3229207 8.6609942e-39
3.1616268 0.099023849 -1.3141285 9.9503331e-39
3.1939311 0.10832537 -1.3208883 1.0319444e-38
3.2285855 0.11361468 -1.3217582 1.1332815e-38
3.1928332 0.14248955 -1.325766 1.0784027e-38
3.2271998 0.13255045 -1.3279161 1.1612696e-38
3.1953032 0.16873762 -1.3147912 1.1338629e-38
3.1966751 0.18748623 -1.3086942 1.2901992e-38
3.2267377 0.19777371 -1.3299687 1.1522682e-38
3.1939311 0.231233 -1.3208883 1.1607329e-38
3.2265069 0.2240734 -1.3309951 1.179747e-38
3.2271998 0.258789 -1.3279161 1.2350659e-38
3.2271998 0.2840367 -1.3279161 1.1426539e-38
3.2271998 0.3029725 -1.3279161 1.0230164e-38
3.2614343 0.31880733 -1.3352062 1.188747e-38
3.1383617 0.067433029 -1.2717577 4.6948235e-39
3.1666088 0.074267887 -1.2919892 4.967781e-39
3.1697793 0.099023849 -1.2779006 1.2875228e-39
3.2007914 0.11249173 -1.290403 1.1971027e-39
3.2007914 0.13748991 -1.290403 3.1325046e-39
3.2007914 0.16873762 -1.290403 2.4824703e-39
3.2012486 0.1916526 -1.2883706 3.4054804e-39
3.2341285 0.19566974 -1.2971264 5.0653492e-39
3.2014773 0.2218587 -1.2873545 3.4080069e-39
3.2313571 0.23354128 -1.3094423 9.9509805e-39
3.2012486 0.25831437 -1.2883706 5.5284826e-39
3.2313571 0.25247705 -1.3094423 1.4663008e-38
3.2007914 0.28122938 -1.290403 8.6638613e-39
3.2369001 0.29034865 -1.2848105 4.4160226e-39
3.2346828 0.30802202 -1.2946632 7.2773381e-39
3.1136346 0.066787153 -1.2358832 4.612671e-39
3.1437454 0.085823856 -1.247835 2.6654392e-39
3.1752143 0.099023849 -1.2537485 3.0345637e-39
3.2083375 0.10936696 -1.2568691 3.4018874e-39
3.2076516 0.1374899 -1.2599176 3.59025e-39
3.2076514 0.16873764 -1.2599176 2.6693531e-39
3.2076514 0.19998531 -1.2599176 3.9593716e-39
3.2410572 0.1893578 -1.2663367 3.0377825e-39
3.2062795 0.22498347 -1.2660147 3.3136589e-39
3.2424426 0.22722936 -1.2601787 3.9582842e-39
3.2782326 0.21678898 -1.2605592 9.2313339e-41
3.2049074 0.25623119 -1.2721118 2.6697076e-39
3.2410572 0.258789 -1.2663367 3.035609e-39
3.2782326 0.26142201 -1.2605592 3.5905919e-39
3.2049074 0.27497983 -1.2721118 3.5884143e-39
3.2410572 0.2840367 -1.2663367 2.8569701e-39
3.2782326 0.2869266 -1.2605592 3.1371794e-39
3.2410572 0.3029725 -1.2663367 4.0497792e-39
3.3887773 0 -1.2612528 5.8071952e-39
3.1491287 0.067433029 -1.223912 4.6080018e-39
3.182008 0.074267887 -1.2235585 5.3416026e-39
3.2149692 0.079160847 -1.2273999 9.4972751e-39
3.182008 0.099023849 -1.2235585 5.5156509e-40
3.2149692 0.10832537 -1.2273999 1.4660959e-38
3.214237 0.1349901 -1.2306516 9.4044363e-39
3.2145116 0.16873762 -1.2294322 4.063184e-39
3.2470617 0.16411009 -1.2396523 1.2727003e-38
3.2838318 0.17853209 -1.2356769 1.2857548e-38
3.2158837 0.19998531 -1.2233351 1.9560599e-38
3.2461381 0.19356577 -1.2437576 3.9566012e-39
3.3169065 0.19965139 -1.2481225 1.7436133e-38
3.2468772 0.22975412 -1.2404734 8.9430097e-39
3.2838318 0.22316512 -1.2356769 1.5477068e-38
3.2819653 0.25504586 -1.2439709 5.2454399e-39
3.3537829 0.26025686 -1.2482284 3.7774901e-39
3.3537829 0.27326974 -1.2482284 2.9495147e-39
3.2894313 0.025504587 -1.2107944 4.9731606e-39
3.323976 0.012880734 -1.2167063 2.9484777e-39
3.3566399 0 -1.235533 5.5320825e-39
3.2563004 0.050495416 -1.1985995 4.5039246e-39
3.2880313 0.044633027 -1.217015 3.8671676e-39
3.1892548 0.070141889 -1.1913559 1.7423196e-38
3.2195425 0.079160847 -1.2070763 1.7047212e-38
3.2894313 0.063761465 -1.2107944 8.296871e-39
3.187443 0.099023849 -1.1994066 2.0370247e-38
3.2199998 0.10624219 -1.2050439 2.0928059e-38
3.2553763 0.10940673 -1.2027047 1.5296197e-38
3.2195425 0.13332355 -1.2070763 1.9729907e-38
3.2549145 0.13255045 -1.2047575 1.8248251e-38
3.2894313 0.12752293 -1.2107944 1.4932748e-38
3.252836 0.15464221 -1.2139943 1.936684e-38
3.2880313 0.17215596 -1.217015 1.4265588e-38
3.3253901 0.16744953 -1.2104231 9.2848579e-39
3.3216195 0.19321102 -1.2271785 1.7600795e-38
3.3580682 0.20169908 -1.2291853 1.7775129e-38
3.2866316 0.22954127 -1.2232356 1.0152318e-38
3.3216195 0.22326605 -1.2271783 1.3375207e-38
3.3594966 0.22772476 -1.2228377 5.9945138e-39
3.2866316 0.24229357 -1.2232356 2.1125864e-39
3.323976 0.2511743 -1.2167063 2.8562709e-39
3.3580682 0.25375044 -1.2291853 3.6799275e-39
3.3580682 0.27326974 -1.2291853 3.2246764e-39
3.2922308 0.025504587 -1.1983533 4.2370319e-39
3.3296318 0.019321101 -1.1915734 3.6842225e-39
3.3637819 0 -1.2037946 6.3561049e-39
3.293164 0.04675841 -1.1942061 3.6838651e-39
3.3301032 0.042935777 -1.1894789 3.0374391e-39
3.192878 0.074267887 -1.1752546 1.3443299e-38
3.2274086 0.082493946 -1.1721197 6.9099975e-39
3.2590718 0.063119262 -1.1862836 2.5732142e-39
3.2950306 0.063761465 -1.1859121 2.6693839e-39
3.3652103 0.065064214 -1.1974469 2.0207733e-39
3.2296042 0.099992655 -1.1623645 1.2712909e-38
3.2599955 0.10940673 -1.1821783 2.8613436e-39
3.2944708 0.13262385 -1.1884004 3.3143735e-39
3.3310459 0.14168808 -1.1852901 8.2951138e-39
3.2922308 0.15302752 -1.1983533 9.2226458e-41
3.328218 0.16100916 -1.1978565 1.3185794e-38
3.3652103 0.16266054 -1.1974469 1.6961493e-38
3.3634963 0.19519266 -1.2050642 1.631829e-38
3.4022484 0.19284648 -1.2013896 1.5588666e-38
3.3296318 0.22541283 -1.1915734 9.6708245e-39
3.3296318 0.2511743 -1.1915733 5.8090506e-39
3.3006301 0.01912844 -1.1610298 3.5016179e-39
3.3020298 0.044633027 -1.1548092 4.9768054e-39
3.2350924 0.087493576 -1.1379762 1.7140076e-38
3.2666934 0.078899086 -1.152415 1.2990906e-38
3.3034296 0.063761465 -1.1485887 7.7329619e-39
3.3338737 0.064403668 -1.1727237 7.2740983e-39
3.2337203 0.099992655 -1.1440732 1.5755729e-38
3.267386 0.11361468 -1.149336 1.3825019e-38
3.2701578 0.12623852 -1.1370201 1.1707727e-38
3.3006301 0.12752293 -1.1610298 1.0782913e-38
3.3680673 0.14314128 -1.1847516 8.2053872e-39
3.3680673 0.16266054 -1.1847516 1.4835212e-38
3.3694956 0.20820551 -1.178404 7.2553994e-39
3.3352876 0.22541285 -1.1664404 1.4191987e-38
3.3338737 0.25761467 -1.1727237 5.7233317e-39
3.3709242 0.25049725 -1.1720562 1.1890714e-38
3.3062294 0.044633027 -1.1361475 8.4902614e-39
3.3423574 0.038642202 -1.1350242 3.9655233e-39
3.2396657 0.083327211 -1.1176527 1.5941177e-38
3.2757008 0.075743124 -1.1123884 1.1613358e-38
3.3062294 0.063761465 -1.1361475 5.8786418e-39
3.2405806 0.099992655 -1.113588 1.5109624e-38
3.2729292 0.11361468 -1.1247042 1.3631263e-38
3.2405806 0.12499081 -1.113588 1.2716858e-38
3.340472 0.22755963 -1.1434019 1.4558977e-38
3.3395295 0.25761467 -1.1475906 1.1149218e-38
3.3766379 0.24724403 -1.1466656 1.317101e-38
3.2119005 0.086645864 -1.0907227 1.6768761e-38
