# .PCD v0.7 - Point Cloud Data file format
VERSION 0.7
FIELDS x y z rgb
SIZE 4 4 4 4
TYPE F F F F
COUNT 1 1 1 1
WIDTH 108
HEIGHT 1
VIEWPOINT 0 0 0 1 0 0 0
POINTS 108
DATA ascii
3.0118754 -0.30971009 -1.3707241 8.289297e-39
3.0433981 -0.32469356 -1.3721098 7.1955807e-39
3.0703316 -0.32786423 -1.3973278 1.1609412e-38
3.0132418 -0.29779816 -1.3649271 7.8275986e-39
3.0420189 -0.28260368 -1.3779622 9.4835242e-39
3.0420189 -0.25253946 -1.3779622 1.0772799e-38
3.0703316 -0.26714864 -1.3973278 1.068384e-38
3.0127864 -0.23029725 -1.3668593 1.0862854e-38
3.0420189 -0.22247522 -1.3779622 1.0310404e-38
3.0703316 -0.21857615 -1.3973278 1.1412437e-38
3.0734656 -0.1958078 -1.3840311 1.0305743e-38
3.0717244 -0.16393211 -1.3914182 1.0584826e-38
3.0420191 -0.13228257 -1.3779622 1.0223586e-38
3.0731173 -0.10321651 -1.3855084 9.6718545e-39
3.0738137 -0.08196605 -1.3825537 9.3009364e-39
3.1037738 -0.065389603 -1.3949294 1.132852e-38
2.9921615 -0.30684772 -1.3235943 3.5852487e-39
3.0182517 -0.31765136 -1.3436707 8.1218572e-39
2.9921615 -0.29504588 -1.3235943 3.7768119e-39
3.0184336 -0.28350386 -1.3428978 4.3238395e-39
2.9921615 -0.24783854 -1.3235943 9.932262e-39
3.0182517 -0.25809178 -1.3436708 7.4523491e-39
2.9921615 -0.23013577 -1.3235943 1.1851487e-38
3.0182517 -0.2263266 -1.3436708 1.0849197e-38
3.0461569 -0.21646237 -1.3604047 1.0211377e-38
3.0502954 -0.19241101 -1.3428473 1.2405049e-38
3.0489159 -0.16234678 -1.3486998 1.0661599e-38
3.0461566 -0.13228257 -1.3604047 7.0832092e-39
3.0800815 -0.13357431 -1.3559602 5.2469001e-39
3.0800815 -0.10321651 -1.3559602 5.5281519e-39
3.0800815 -0.078930274 -1.3559602 6.8091573e-39
3.111274 -0.061302751 -1.3631065 9.852629e-39
3.0249918 -0.31447485 -1.3150716 1.152554e-38
2.9975762 -0.27734312 -1.3006202 1.2535018e-38
3.0244453 -0.29065102 -1.3173904 9.4925626e-39
2.9962225 -0.25373948 -1.3063637 1.0965889e-38
2.9962225 -0.23013578 -1.3063637 1.1405293e-38
3.0255384 -0.21441467 -1.3127528 1.0951875e-38
3.0555365 -0.19481614 -1.3206079 1.5024639e-38
3.0282712 -0.1786789 -1.3011585 1.3724222e-38
3.0558124 -0.16835962 -1.3194374 1.3079933e-38
3.0856526 -0.15786055 -1.3323218 1.2536102e-38
3.0571918 -0.12025687 -1.3135848 1.3183262e-38
3.0861168 -0.13559817 -1.3303518 1.0601811e-38
3.0864882 -0.1020022 -1.3287759 1.0880187e-38
3.0870454 -0.078930274 -1.3264121 1.1059182e-38
3.116899 -0.061302751 -1.3392394 9.9397968e-39
3.0328255 -0.31368074 -1.2818348 1.1612688e-38
3.0654676 -0.31266788 -1.2784699 1.068428e-38
3.0029907 -0.27734312 -1.2776459 1.0693994e-38
3.0323701 -0.29779816 -1.2837672 1.1050174e-38
3.0654678 -0.28861651 -1.2784699 1.106169e-38
3.0024493 -0.25491965 -1.2799433 1.1153885e-38
3.0016372 -0.22718532 -1.2833896 9.6643645e-39
3.0328255 -0.22235596 -1.2818348 8.8504175e-39
3.0310037 -0.19654679 -1.2895644 1.5762535e-38
3.0640888 -0.19241101 -1.2843225 1.1792417e-38
3.0310037 -0.1786789 -1.2895644 1.3977445e-38
3.0627091 -0.16354935 -1.2901748 1.2164456e-38
3.0926168 -0.15786055 -1.3027735 1.1527001e-38
3.0337362 -0.1310312 -1.2779701 1.2632253e-38
3.0620193 -0.13829541 -1.2931012 1.1794595e-38
3.0337362 -0.11911926 -1.2779701 1.1889296e-38
3.0633988 -0.10522477 -1.2872486 1.2805866e-38
3.0926168 -0.097144954 -1.3027735 1.2268895e-38
3.0632608 -0.069748983 -1.2878339 1.1331061e-38
3.0926168 -0.085001834 -1.3027735 1.2530714e-38
3.0682266 -0.3186807 -1.2667649 1.160005e-38
3.0392015 -0.27993029 -1.2547815 1.0135757e-38
3.0111129 -0.24783854 -1.2431847 1.2540384e-38
3.0398846 -0.25908443 -1.251883 9.4871521e-39
3.0111129 -0.23603669 -1.2431847 9.3896246e-39
3.0392013 -0.22156183 -1.2547815 1.0322669e-38
3.0696061 -0.19241101 -1.2609124 1.2068258e-38
3.0405679 -0.15485504 -1.2489843 1.2444605e-38
3.0696058 -0.16835962 -1.2609124 1.2900164e-38
3.0392015 -0.13698716 -1.2547815 1.217018e-38
3.0709853 -0.12626973 -1.25506 1.3918953e-38
3.0378351 -0.11911926 -1.2605786 1.1795676e-38
3.0696058 -0.10221834 -1.2609124 1.345302e-38
3.0682266 -0.078166969 -1.2667649 1.3085689e-38
3.10167 -0.072858714 -1.2643608 1.1980368e-38
2.9803421 -0.046766974 -1.2429677 1.0499834e-38
3.0378351 -0.059559632 -1.2605786 1.0866787e-38
3.0192349 -0.33045137 -1.2087233 8.8457302e-39
3.0183327 -0.31471559 -1.2125524 3.503071e-39
3.018152 -0.28088367 -1.2133181 4.1466664e-39
3.0165277 -0.2596404 -1.2202104 2.7568964e-39
3.0464885 -0.25412109 -1.2238635 2.025057e-39
3.0165277 -0.23603669 -1.2202104 4.3166285e-39
3.0473993 -0.23823853 -1.2199987 4.6843292e-39
3.0473993 -0.19059083 -1.2199987 1.7503031e-39
3.0463061 -0.16676697 -1.2246363 2.3002146e-39
3.0737438 -0.16835962 -1.2433549 8.2689501e-40
3.0460329 -0.14294313 -1.2257959 2.2083637e-39
3.0737438 -0.12626973 -1.2433549 3.5826914e-39
3.0473993 -0.095295414 -1.2199987 3.220345e-39
3.0758131 -0.10221834 -1.2345761 5.2418414e-39
3.0765028 -0.076162688 -1.23165 6.7220035e-39
3.0219424 -0.33635229 -1.1972362 1.0692141e-38
3.0219424 -0.31274861 -1.1972362 4.1455327e-39
3.0219426 -0.28324404 -1.1972363 2.2116231e-39
3.0219424 -0.2596404 -1.1972362 2.5782364e-39
3.08202 -0.18038532 -1.2082399 2.3981528e-39
3.1450248 -0.19616881 -1.2199035 1.7513863e-39
3.0246496 -0.15932477 -1.1857492 3.2214478e-39
3.0514982 -0.16378897 -1.2026073 2.6736565e-39
3.0528646 -0.14294313 -1.1968102 3.4072642e-39
