# .PCD v0.7 - Point Cloud Data file format
VERSION 0.7
FIELDS x y z rgb
SIZE 4 4 4 4
TYPE F F F F
COUNT 1 1 1 1
WIDTH 115
HEIGHT 1
VIEWPOINT 0 0 0 1 0 0 0
POINTS 115
DATA ascii
2.3187799 -0.15898977 -1.4061056 1.2724444e-38
2.3259952 -0.10491375 -1.4067038 1.1981847e-38
2.3000457 -0.070733942 -1.39099 8.0091746e-39
2.3226268 -0.082561463 -1.4064294 1.0138655e-38
2.3011966 -0.056587156 -1.3864172 1.0316551e-38
2.3301511 -0.046141282 -1.4038479 9.1165718e-39
2.337286 -0.028722936 -1.4028138 1.3824961e-38
2.3567169 -0.016538925 -1.407553 1.3643876e-38
2.3563807 0.0096477056 -1.4088894 1.0966608e-38
2.3367853 0.046503801 -1.4048034 7.0050882e-39
2.3384545 0.07180734 -1.3981714 1.0966244e-38
2.3071821 -0.15844402 -1.3626376 1.2160461e-38
2.324007 -0.16151559 -1.373633 1.1793104e-38
2.3081028 -0.13203669 -1.3589793 1.078475e-38
2.3216879 -0.13301285 -1.3828465 1.1242856e-38
2.3228474 -0.10451008 -1.3782398 1.1242856e-38
2.3002799 -0.069920838 -1.3678195 9.4000054e-39
2.3251665 -0.080757797 -1.3690262 1.1524847e-38
2.3046498 -0.056587156 -1.3726982 9.2058709e-39
2.338928 -0.046564676 -1.3758065 1.0682823e-38
2.3442969 -0.028722936 -1.3749596 1.2349472e-38
2.3622677 -0.01447156 -1.3854998 1.2342713e-38
2.3354871 0.026719999 -1.3771858 1.1057366e-38
2.3620324 0.0077181654 -1.3864354 1.1427946e-38
2.3371413 0.047773704 -1.3760767 1.1242484e-38
2.3431284 0.076594494 -1.379602 1.1149936e-38
2.3431284 0.10531744 -1.379602 1.1609817e-38
2.3634453 0.099692963 -1.3808218 1.0966266e-38
2.3134742 -0.1587584 -1.3376389 1.0968403e-38
2.3328967 -0.16468257 -1.3383144 9.294852e-39
2.3070037 -0.13170356 -1.3373985 1.1246802e-38
2.3051021 -0.10341 -1.3363048 1.2071179e-38
2.3144333 -0.073091738 -1.333828 1.004504e-38
2.3298047 -0.080757797 -1.3505992 1.0978155e-38
2.3150089 -0.056587156 -1.3315415 9.6679252e-39
2.3395135 -0.044915855 -1.3471428 1.0320126e-38
2.3501394 -0.019148624 -1.3517479 1.0505284e-38
2.3456354 0.014306421 -1.3491572 1.0784387e-38
2.3461378 0.047806319 -1.3494371 1.0876583e-38
2.3501394 0.076594494 -1.3517479 1.1151009e-38
2.3506067 0.099572845 -1.3498908 1.1794578e-38
2.315901 -0.15531835 -1.3085359 6.3525119e-39
2.3024645 -0.13293286 -1.3035409 7.4675041e-39
2.311995 -0.10339451 -1.3089197 7.924148e-39
2.3100879 -0.075162902 -1.3078485 7.5532033e-39
2.3413999 -0.076007336 -1.3045315 2.2116287e-39
2.319613 -0.056587156 -1.3132497 1.0222929e-38
2.3375347 -0.041170642 -1.3198874 9.6762265e-39
2.356858 -0.017951833 -1.3250543 5.0671513e-39
2.352633 0.014306421 -1.3213565 6.5415583e-39
2.3430924 0.04759429 -1.3160161 7.6482716e-39
2.3410869 0.076064423 -1.3148805 8.2010909e-39
2.3396606 0.097384401 -1.3114415 8.0152507e-39
2.3081768 -0.15914497 -1.2808452 5.7132606e-39
2.311094 -0.13540451 -1.2763326 4.5118223e-39
2.3070343 -0.11233762 -1.2853843 6.0831123e-39
2.3288212 -0.077807337 -1.2766659 2.4885645e-39
2.3242171 -0.028293578 -1.2949578 1.3811268e-39
2.3618243 -0.019148624 -1.3053242 2.3030901e-39
2.3288212 0.028293578 -1.2766659 3.3111309e-39
2.3527718 0.014269724 -1.3003211 3.1288977e-39
2.3460379 0.047504585 -1.2861044 3.2200269e-39
2.3480539 0.076080732 -1.2872003 3.7731811e-39
2.3573864 0.097349718 -1.29018 4.4181848e-39
2.2955213 -0.15795964 -1.253284 5.5223813e-39
2.2977893 -0.1486679 -1.2442732 3.6824428e-39
2.3169363 -0.13418105 -1.246045 3.1314158e-39
2.3380291 -0.099027522 -1.2400823 7.101576e-39
2.3011913 -0.074333951 -1.2307572 3.3157861e-39
2.3380291 -0.084880732 -1.2400823 3.407274e-39
2.2989233 0.02787523 -1.2397679 3.2203716e-39
2.3234594 0.028154129 -1.2460748 3.2221513e-39
2.3345761 0.042440362 -1.2538011 5.1637162e-39
2.3539228 0.051304955 -1.2547783 1.023478e-38
2.3529952 0.076007336 -1.2584637 8.3865667e-39
2.3735089 0.10053027 -1.2589006 6.3510742e-39
2.305727 -0.13473028 -1.2127358 3.9597317e-39
2.3207443 -0.13106056 -1.2309144 6.7262817e-39
2.3310997 -0.10463224 -1.2231327 5.4345073e-39
2.3057272 -0.074333951 -1.2127358 2.5785896e-39
2.3241718 -0.084253214 -1.217297 3.0413642e-39
2.3599522 0.028502753 -1.230823 3.4061768e-39
2.3449354 0.042440366 -1.2126445 2.4853233e-39
2.3592896 0.048861861 -1.2334555 2.2083749e-39
2.3449354 0.066018343 -1.2126445 3.3132693e-39
2.3596625 0.077194959 -1.2319747 2.7590432e-39
2.3613439 0.10260991 -1.2252949 5.7063872e-39
2.3102634 -0.15795964 -1.1947144 5.9001742e-39
2.2609921 -0.12731008 -1.1692346 3.2250282e-39
2.2876143 -0.14111926 -1.1863723 3.3150798e-39
2.3285134 -0.10110386 -1.2000481 3.2243121e-39
2.2960913 -0.069192663 -1.1772745 4.5118279e-39
2.3110194 -0.080528446 -1.1917108 2.8573316e-39
2.3400381 -0.07322862 -1.1853963 5.1582777e-39
2.3768814 -0.082561463 -1.1908773 4.9789017e-39
2.2960913 -0.055354126 -1.1772745 1.1522645e-38
2.3147993 -0.055750459 -1.176693 1.0878714e-38
2.3333118 -0.051488075 -1.1809837 1.1885661e-38
2.3875308 -0.0095743118 -1.2031924 2.5840028e-39
2.4081881 -0.0096477065 -1.2030598 3.41196e-39
2.3483884 0.014146789 -1.1989255 3.1299599e-39
2.3755016 0.014300305 -1.2031866 2.8555366e-39
2.4081881 0.01447156 -1.2030598 3.1335752e-39
2.3478129 0.047155965 -1.201212 2.8533968e-39
2.3692286 0.038003668 -1.1939689 3.3125799e-39
2.3298843 0.065530278 -1.1946012 2.7597382e-39
2.3645904 0.080757797 -1.212396 2.7601278e-39
2.3645904 0.10451009 -1.212396 7.0879008e-39
2.3448257 -0.065692969 -1.1611861 7.2693913e-39
2.3830359 -0.081088066 -1.1800823 3.7789306e-39
2.3216033 -0.055750459 -1.1496609 1.1154931e-38
2.3390245 -0.053048324 -1.1582879 1.1794906e-38
2.3750262 0.028502753 -1.170935 4.2366704e-39
2.410543 0.01447156 -1.193704 3.6867392e-39
2.3564456 0.037724771 -1.1669148 3.6853169e-39
