# .PCD v0.7 - Point Cloud Data file format
VERSION 0.7
FIELDS x y z rgb
SIZE 4 4 4 4
TYPE F F F F
COUNT 1 1 1 1
WIDTH 136
HEIGHT 1
VIEWPOINT 0 0 0 1 0 0 0
POINTS 136
DATA ascii
1.9545654 -0.10263485 -1.3319876 1.1243203e-38
1.9689727 -0.10753089 -1.346417 1.2823113e-38
1.9673898 -0.076386653 -1.3429614 1.1428318e-38
1.9553399 -0.050642196 -1.3287015 1.1337937e-38
1.9672197 -0.041808713 -1.3436832 1.2075128e-38
1.9558046 0.0081027523 -1.3267299 1.0878689e-38
1.9679682 0.017131377 -1.340507 1.1423619e-38
1.9721885 0.044936389 -1.3378586 1.0692171e-38
1.981492 0.073882572 -1.3441552 9.9531722e-39
1.9817274 0.10056239 -1.3431563 1.0043919e-38
1.9957269 0.10881224 -1.3491465 9.1241304e-39
1.9814923 0.12313762 -1.3441552 1.0413434e-38
1.9977723 0.13649176 -1.3491884 9.4903877e-39
1.9566455 -0.10213669 -1.3079052 1.2073681e-38
1.959165 -0.076939449 -1.308113 1.0785101e-38
1.9603801 -0.047369931 -1.3073164 1.1797104e-38
1.9585388 0.0081027523 -1.3049581 1.0228296e-38
1.9734579 0.019034863 -1.3172158 1.1228397e-38
1.9617527 0.044565134 -1.3014925 9.950654e-39
1.9728341 0.044867888 -1.3198625 1.1519759e-38
1.9632397 0.064822018 -1.2951832 1.0595679e-38
1.9779236 0.078737617 -1.3149109 9.5851113e-39
1.9876796 0.10554653 -1.3179015 9.7655579e-39
1.989025 0.12313762 -1.3121942 1.0592775e-38
2.0058775 0.13527338 -1.3264201 1.0410562e-38
2.0300677 0.15067156 -1.3298565 1.0782934e-38
1.9373966 -0.11205138 -1.2871356 1.2808699e-38
1.954427 -0.10575137 -1.279175 1.1887469e-38
1.955694 -0.075622305 -1.2755598 1.1245706e-38
1.9647555 -0.043598589 -1.2793638 1.2259873e-38
1.9554092 -0.024154129 -1.2673793 1.1252565e-38
1.9641857 0.01618267 -1.2776071 1.0044978e-38
1.9669572 0.044565137 -1.2794098 9.6751503e-39
1.9669572 0.064822018 -1.2794098 1.0324127e-38
1.9821306 0.079997793 -1.2865205 1.0137921e-38
1.9859825 0.1039481 -1.2858691 1.0321962e-38
1.9879875 0.1263182 -1.2904397 1.0687144e-38
2.0091028 0.14324649 -1.2923928 1.0965151e-38
1.950249 -0.12005505 -1.232604 9.9509973e-39
1.9166914 -0.11815597 -1.2245951 9.1226842e-39
1.9434402 -0.10505772 -1.2427152 5.5299301e-39
1.9456589 -0.088040367 -1.2520795 5.6163972e-39
1.9646615 -0.074620791 -1.2484659 6.0852829e-39
1.9734629 -0.044565134 -1.2518065 3.2232457e-39
1.9679719 -0.018483879 -1.2489504 4.422156e-39
1.985934 -0.012236698 -1.2642808 7.6443045e-39
1.9721442 0.011842483 -1.2527069 7.8340712e-39
1.985934 0.016315596 -1.2642808 3.3982889e-39
1.9703377 0.044481643 -1.2498097 4.2366746e-39
1.9742064 0.073735043 -1.2486519 3.4090663e-39
1.9893646 0.082937613 -1.2497236 3.8682438e-39
1.9756316 0.10263485 -1.2426053 2.3927648e-39
1.9913787 0.108573 -1.2586154 5.3404942e-39
1.997306 0.13105722 -1.2548653 4.6050941e-39
2.014369 0.14600123 -1.2700489 2.2091176e-39
2.0175288 0.15702018 -1.2566425 6.4288477e-39
1.9637206 -0.12077065 -1.2321143 1.1979695e-38
1.9557571 -0.10004587 -1.2092333 3.5891668e-39
1.9702176 -0.10978641 -1.2289598 4.9728117e-39
1.9575932 -0.068031192 -1.2014431 3.1324766e-39
1.9727622 -0.064616516 -1.2242655 2.8562498e-39
1.9575932 -0.032014679 -1.2014431 2.0286612e-39
1.9740901 -0.045543946 -1.2214054 2.9480951e-39
1.9557571 -0.020009175 -1.2092333 4.2320167e-39
1.9673374 -0.014523302 -1.2289748 6.6290834e-39
1.9708319 0.014132722 -1.2222854 5.8054254e-39
1.9962267 0.016315596 -1.2206094 4.4124114e-39
1.9751602 0.040445257 -1.2242613 2.7615403e-39
1.9818275 0.078326605 -1.2163165 2.3931389e-39
1.9934196 0.073420174 -1.2325197 3.0352629e-39
1.9812078 0.10263486 -1.2189454 1.7495604e-39
1.9943553 0.11420918 -1.2285497 2.210872e-39
1.9836862 0.13234496 -1.2084298 1.381131e-39
1.9974581 0.13526239 -1.2289456 2.9455784e-39
2.0078568 0.1559743 -1.2322917 5.694521e-39
1.9360864 -0.094811015 -1.1706384 3.1328367e-39
1.9473728 -0.10110773 -1.1837792 3.9615212e-39
1.9360864 -0.086910099 -1.1706384 3.134622e-39
1.9488264 -0.075959638 -1.1831599 4.3295975e-39
1.9766495 -0.088565141 -1.1772578 2.1233665e-39
1.9581161 -0.043934558 -1.1839679 3.687821e-39
1.9570729 -0.023959631 -1.1833086 3.4040482e-39
1.9729556 0.024154129 -1.1929311 2.1201225e-39
1.9608063 0.04001835 -1.1878102 2.4856877e-39
1.9724938 0.044282567 -1.1948903 2.5775134e-39
1.9764391 0.0765737 -1.1883223 3.867169e-39
1.9860024 0.10525587 -1.1918218 8.4805546e-39
1.9874038 0.12964404 -1.1926565 7.2798814e-39
2.0016537 0.14357725 -1.1975827 8.3015724e-39
1.985545 0.15395229 -1.2005432 4.9601944e-39
2.0027766 0.15499817 -1.1928186 5.0513306e-39
2.0248055 -0.12313762 -1.1603794 9.0293816e-39
1.9433362 -0.10666239 -1.1398776 4.978564e-39
1.9584436 -0.10055184 -1.152064 3.9629814e-39
1.9433362 -0.075058714 -1.1398776 2.3978094e-39
1.9562109 -0.073901437 -1.1549972 3.7757006e-39
1.9582207 -0.043798622 -1.1530097 2.6715181e-39
1.9433362 -0.0079009179 -1.1398776 1.1334673e-38
1.9589026 -0.018925229 -1.1501164 5.8951155e-39
1.94243 0 -1.1437227 1.059743e-38
1.9650213 0.011194862 -1.1455147 7.5575109e-39
1.9840375 0.024154129 -1.1459111 2.9466476e-39
1.9704455 0.05202385 -1.1469115 1.4751287e-39
1.9704455 0.064029358 -1.1469115 1.5669698e-39
1.9829023 0.082175411 -1.15683 2.1186932e-39
1.981267 0.10466789 -1.1576662 2.117624e-39
1.9904335 0.13173158 -1.162365 2.3924088e-39
2.0102623 0.14276147 -1.1610576 4.5089356e-39
2.0276303 -0.12313762 -1.1483941 7.742607e-39
1.9664105 -0.10372661 -1.1335176 3.5927513e-39
1.9961832 -0.11319876 -1.1350625 4.9756661e-39
1.9397293 -0.070869729 -1.1268467 2.3049034e-39
1.9614457 -0.063618347 -1.124069 2.3978137e-39
1.9722816 -0.044020183 -1.1391212 2.6722327e-39
1.992112 -0.042667363 -1.1378067 4.7894868e-39
2.0222242 -0.036812842 -1.1408179 4.0627202e-39
2.0567777 -0.033262387 -1.1511408 3.7710273e-39
1.9679518 -0.014375779 -1.1330802 7.8348251e-39
1.9972473 -0.020218348 -1.1356343 6.2617456e-39
2.0158765 -0.024473395 -1.1372368 2.6657517e-39
1.9708511 0.0048022019 -1.1329846 9.396383e-39
1.9952619 0.016179817 -1.1389724 6.1742121e-39
2.0222242 0.02047156 -1.1408179 3.1349975e-39
2.0489421 0.022089297 -1.1437016 4.2391787e-39
1.9650636 0.046195228 -1.1270267 2.5778987e-39
1.9868079 0.032205503 -1.1341561 3.4991277e-39
2.0528417 0.043158896 -1.1434298 3.5898842e-39
1.9722816 0.064029358 -1.1391212 1.2907668e-39
1.9957308 0.076279946 -1.1398888 1.9343118e-39
2.0246558 0.079175539 -1.1406715 2.2105441e-39
2.0495756 0.071760245 -1.1410118 3.4962565e-39
1.9943323 0.10511315 -1.1429157 1.8421245e-39
1.999176 0.12694313 -1.1427076 3.0377909e-39
1.9951195 0.088565141 -1.098891 3.9557871e-39
2.0269203 0.085913762 -1.1208922 4.1416175e-39
2.0491257 0.071623243 -1.1225786 4.2355956e-39
