# .PCD v0.7 - Point Cloud Data file format
VERSION 0.7
FIELDS x y z rgb
SIZE 4 4 4 4
TYPE F F F F
COUNT 1 1 1 1
WIDTH 199
HEIGHT 1
VIEWPOINT 0 0 0 1 0 0 0
POINTS 199
DATA ascii
3.168937 -0.12499081 -1.4017918 6.439307e-39
3.1353943 -0.086645864 -1.4002579 8.1920567e-39
3.1677899 -0.072494678 -1.4066581 4.8727295e-39
3.168937 -0.049996328 -1.4017918 1.1057387e-38
3.2011499 -0.020198166 -1.4133276 1.0587372e-38
3.1675034 0.024998164 -1.4078747 1.3263977e-38
3.2034667 0.012623854 -1.4034978 1.317391e-38
3.1660697 0.037497249 -1.4139575 1.2632966e-38
3.2716081 0.038642202 -1.4195201 1.263108e-38
3.3486991 -0.30241835 -1.4106489 1.0234053e-38
3.3096406 -0.28628257 -1.4150805 6.082392e-39
3.2092586 -0.21460551 -1.3789234 1.0606076e-38
3.2399602 -0.22529049 -1.4012278 6.6269072e-39
3.240448 -0.19766055 -1.3991592 9.0366221e-39
3.240448 -0.17215595 -1.3991592 4.9717005e-39
3.1746716 -0.10624219 -1.3774602 5.9916594e-39
3.1439128 -0.068078898 -1.3641143 1.0043954e-38
3.1725211 -0.078119263 -1.3865845 1.0972007e-38
3.1737158 -0.045829967 -1.3815155 1.0507411e-38
3.2073276 -0.021039756 -1.3871148 8.9386615e-39
3.2419107 -0.012752294 -1.392953 8.2954669e-39
3.2397165 0.00956422 -1.4022622 1.0410915e-38
3.2745631 0.019321101 -1.4069829 8.0152633e-39
3.3111334 0.019519266 -1.4087477 8.6631354e-39
3.3096409 0.045544956 -1.4150805 8.4765847e-39
3.3471909 0.065743119 -1.4170479 8.752094e-39
3.2834275 -0.30913761 -1.3693712 1.3264969e-38
3.2506869 -0.28055045 -1.3557165 6.6312274e-39
3.2819502 -0.28337616 -1.3756398 8.1142664e-39
3.3141186 -0.28628257 -1.3960818 6.8134705e-39
3.2471764 -0.25249541 -1.3706111 2.8544688e-39
3.2136023 -0.21460551 -1.3604926 5.2493832e-39
3.2462988 -0.22954127 -1.3743348 3.4929802e-39
3.1832736 -0.19373578 -1.340963 2.9445485e-39
3.2121544 -0.19566974 -1.3666363 5.7135885e-39
3.1832736 -0.17498715 -1.340963 3.1228945e-39
3.2131195 -0.16411009 -1.3625405 3.9533208e-39
3.2448361 -0.16577981 -1.3805408 3.3997407e-39
3.1821263 -0.1349901 -1.3458292 7.3652654e-39
3.1495919 -0.099023849 -1.3400185 6.5206804e-39
3.1784947 -0.10832537 -1.3612392 7.2945937e-39
3.1197114 -0.061302751 -1.3273058 7.9155006e-39
3.1481721 -0.074267887 -1.3460425 7.7426308e-39
3.1775389 -0.087493576 -1.3652945 7.1930934e-39
3.1784947 -0.045829967 -1.3612392 9.5865532e-39
3.2448361 -0.03825688 -1.3805408 9.035864e-39
3.24703 -0.01912844 -1.3712317 9.9484666e-39
3.2804728 -0.012880734 -1.3819084 1.0503784e-38
3.2448361 0 -1.3805408 1.0133229e-38
3.2824426 0.0042935782 -1.3735503 1.0319033e-38
3.3151138 0.021688074 -1.39186 9.8584248e-39
3.3165066 0.046846237 -1.3859491 9.1208807e-39
3.3171036 0.065064214 -1.3834161 9.2127064e-39
3.2550747 -0.30605504 -1.3370981 1.3816366e-38
3.223738 -0.27772477 -1.3174874 4.5921924e-39
3.2545869 -0.28905198 -1.3391668 9.1248492e-39
3.2214212 -0.25752661 -1.3273171 3.1299767e-39
3.2208424 -0.22722936 -1.3297746 4.0487002e-39
3.1861408 -0.18748623 -1.3287972 1.3556017e-38
3.2214212 -0.19693212 -1.3273171 6.3618348e-39
3.1552708 -0.17329173 -1.3159227 1.622965e-38
3.1880524 -0.16665444 -1.3206867 9.8606388e-39
3.1566906 -0.1361578 -1.3098989 7.0064825e-39
3.1547029 -0.10645063 -1.3183324 3.4101789e-39
3.1232271 -0.073563308 -1.3123888 4.6937207e-39
3.1566906 -0.086645864 -1.3098989 6.0802495e-39
3.2227726 -0.021039756 -1.321583 4.2388368e-39
3.253612 -0.012752294 -1.3433043 7.6259601e-39
3.2550747 0 -1.3370981 6.7165721e-39
3.2878599 0.019321101 -1.3505653 9.6711398e-39
3.2878599 0.038642202 -1.3505653 9.8609555e-39
3.2295299 -0.3029725 -1.292913 1.5106006e-38
3.2594628 -0.30605504 -1.3184798 1.4462444e-38
3.2280819 -0.2840367 -1.2990565 9.2152176e-39
3.2280819 -0.258789 -1.2990565 3.0431901e-39
3.1976099 -0.21248439 -1.2801341 2.6714872e-39
3.2277923 -0.22975412 -1.3002853 2.85338e-39
3.1961763 -0.18748623 -1.2862171 2.5800399e-39
3.2280819 -0.20198166 -1.2990565 2.579663e-39
3.194169 -0.16998751 -1.294733 1.4772797e-39
3.1623697 -0.1361578 -1.2858031 2.9466588e-39
3.1281493 -0.098084405 -1.291505 4.3223934e-39
3.1623697 -0.10521284 -1.2858031 2.9481204e-39
3.1295555 -0.073563308 -1.2855382 5.6113442e-39
3.1630795 -0.077362381 -1.2827911 3.4098076e-39
3.1637895 -0.049511924 -1.2797792 2.3952815e-39
3.1961763 -0.037497249 -1.2862171 3.5891668e-39
3.1966543 -0.020831803 -1.2841893 3.7764321e-39
3.226634 -0.012623854 -1.3052002 3.4976774e-39
3.226634 0 -1.3052002 4.23199e-39
3.2338738 -0.3029725 -1.2744821 1.5017398e-38
3.2338738 -0.2840367 -1.2744821 7.4624286e-39
3.2338738 -0.258789 -1.2744821 3.0417341e-39
3.201911 -0.21248439 -1.2618855 2.577149e-39
3.2338738 -0.23354128 -1.2744821 2.3016481e-39
3.172308 -0.18566972 -1.2436354 2.0261346e-39
3.2014329 -0.19581896 -1.2639132 2.1179954e-39
3.1701784 -0.16400824 -1.2526714 2.3941997e-39
3.2004774 -0.17498715 -1.2679684 2.2123336e-39
3.1690626 -0.1361578 -1.2574044 2.7637137e-39
3.201911 -0.13748991 -1.2618855 2.3960214e-39
3.1365869 -0.098084405 -1.2557042 3.406209e-39
3.1680489 -0.10521284 -1.2617073 3.2261338e-39
3.2023888 -0.10832537 -1.2598579 2.0247502e-39
3.1694682 -0.074267887 -1.2556833 5.6243244e-39
3.1694684 -0.049511924 -1.2556833 5.7147264e-39
3.2004774 -0.037497249 -1.2679684 2.8480158e-39
3.2353218 -0.037871562 -1.2683386 6.9164939e-39
3.1694684 -0.024755962 -1.2556833 3.9626408e-39
3.2033446 -0.024998164 -1.2558026 5.0812498e-39
3.3409848 -0.026025688 -1.2820895 1.3099669e-38
3.3758459 -0.013148624 -1.2954671 5.9019875e-39
3.3758459 0.013148624 -1.2954671 2.1172667e-39
3.4116488 0.013288073 -1.3092064 2.1201632e-39
3.3758459 0.03944587 -1.2954671 3.1267243e-39
3.4086006 0.03986422 -1.3221401 3.0392006e-39
3.2418375 -0.30612844 -1.2406924 1.4464602e-38
3.2411139 -0.2840367 -1.2437642 5.713241e-39
3.2090793 -0.24998163 -1.2314712 2.2098225e-39
3.2403896 -0.26194498 -1.2468359 1.9343034e-39
3.1779871 -0.21042567 -1.2195396 1.8424833e-39
3.2073586 -0.22748327 -1.2387705 2.1176268e-39
3.1751475 -0.18566972 -1.2315875 2.5753582e-39
3.2081234 -0.19581896 -1.2355263 2.6672063e-39
3.2440095 -0.1893578 -1.231477 2.2094497e-39
3.1751475 -0.16091375 -1.2315875 3.0363405e-39
3.2081234 -0.17082079 -1.2355263 2.2116091e-39
3.2440093 -0.16411009 -1.2314769 2.028664e-39
3.1751475 -0.14853577 -1.2315875 3.3136393e-39
3.2071676 -0.1374899 -1.2395816 2.4874883e-39
3.2425616 -0.13255045 -1.2376206 2.3942137e-39
3.2062118 -0.10624219 -1.2436368 8.8432583e-39
3.2425616 -0.11361468 -1.2376206 7.3719986e-39
3.2755525 -0.10201835 -1.2502126 1.2340873e-38
3.3129761 -0.090165138 -1.2439989 8.2689081e-40
3.1751475 -0.086645864 -1.2315875 1.7891293e-38
3.2062118 -0.062495407 -1.2436368 1.7056567e-38
3.2396655 -0.069431193 -1.2499077 1.6776034e-38
3.2755525 -0.0828899 -1.2502126 1.5207578e-38
3.3129761 -0.077284403 -1.2439989 6.1591412e-39
3.2382176 -0.044183489 -1.2560514 1.6319715e-38
3.2740898 -0.051009174 -1.2564187 1.6688147e-38
3.3070664 -0.038642202 -1.2690734 1.6781387e-38
3.3788621 -0.03944587 -1.2826692 6.5279657e-39
3.2382176 -0.025247708 -1.2560514 1.2739214e-38
3.3439701 -0.026025688 -1.2694236 8.2693145e-40
3.3803701 -0.013148624 -1.2762702 2.1204897e-39
3.3798676 0.0087657487 -1.2784032 3.0381342e-39
3.4146972 0.013288073 -1.2962728 2.9466784e-39
3.3788621 0.03944587 -1.2826692 6.9138763e-39
3.2469053 -0.3029725 -1.2191898 1.4563982e-38
3.2478704 -0.28193274 -1.215094 3.0420957e-39
3.2119465 -0.24998163 -1.2193054 1.7510093e-39
3.2483532 -0.258789 -1.2130462 2.4885505e-39
3.2119465 -0.22498345 -1.2193054 2.025448e-39
3.2483537 -0.22722936 -1.2130462 2.9473861e-39
3.2857914 -0.21678898 -1.2067698 5.1593862e-39
3.2119465 -0.19998531 -1.2193054 2.2094707e-39
3.2483532 -0.19566974 -1.2130462 2.4885729e-39
3.2478704 -0.16831803 -1.215094 2.1190533e-39
3.2834511 -0.1657798 -1.2166996 2.7633353e-39
3.3188858 -0.15456881 -1.2189244 1.6641905e-39
3.2469053 -0.13255045 -1.2191898 2.7640528e-39
3.282866 -0.13389908 -1.219182 3.0388348e-39
3.3188858 -0.14168808 -1.2189244 1.6616695e-39
3.3529255 -0.13012843 -1.2314262 2.3956206e-39
3.3909273 -0.13148624 -1.2314773 2.7647745e-39
3.2799406 -0.10839449 -1.2315943 3.0345399e-39
3.3159308 -0.1159266 -1.2314616 3.0392174e-39
3.3499403 -0.097596332 -1.244092 3.2225086e-39
3.3879111 -0.11833761 -1.2442752 2.0279507e-39
3.4261281 -0.10630459 -1.2477713 2.6704209e-39
3.3499403 -0.078077063 -1.244092 2.9459259e-39
3.2526972 -0.25247705 -1.1946154 2.1168981e-39
3.2234156 -0.21248439 -1.1706424 6.8239354e-39
3.2526972 -0.23354128 -1.1946154 4.1448825e-39
3.2234156 -0.19998531 -1.1706424 5.3505947e-39
3.2536623 -0.19356577 -1.1905196 4.4261035e-39
3.3247955 -0.18033028 -1.1938499 3.4112173e-39
3.361881 -0.18217981 -1.1934288 4.057314e-39
3.2887168 -0.17853209 -1.1943576 4.2398821e-39
3.3218405 -0.16744953 -1.2063872 3.8667934e-39
3.3574033 -0.16266054 -1.2124275 3.4094376e-39
3.3959544 -0.16216634 -1.2101473 2.765157e-39
3.3559108 -0.14314128 -1.2187604 2.856624e-39
3.3954518 -0.13806054 -1.2122803 2.3030859e-39
3.4314628 -0.11959266 -1.2251374 2.3012824e-39
3.4659333 -0.10742018 -1.244529 2.4817234e-39
3.1647127 -0.20842937 -1.1363684 5.5313973e-39
3.1950243 -0.19185871 -1.1472523 2.488224e-39
3.2305839 -0.18748623 -1.1402279 4.79094e-39
3.4014843 -0.13806054 -1.1866844 3.2225212e-39
3.4360352 -0.13288073 -1.2057368 2.9509524e-39
3.4029925 -0.11833761 -1.1802853 4.0487198e-39
3.4375591 -0.10630459 -1.1992699 4.3302967e-39
3.4060087 -0.13148624 -1.1674874 2.3888299e-39
3.4070141 -0.11395473 -1.1632214 3.2268695e-39
3.4441638 -0.097445868 -1.1712469 3.8653795e-39
3.4120414 -0.10518899 -1.1418914 4.9706677e-39
