# .PCD v0.7 - Point Cloud Data file format
VERSION 0.7
FIELDS x y z rgb
SIZE 4 4 4 4
TYPE F F F F
COUNT 1 1 1 1
WIDTH 131
HEIGHT 1
VIEWPOINT 0 0 0 1 0 0 0
POINTS 131
DATA ascii
4.0838947 0.015765138 -1.419953 6.2535088e-39
4.0890865 -0.22071192 -1.3968823 5.610991e-39
4.0896635 -0.19443671 -1.3943188 9.8624395e-39
4.0890865 -0.16553394 -1.3968823 1.0780125e-38
4.0896635 -0.13663119 -1.3943188 1.0878067e-38
4.1387334 -0.12770642 -1.4222277 1.1889297e-38
4.1422377 -0.10376146 -1.4066539 1.2076987e-38
4.1410694 -0.069174312 -1.4118452 1.234885e-38
4.1422377 -0.039908256 -1.4066539 1.0880543e-38
4.1422377 -0.015963303 -1.4066539 1.0759251e-38
4.0890865 0.015765138 -1.3968823 1.1890036e-38
4.1955633 0 -1.4247626 1.1333628e-38
4.1399012 0.037247706 -1.4170364 1.2170922e-38
4.1973386 0.040422022 -1.4168755 1.2443201e-38
4.2534361 0.049133942 -1.4272161 1.2903815e-38
4.0960088 -0.22071192 -1.3661212 7.7394443e-39
4.0960088 -0.19706422 -1.3661212 1.013076e-38
4.0471849 -0.17127708 -1.3416719 1.3552435e-38
4.0954318 -0.16290642 -1.3686846 1.3179688e-38
4.045476 -0.14013578 -1.3492672 1.3003946e-38
4.0960088 -0.1261211 -1.3661212 1.2632665e-38
4.0977392 -0.10247339 -1.358431 1.2721248e-38
4.1457424 -0.10376146 -1.39108 1.3180787e-38
4.0965858 -0.068315595 -1.3635578 1.2355349e-38
4.1457424 -0.079816505 -1.39108 1.2626181e-38
4.0960088 -0.039412845 -1.3661212 1.2351025e-38
4.1474948 -0.039908256 -1.3832932 1.1710333e-38
4.1474948 -0.015963303 -1.3832932 1.2069773e-38
4.0960088 0.015765138 -1.3661212 1.1617787e-38
4.1474948 0 -1.3832932 1.1613139e-38
4.2026629 0.032337617 -1.3932139 1.1245436e-38
4.2570319 0.049133942 -1.4112377 1.1706737e-38
4.0019159 -0.18460183 -1.3105371 8.5418572e-39
4.0506034 -0.20241834 -1.3264811 9.7759836e-39
4.0019159 -0.16921835 -1.3105371 1.1607988e-38
4.0506034 -0.15570642 -1.3264811 1.2250472e-38
4.1046615 -0.15765136 -1.32767 3.6771753e-40
4.102354 -0.13663119 -1.3379236 9.949575e-39
4.1562562 -0.12770642 -1.3443586 3.7015257e-39
4.102931 -0.094590828 -1.3353602 7.5593214e-39
4.1545038 -0.11174311 -1.3521454 7.1887312e-39
4.102931 -0.070943117 -1.3353602 8.5677238e-39
4.102354 -0.042040367 -1.3379236 1.1519392e-38
4.1562562 -0.031926606 -1.3443586 5.8785676e-39
4.102931 -0.015765138 -1.3353602 1.3540565e-38
4.0506034 0.015570642 -1.3264811 1.641659e-38
4.102931 0 -1.3353602 1.4190229e-38
4.1545038 0.031926606 -1.3521454 1.4844919e-38
4.0052934 -0.19229357 -1.295529 3.4977321e-39
4.0574403 -0.18684772 -1.2960997 4.2431682e-39
4.1115837 -0.20494679 -1.296909 3.96584e-39
4.0052934 -0.16921835 -1.295529 5.5137311e-40
4.0574403 -0.17127708 -1.2960997 1.9353767e-39
4.1104302 -0.16290642 -1.3020358 2.9480853e-39
4.1098533 -0.13400367 -1.3045992 3.5913276e-39
4.1098533 -0.10247339 -1.3045992 1.9364628e-39
4.159761 -0.11174311 -1.3287847 3.0370804e-39
4.1081228 -0.070943117 -1.3122895 3.8653655e-39
4.1632657 -0.063853212 -1.3132108 2.4864458e-39
4.1092763 -0.036785323 -1.3071626 3.3122043e-39
4.1632657 -0.047889907 -1.3132108 2.4846129e-39
4.1098533 -0.015765138 -1.3045992 1.7488443e-39
4.0557308 0.015570642 -1.3036951 6.2653428e-39
4.1098533 0 -1.3045992 1.3807793e-39
4.1098533 0.031530276 -1.3045992 2.3020223e-39
4.118506 -0.22071192 -1.2661479 4.4239469e-39
4.0608587 -0.18684772 -1.2809089 3.2265121e-39
4.1167755 -0.19706422 -1.2738382 4.0569889e-39
4.1167755 -0.16553394 -1.2738382 6.2758553e-39
4.1167755 -0.13400367 -1.2738382 6.1876085e-39
4.1167755 -0.11035596 -1.2738382 4.8867916e-39
4.2239614 -0.072759636 -1.2985679 8.0357951e-39
4.1679382 -0.037247706 -1.2924457 3.1361228e-39
4.2239614 -0.048506424 -1.2985679 8.2054713e-39
4.1667705 -0.015963303 -1.297637 2.3027468e-39
4.0608587 0.015570642 -1.2809089 2.3992612e-39
4.1150451 0.015765138 -1.2815285 1.481293e-39
4.1667705 0 -1.297637 1.5694851e-39
4.2239614 0 -1.2985679 6.3696891e-39
4.0608587 0.046711929 -1.2809089 2.7612068e-39
4.1150451 0.031530276 -1.2815285 2.9459666e-39
4.1219673 -0.22071192 -1.2507674 2.9502756e-39
4.1219673 -0.19706422 -1.2507674 1.1242112e-38
4.1772842 -0.20752293 -1.2509154 1.0223158e-38
4.1219673 -0.16553394 -1.2507674 1.8624651e-38
4.1755319 -0.14366972 -1.2587024 1.687218e-38
4.2292862 -0.12935047 -1.2749064 1.8253682e-38
4.1737795 -0.11174311 -1.2664893 1.8628967e-38
4.231061 -0.10509725 -1.2670193 1.3903564e-38
4.2822018 -0.098267883 -1.2993889 1.3261433e-38
4.2292862 -0.080844037 -1.2749064 1.4391576e-38
4.2839994 -0.065511927 -1.2913997 1.6025465e-38
4.2822018 -0.049133942 -1.2993889 1.5225971e-38
4.3414946 -0.049772475 -1.3000894 1.2018851e-38
4.3487797 -0.28204402 -1.2677172 1.1618059e-38
4.2346106 -0.24253212 -1.2512449 2.3099326e-39
4.2929888 -0.24566972 -1.2514536 3.5956352e-39
4.3469582 -0.26545322 -1.2758102 5.1593315e-39
4.180789 -0.22348623 -1.2353417 4.0526448e-39
4.2381606 -0.2263633 -1.2354707 3.6824218e-39
4.1271591 -0.18918166 -1.2276967 1.1431859e-38
4.183125 -0.20220183 -1.224959 3.7674175e-39
4.1265821 -0.16816147 -1.23026 1.3548442e-38
4.183125 -0.16495411 -1.224959 9.2149037e-39
4.180789 -0.14366972 -1.2353417 5.3268736e-39
4.2369771 -0.13474007 -1.2407287 6.5279363e-39
4.2363858 -0.10509725 -1.2433578 1.0138327e-38
4.2363858 -0.080844037 -1.2433578 1.6604602e-38
4.2911906 -0.065511927 -1.2594428 1.4019532e-38
4.2929888 -0.049133942 -1.2514536 9.7349984e-39
4.3469582 -0.041477062 -1.2758102 8.6721037e-39
4.3524218 -0.28204402 -1.2515312 1.1986842e-38
4.2417102 -0.24253212 -1.2196963 3.134671e-39
4.3524218 -0.26545322 -1.2515312 6.1785029e-39
4.2417102 -0.2263633 -1.2196963 2.2109071e-39
4.187798 -0.19954127 -1.2041939 3.8664865e-39
4.187798 -0.16761467 -1.2041939 1.5305513e-38
4.243485 -0.13743487 -1.211809 9.0254747e-39
4.2417102 -0.10509725 -1.2196963 1.8984765e-38
4.243485 -0.072759636 -1.211809 1.2717249e-38
4.2983823 -0.040944956 -1.227486 1.4007224e-38
4.3542433 -0.016590826 -1.2434381 7.4836947e-39
4.1913028 -0.22348623 -1.1886201 5.8018913e-39
4.192471 -0.19688074 -1.1834288 9.4860689e-39
4.1930552 -0.16761467 -1.1808332 1.6310311e-38
4.2488098 -0.14551927 -1.1881475 1.1702735e-38
4.1913028 -0.095779814 -1.1886201 2.0095717e-38
4.2488098 -0.064675234 -1.1881475 5.6941609e-39
4.3049741 -0.043674618 -1.1981924 1.4007577e-38
4.3037758 -0.016377982 -1.2035184 1.3007103e-38
4.1983118 -0.17559633 -1.1574724 1.4928831e-38
