# .PCD v0.7 - Point Cloud Data file format
VERSION 0.7
FIELDS x y z rgb
SIZE 4 4 4 4
TYPE F F F F
COUNT 1 1 1 1
WIDTH 108
HEIGHT 1
VIEWPOINT 0 0 0 1 0 0 0
POINTS 108
DATA ascii
3.2419107 -0.36981651 -1.392953 1.0780021e-38
3.2775178 -0.38642204 -1.3944457 1.34501e-38
3.2404482 -0.34431192 -1.3991593 1.133647e-38
3.240448 -0.31243119 -1.3991592 1.1337553e-38
3.240448 -0.2869266 -1.3991592 1.0874773e-38
3.2760406 -0.27049541 -1.4007143 8.3912429e-39
3.2389853 -0.26779816 -1.4053653 9.2930779e-39
3.2760406 -0.2511743 -1.4007143 1.1049419e-38
3.2760406 -0.22541285 -1.4007143 1.5669282e-38
3.2419107 -0.2040367 -1.392953 1.2435624e-38
3.275548 -0.18891744 -1.4028038 1.2439943e-38
3.2775178 -0.16744953 -1.3944457 1.0872996e-38
3.3081481 -0.16916697 -1.4214134 1.2259489e-38
3.3456829 -0.15778348 -1.4234469 1.1698781e-38
3.3096409 -0.14314128 -1.4150805 1.1984357e-38
3.3456829 -0.13148624 -1.4234469 1.1887139e-38
3.3456829 -0.11833761 -1.4234469 1.2165535e-38
3.2477612 -0.36981651 -1.3681287 9.9481345e-39
3.247396 -0.34431192 -1.3696802 9.9531806e-39
3.2477617 -0.31243119 -1.3681288 1.0692188e-38
3.2477615 -0.2869266 -1.3681287 9.860622e-39
3.2804728 -0.28337616 -1.3819084 8.3908981e-39
3.2506869 -0.26142201 -1.3557165 9.3952998e-39
3.2814577 -0.24902751 -1.3777293 1.0869361e-38
3.2819502 -0.22541285 -1.3756398 1.1882449e-38
3.2448361 -0.2040367 -1.3805408 1.2434561e-38
3.2822454 -0.19578716 -1.3743861 1.1244287e-38
3.2462988 -0.17853209 -1.3743348 1.1247528e-38
3.2819502 -0.16744953 -1.3756398 1.0602507e-38
3.3156111 -0.15615413 -1.3897489 1.1691595e-38
3.3156111 -0.13663486 -1.3897489 1.1613792e-38
3.2834275 -0.1159266 -1.3693712 1.2717613e-38
3.3141186 -0.11060917 -1.3960818 1.1614871e-38
3.2179463 -0.34084404 -1.3420618 1.0780417e-38
3.255075 -0.34431192 -1.3370981 9.4903877e-39
3.2550747 -0.31243119 -1.3370981 1.0873312e-38
3.2550747 -0.2869266 -1.3370981 1.0875113e-38
3.2922921 -0.27693579 -1.3317595 3.3197335e-39
3.255075 -0.25504586 -1.3370981 1.0317981e-38
3.2565374 -0.22954127 -1.330892 1.2256535e-38
3.2873673 -0.22326605 -1.3526549 1.1701642e-38
3.2889152 -0.193211 -1.3460878 1.0137556e-38
3.3230741 -0.18217981 -1.3580844 1.2627901e-38
3.2893372 -0.16100916 -1.3442967 1.0781845e-38
3.2885985 -0.13524771 -1.3474309 1.1517252e-38
3.3230741 -0.14314128 -1.3580844 1.1891462e-38
3.2609258 -0.34431192 -1.3122737 4.7912889e-39
3.2295299 -0.31559634 -1.292913 4.9810569e-39
3.261657 -0.30924311 -1.3091706 3.2246778e-39
3.2594628 -0.29330274 -1.3184798 8.276321e-40
3.2618032 -0.24739449 -1.30855 9.5912154e-39
3.2618032 -0.2218899 -1.30855 2.6679069e-39
3.2629733 -0.19893578 -1.3035852 3.1299669e-39
3.2967243 -0.18033028 -1.3129537 1.569139e-39
3.2967243 -0.16100916 -1.3129537 1.4744168e-39
3.2623882 -0.12752293 -1.3060676 1.5622838e-39
3.2972169 -0.1373945 -1.3108641 2.4853205e-39
3.2653136 -0.11477064 -1.2936554 4.5140112e-39
3.2324259 -0.34715596 -1.2806257 2.9481022e-39
3.2699943 -0.34686238 -1.2737958 3.7760664e-39
3.2341633 -0.31812111 -1.2732534 2.7629766e-39
3.2697017 -0.24229357 -1.2750371 7.6738061e-39
3.2343562 -0.2230214 -1.2724342 1.8403029e-39
3.2711644 -0.22954127 -1.2688309 1.8370715e-39
3.2697017 -0.19766055 -1.2750371 1.8449874e-39
3.2704332 -0.16896787 -1.271934 1.2003747e-39
3.3011568 -0.16100916 -1.2941477 2.7661996e-39
3.302634 -0.14168808 -1.2878791 1.5641448e-39
3.3380001 -0.13012843 -1.2947553 6.6384343e-39
3.3011568 -0.1159266 -1.2941477 2.304525e-39
3.2411137 -0.36609176 -1.2437642 7.0075769e-39
3.2430439 -0.34925994 -1.2355727 4.0512001e-39
3.2740898 -0.34431192 -1.2564187 2.6754753e-39
3.2415965 -0.31559634 -1.2417164 4.702326e-39
3.2740898 -0.31243119 -1.2564187 4.3346758e-39
3.2440095 -0.2840367 -1.231477 2.3931151e-39
3.2740898 -0.24229357 -1.2564187 7.0305792e-39
3.2411137 -0.22722936 -1.2437642 4.8017159e-39
3.2755525 -0.22316512 -1.2502126 1.7488303e-39
3.3129761 -0.2318532 -1.2439989 2.755788e-39
3.2760398 -0.19978593 -1.2481438 2.1208624e-39
3.3070664 -0.18677065 -1.2690734 2.0290171e-39
3.277015 -0.16577981 -1.2440064 1.3811366e-39
3.3070664 -0.16100916 -1.2690734 1.3922835e-38
3.2760398 -0.13602446 -1.2481438 7.3723657e-39
3.2770152 -0.10839449 -1.2440065 4.0411976e-39
3.3070664 -0.1159266 -1.2690734 1.6789963e-38
3.1534624 -0.36781654 -1.1841027 1.1423262e-38
3.1808267 -0.37133944 -1.2074918 1.1052695e-38
3.2119465 -0.3624734 -1.2193054 8.0199338e-39
3.183666 -0.34039447 -1.1954439 4.6933297e-39
3.1850858 -0.3218275 -1.18942 2.3038103e-39
3.2483535 -0.31559634 -1.2130462 1.4747685e-39
3.2814033 -0.30605504 -1.2253882 2.1197764e-39
3.2469053 -0.2840367 -1.2191898 1.6584507e-39
3.2843287 -0.29330274 -1.212976 3.6827763e-39
3.2119465 -0.24998163 -1.2193054 1.1868042e-38
3.2799406 -0.21678898 -1.2315943 2.7615501e-39
3.2469053 -0.1893578 -1.2191898 1.0188351e-39
3.2818906 -0.19978593 -1.2233194 2.302388e-39
3.2498014 -0.17673394 -1.2069026 2.5803762e-39
3.2811108 -0.16322935 -1.2266294 2.4889177e-39
3.2814033 -0.13389908 -1.2253882 2.5793084e-39
3.2799406 -0.11477064 -1.2315943 4.1354938e-39
3.156275 -0.33716515 -1.1721691 3.042467e-39
3.1893451 -0.3218275 -1.1713481 3.6809855e-39
3.2526972 -0.31559634 -1.1946154 3.5909254e-39
3.2526972 -0.17673394 -1.1946154 3.1285221e-39
