# .PCD v0.7 - Point Cloud Data file format
VERSION 0.7
FIELDS x y z rgb
SIZE 4 4 4 4
TYPE F F F F
COUNT 1 1 1 1
WIDTH 128
HEIGHT 1
VIEWPOINT 0 0 0 1 0 0 0
POINTS 128
DATA ascii
2.7242749 -0.25586975 -1.3747814 1.4381407e-38
2.7526474 -0.25105116 -1.3677384 1.1793478e-38
2.723026 -0.23953763 -1.3800802 5.8040311e-39
2.7524314 -0.2262598 -1.3686546 1.2261675e-38
2.7758334 -0.21049908 -1.3827008 1.3268628e-38
2.754447 -0.20868623 -1.3601022 1.1701306e-38
2.7771041 -0.19942018 -1.3773092 1.3002131e-38
2.8019407 -0.19002569 -1.3896269 1.3084585e-38
2.8028562 -0.17086343 -1.3857411 1.1336486e-38
2.7758334 -0.14402568 -1.3827008 9.0168455e-39
2.8023684 -0.13786177 -1.3878136 1.16051e-38
2.8049326 -0.10805381 -1.3769337 1.5955593e-38
2.8280709 -0.10149357 -1.3964565 1.3358295e-38
2.8027101 -0.084952667 -1.3863629 1.2809091e-38
2.8297954 -0.071421407 -1.3891388 1.2621818e-38
2.8293643 -0.045108259 -1.3909682 1.2262051e-38
2.8057871 -0.016766973 -1.3733071 1.1708503e-38
2.8280709 -0.016915595 -1.3964565 1.2995276e-38
2.8306577 0 -1.38548 1.2070068e-38
2.7355149 -0.26131377 -1.3270917 1.0418407e-38
2.7579746 -0.25042349 -1.3451355 1.1239238e-38
2.7582264 -0.22516148 -1.3440664 1.1154971e-38
2.7582264 -0.19770277 -1.3440664 1.2440327e-38
2.7834578 -0.1772624 -1.3503505 1.3559637e-38
2.7594862 -0.13180184 -1.338721 9.5929852e-39
2.7828226 -0.12463762 -1.3530463 1.3356467e-38
2.7859993 -0.10524954 -1.3395671 1.2077283e-38
2.8083513 -0.10619082 -1.3624271 1.1156058e-38
2.8098898 -0.08048147 -1.3558992 1.2439958e-38
2.8332448 -0.067662388 -1.3745037 1.2063636e-38
2.8109157 -0.044711929 -1.3515472 1.1614881e-38
2.8332448 -0.045108259 -1.3745037 1.1984014e-38
2.8092062 -0.01862997 -1.3588005 1.2348133e-38
2.8371251 -0.011277064 -1.3580393 1.2998517e-38
2.8353143 0.0045108255 -1.3657227 1.2255197e-38
2.7380126 -0.26131377 -1.316494 1.059703e-38
2.7640216 -0.24603012 -1.319478 1.0498074e-38
2.7645257 -0.22516148 -1.3173399 1.1798887e-38
2.7392614 -0.18509725 -1.3111951 1.2715116e-38
2.7648854 -0.20084091 -1.3158127 1.3362977e-38
2.7380126 -0.17420918 -1.316494 1.3926624e-38
2.7645257 -0.1263101 -1.3173399 1.1610868e-38
2.7910824 -0.12851523 -1.3180001 1.0315468e-38
2.7910824 -0.10524955 -1.3180002 1.1889992e-38
2.7936239 -0.083091751 -1.3072166 1.2348392e-38
2.8153112 -0.076649018 -1.332896 1.2718685e-38
2.7929885 -0.047085322 -1.3099126 1.3550577e-38
2.8145053 -0.042476334 -1.3363155 1.1709226e-38
2.8160443 -0.022355964 -1.3297875 1.2166223e-38
2.842299 -0.011277064 -1.3360866 1.3181468e-38
2.8410056 0 -1.3415748 1.2807291e-38
2.7729242 -0.25078961 -1.2817045 4.7008883e-39
2.7461302 -0.22592752 -1.2820514 6.3640082e-39
2.7720845 -0.23065323 -1.2852682 1.0241942e-38
2.7467546 -0.19598532 -1.279402 3.6814058e-39
2.7724442 -0.19770277 -1.2837409 3.5959897e-39
2.7961655 -0.1218679 -1.2964332 1.8403113e-40
2.8237367 -0.1229578 -1.2971478 2.113294e-39
2.7729242 -0.10251254 -1.2817047 1.5648034e-39
2.798707 -0.11078899 -1.2856498 3.2250099e-39
2.7746041 -0.082376152 -1.2745776 3.7731727e-39
2.7970126 -0.077552296 -1.2928388 1.7477611e-39
2.8211725 -0.067067891 -1.3080277 4.5956284e-40
2.7974362 -0.049855046 -1.2910415 2.3016636e-39
2.8224547 -0.033533946 -1.3025877 4.4138674e-39
2.8232238 -0.017884772 -1.2993238 4.600788e-39
2.8513534 -0.011277064 -1.2976694 4.967767e-39
2.85006 0 -1.3031576 4.1473796e-39
2.7554965 -0.25586975 -1.24231 5.7125179e-39
2.7777536 -0.24987432 -1.2612144 4.9774752e-39
2.7505012 -0.22320551 -1.2635055 2.0247347e-39
2.7791393 -0.22406311 -1.2553345 3.4069181e-39
2.7554965 -0.18509725 -1.24231 2.947047e-39
2.7792833 -0.20084091 -1.2547237 2.9473861e-39
2.7799582 -0.13042891 -1.2518601 6.0870556e-39
2.7529988 -0.097992659 -1.2529076 2.5811119e-39
2.7801471 -0.10544147 -1.2510582 3.0395649e-39
2.7796433 -0.076884411 -1.2531964 3.2214394e-39
2.7796433 -0.054917429 -1.2531964 2.3916914e-39
2.8037896 -0.041150194 -1.2640828 1.6606172e-39
2.8054843 -0.018464833 -1.2568939 7.3833435e-40
2.8288651 -0.011177982 -1.275388 2.6725732e-39
2.8063314 0.0055394499 -1.2532995 3.2168081e-39
2.8288651 0 -1.275388 1.9364936e-39
2.7579944 -0.2504257 -1.2317122 4.7037315e-39
2.7571692 -0.22836123 -1.2196445 3.9622415e-39
2.7613246 -0.19417064 -1.217582 6.2692972e-39
2.7846825 -0.19770275 -1.2318152 5.2699374e-39
2.7553251 -0.16301531 -1.2188179 5.066808e-39
2.7613246 -0.1379156 -1.217582 9.674388e-39
2.7846825 -0.12081835 -1.2318152 1.7463108e-39
2.7855225 -0.10617369 -1.2282517 2.7629864e-39
2.8126853 -0.10524954 -1.2263409 2.396006e-39
2.7859423 -0.065900922 -1.22647 3.0331063e-39
2.8109062 -0.08419963 -1.2338892 2.7640556e-39
2.8110967 -0.042930737 -1.2330805 9.0326326e-39
2.7872021 -0.010983487 -1.2211246 1.4746567e-38
2.8107791 -0.019388074 -1.2344284 9.68126e-39
2.7629898 0.010888074 -1.2105168 1.0010467e-38
2.7855225 0.0036611622 -1.2282517 1.0600691e-38
2.7525983 -0.22764036 -1.2001181 3.0406551e-39
2.7679853 -0.19598532 -1.1893214 2.7615501e-39
2.7922413 -0.19770275 -1.1997435 3.5891542e-39
2.7501886 -0.160928 -1.1830966 6.0791396e-39
2.7602179 -0.14114739 -1.1859512 1.1515778e-38
2.7897217 -0.098851375 -1.2104341 2.486436e-39
2.8720491 -0.09021651 -1.2098588 3.2246694e-39
2.9008288 -0.10241834 -1.2098063 4.2370235e-39
2.9830244 -0.10522569 -1.2315878 3.687437e-39
2.7916114 -0.068646789 -1.2024162 2.4867625e-39
2.8177681 -0.083091743 -1.2047739 2.4860338e-39
2.8468149 -0.078245871 -1.1992288 2.4003136e-39
2.7928712 -0.052171558 -1.197071 2.5778707e-39
2.8164973 -0.038776148 -1.2101656 2.5789441e-39
2.7897217 -0.010983487 -1.2104341 9.2209643e-41
2.8173447 -0.014771867 -1.2065712 2.4874687e-39
2.7905617 0.0073223244 -1.2068706 2.8487025e-39
2.8164973 0 -1.2101656 2.5800217e-39
2.8442507 0 -1.2101088 2.5743184e-39
2.8982182 0 -1.2208827 4.6998359e-39
2.7972806 -0.18671927 -1.1783624 5.1582623e-39
2.7703595 -0.16466686 -1.1636792 7.0911223e-39
2.7742295 -0.14154495 -1.1628271 1.2620677e-38
2.9558716 -0.09268257 -1.2203776 4.3313505e-39
3.0138202 -0.10621651 -1.2316976 4.5071938e-39
2.8746362 -0.078939445 -1.1988825 3.5027081e-39
2.769604 -0.16061138 -1.1388617 6.8149026e-39
2.7792251 -0.14154495 -1.1416317 1.3630509e-38
