# .PCD v0.7 - Point Cloud Data file format
VERSION 0.7
FIELDS x y z rgb
SIZE 4 4 4 4
TYPE F F F F
COUNT 1 1 1 1
WIDTH 123
HEIGHT 1
VIEWPOINT 0 0 0 1 0 0 0
POINTS 123
DATA ascii
2.5196607 -0.21560366 -1.3473973 1.078617e-38
2.5160878 -0.19176513 -1.3473325 8.6649431e-39
2.5204003 -0.17180917 -1.3441107 1.0135405e-38
2.5425682 -0.13502842 -1.3503649 8.5634232e-39
2.5420089 -0.099360541 -1.3528504 8.2850076e-39
2.5436869 -0.081526607 -1.3453938 1.0971253e-38
2.5166967 -0.2176514 -1.3223084 9.3982271e-39
2.5470428 -0.22419816 -1.3304806 1.3542331e-38
2.5205617 -0.19167951 -1.3221384 9.03372e-39
2.5252817 -0.1677666 -1.322419 9.4007313e-39
2.5481613 -0.15286238 -1.3255093 8.2954669e-39
2.5226192 -0.12127706 -1.3342508 9.3034811e-39
2.5503988 -0.14267156 -1.3155673 9.0405849e-39
2.5677042 -0.13353027 -1.3388735 8.2025524e-39
2.5928638 -0.12427156 -1.3318337 8.7539143e-39
2.5226192 -0.10611743 -1.3342508 8.6606299e-39
2.5478423 -0.098996587 -1.3269298 1.0136102e-38
2.5683486 -0.11298716 -1.3360103 8.6516461e-39
2.591727 -0.1139156 -1.3368855 9.1219696e-39
2.5481615 -0.078978896 -1.3255094 1.115204e-38
2.5683486 -0.065737985 -1.3360103 9.3992697e-39
2.5689929 -0.039618876 -1.3331473 9.0301327e-39
2.5940006 -0.031067891 -1.3267821 9.8552284e-39
2.5668452 -0.017119266 -1.3426911 8.2943641e-39
2.5999141 -0.013836086 -1.3354245 8.7531884e-39
2.600245 0.0094298581 -1.3371288 8.9404524e-39
2.6162882 0.031321101 -1.3325028 9.9499282e-39
2.6348915 0.031585321 -1.3591511 9.0322738e-39
2.6615946 0.042466052 -1.3498057 1.11445e-38
2.5292757 -0.21223487 -1.3046714 7.2708977e-39
2.4919684 -0.19897246 -1.2745947 9.7698599e-39
2.5146341 -0.18789043 -1.2877464 9.8591843e-39
2.5318112 -0.16459031 -1.2934029 1.0046811e-38
2.5548735 -0.15286238 -1.2956828 1.0046447e-38
2.5541275 -0.13927461 -1.2989969 8.7632806e-39
2.5739863 -0.1283945 -1.310958 8.8507861e-39
2.5544262 -0.10190825 -1.2976712 9.8598835e-39
2.5751138 -0.099291742 -1.3059475 9.4850011e-39
2.5526361 -0.081526607 -1.305625 7.6518449e-39
2.5753956 -0.070616975 -1.304695 8.4784036e-39
2.5753956 -0.042370185 -1.304695 8.9383028e-39
2.5773687 -0.020543119 -1.2959266 9.0333641e-39
2.5985475 -0.013807951 -1.3065754 8.574181e-39
2.5773687 0.020543119 -1.2959266 9.3103139e-39
2.5990024 0.0082847709 -1.3045548 9.5847414e-39
2.5773687 0.030814679 -1.2959266 9.1262842e-39
2.5985477 0.041423853 -1.3065755 1.0963343e-38
2.4941525 -0.19897246 -1.2648889 9.4043032e-39
2.5165949 -0.18052843 -1.2653688 9.6805159e-39
2.4985209 -0.17907523 -1.245477 2.9413381e-39
2.5220253 -0.16233394 -1.2571796 6.2642624e-39
2.5593481 -0.15286238 -1.2757984 6.4443348e-39
2.5316939 -0.13104954 -1.2620411 7.4610035e-39
2.5381508 -0.11117064 -1.265232 9.5768128e-39
2.5620329 -0.09783192 -1.2638679 8.6642088e-39
2.5796239 -0.092444032 -1.2859056 9.4928933e-39
2.5627046 -0.071335785 -1.2608852 4.6929724e-39
2.5796239 -0.071900912 -1.2859056 9.401764e-39
2.563823 -0.045858715 -1.255914 1.7470577e-39
2.5812347 -0.039618876 -1.2787478 8.9389964e-39
2.5824425 -0.017975228 -1.2733794 8.2954277e-39
2.6030948 -0.010355963 -1.286369 9.2188343e-39
2.5615854 0.020381652 -1.2658563 1.0135764e-38
2.5827808 0.012325871 -1.2718763 9.7694661e-39
2.6061261 0.0034519879 -1.2728978 4.2392039e-39
2.6076419 0.031067891 -1.2661623 4.5979069e-39
2.500705 -0.18902384 -1.2357711 9.1298855e-39
2.500705 -0.17410091 -1.2357711 8.0220666e-39
2.5291526 -0.15574405 -1.2334781 2.3045264e-39
2.503617 -0.13596451 -1.2228298 2.3945528e-39
2.5660603 -0.096812844 -1.2459719 7.3778042e-39
2.5660601 -0.071335778 -1.2459718 2.1197694e-39
2.5682976 -0.0407633 -1.2360296 2.3941969e-39
2.5875165 -0.03595046 -1.2508322 2.2108944e-39
2.5705349 -0.020381652 -1.2260875 1.7556756e-39
2.5881929 -0.014380182 -1.247826 2.1190421e-39
2.5890951 0.012325871 -1.2438176 3.1317661e-39
2.6110525 0.010355963 -1.2510073 2.7619018e-39
2.6202466 0.037416514 -1.2520548 7.1814949e-39
2.5072575 -0.13928072 -1.2066534 3.1285207e-39
2.5754569 -0.034648806 -1.2042146 2.9441309e-39
2.5931542 -0.041086238 -1.2257799 3.0363335e-39
2.5754569 -0.016305322 -1.2042146 6.7292146e-39
2.5931542 -0.010271559 -1.2257799 3.5891219e-39
2.5761282 0.020381652 -1.201232 5.4402933e-39
2.5950871 0.0073368284 -1.2171905 4.5143699e-39
2.5954092 0.033382569 -1.2157589 4.0555511e-39
2.5603387 -0.035372477 -1.1666334 1.9343174e-39
2.5817215 -0.038725138 -1.1763765 2.4835283e-39
2.5603387 -0.010106422 -1.1666334 1.8421063e-39
2.5811622 -0.017833944 -1.178862 3.5852123e-39
2.5603387 0.020212844 -1.1666334 3.6771193e-40
2.5794842 0.020381652 -1.1863186 1.1523691e-38
2.5999193 0.0051357797 -1.195717 1.0048557e-38
2.5603387 0.030319266 -1.1666334 2.7588344e-40
2.5794842 0.030572476 -1.1863186 6.5724836e-39
2.5051737 -0.12833028 -1.1202606 2.6675776e-39
2.5214546 -0.12933211 -1.1435649 1.5655222e-39
2.5051737 -0.11352294 -1.1202606 9.0373325e-39
2.5212362 -0.11142459 -1.1445355 9.5865589e-39
2.5544474 -0.098152287 -1.144987 9.1291652e-39
2.5884335 -0.096812844 -1.1465498 8.1146602e-39
2.6089394 -0.092444032 -1.1556331 5.6232664e-39
2.6445258 -0.093583487 -1.15464 6.0863829e-39
2.5517178 -0.068415418 -1.1475523 2.2094651e-39
2.5873148 -0.071335778 -1.151521 1.7506394e-39
2.6100669 -0.071900919 -1.1506226 3.5923884e-39
2.648484 -0.079817742 -1.1545113 3.3175839e-39
2.5636668 -0.050532106 -1.1518435 2.8519507e-39
2.6084886 -0.041086238 -1.1576372 1.7509939e-39
2.6315145 -0.041423853 -1.1600776 2.1165506e-39
2.5116754 -0.11352294 -1.0913684 9.5872679e-39
2.528007 -0.11440918 -1.1144472 9.6798097e-39
2.6349249 -0.10355963 -1.1449226 1.0969094e-38
2.6349249 -0.062135782 -1.1449226 3.6838847e-39
2.6349249 -0.051779814 -1.1449226 3.13179e-39
2.4963682 -0.1126367 -1.0637374 1.1426174e-38
2.5334673 -0.11440918 -1.0901825 8.753592e-39
2.4434021 -0.11489175 -1.0258131 1.2622887e-38
2.4610734 -0.10612477 -1.0383829 1.2167706e-38
2.4819303 -0.10693211 -1.0367985 1.0515744e-38
2.5203443 -0.098715596 -1.0528456 1.0315154e-38
2.4465549 -0.11489175 -1.0118021 1.196925e-38
