# .PCD v0.7 - Point Cloud Data file format
VERSION 0.7
FIELDS x y z rgb
SIZE 4 4 4 4
TYPE F F F F
COUNT 1 1 1 1
WIDTH 249
HEIGHT 1
VIEWPOINT 0 0 0 1 0 0 0
POINTS 249
DATA ascii
2.1650043 -0.25372845 -1.3671435 7.1970171e-39
2.1671002 -0.19586056 -1.3584909 8.7568318e-39
2.1801753 -0.1882679 -1.3767235 6.544466e-39
2.2006905 -0.19706422 -1.3795329 8.3948778e-39
2.0950224 -0.16448073 -1.3714542 4.3436707e-39
2.1995966 -0.17152293 -1.3687561 1.1165447e-38
2.1671002 -0.12463854 -1.3584909 8.7759427e-39
2.1671002 -0.11573578 -1.3584909 6.089285e-39
2.1822858 -0.10309909 -1.3680104 7.2939533e-39
2.1953464 -0.10381651 -1.3863037 4.7016688e-39
2.1822858 -0.076203674 -1.3680104 1.0519378e-38
2.1953464 -0.072220184 -1.3863037 3.3209568e-39
2.180439 -0.043705046 -1.3756344 8.7644212e-39
2.1801753 -0.023907034 -1.3767235 1.10733e-38
2.1970465 -0.021666054 -1.3792846 1.1708984e-38
2.1712916 -0.27598533 -1.3411858 9.1338315e-39
2.1843963 -0.27791929 -1.3592972 8.854393e-39
2.2038472 -0.27985322 -1.3512084 9.2224356e-39
2.1367285 -0.25456148 -1.3394517 7.2884812e-39
2.1647825 -0.25372171 -1.3379707 8.2133886e-39
2.1640198 -0.22640413 -1.3441281 7.8402747e-39
2.1733875 -0.19586056 -1.3325332 1.0160306e-38
2.1860847 -0.19902606 -1.3523266 9.9662014e-39
2.2024302 -0.18355964 -1.3570576 1.0524434e-38
2.1618469 -0.15358655 -1.332036 1.1809741e-38
2.1886172 -0.16137248 -1.3418709 1.2461597e-38
2.2038472 -0.17152293 -1.3512083 1.0140562e-38
2.1347015 -0.14019817 -1.3308277 1.0983233e-38
2.1623044 -0.13046291 -1.3370254 1.1444592e-38
2.1886172 -0.14344221 -1.3418709 1.4031797e-38
2.1691959 -0.11573578 -1.3498384 8.6790233e-39
2.1865067 -0.10907584 -1.350584 7.754242e-39
2.2027845 -0.099302754 -1.3555954 1.0616637e-38
2.1691959 -0.062319268 -1.3498384 1.3007609e-38
2.1865067 -0.078693986 -1.350584 1.0887814e-38
2.2038472 -0.069211006 -1.3512083 1.0510773e-38
2.1723397 -0.035611011 -1.3368596 1.3106644e-38
2.1858032 -0.046319876 -1.3534884 1.1622149e-38
2.2049096 -0.05416514 -1.3468215 1.1182045e-38
2.172689 -0.023740673 -1.3354175 1.282537e-38
2.2017219 -0.018055046 -1.3599821 1.3378548e-38
2.1623197 -0.27405137 -1.3060117 9.7709613e-39
2.1907277 -0.27791929 -1.3331577 9.4050431e-39
2.1781032 -0.25372845 -1.3130649 8.0265059e-39
2.1922352 -0.25742754 -1.326934 7.9404087e-39
2.1662147 -0.22283474 -1.3121521 7.2893024e-39
2.1728568 -0.19735414 -1.3202827 9.9658469e-39
2.1936824 -0.19723304 -1.3209592 1.1072571e-38
2.2080975 -0.18055046 -1.3336608 1.1457892e-38
2.1711004 -0.16284281 -1.3179041 1.1076907e-38
2.1960042 -0.16286667 -1.3113747 1.2083477e-38
2.2088058 -0.16851376 -1.3307362 1.309079e-38
2.170799 -0.13314618 -1.3111253 1.3659085e-38
2.1623199 -0.1060844 -1.3060118 1.0429387e-38
2.1707282 -0.078746788 -1.3074056 1.0883878e-38
2.1914313 -0.071721107 -1.3302534 1.0614839e-38
2.1694522 -0.043072611 -1.3075155 1.1350614e-38
2.1907277 -0.044825688 -1.3331577 1.1326862e-38
2.1680422 -0.018824771 -1.3094679 1.2275801e-38
2.1429656 -0.27120733 -1.2797184 1.0512837e-38
2.1685634 -0.25637063 -1.280236 7.9371717e-39
2.2033908 -0.25998902 -1.2808787 8.4863756e-39
2.1723905 -0.22581924 -1.2824895 9.4108809e-39
2.1790602 -0.19617082 -1.2828554 1.0520098e-38
2.1824777 -0.16454495 -1.2859781 1.1998842e-38
2.1835175 -0.1305737 -1.2907127 1.2733891e-38
2.1998732 -0.14045383 -1.2954006 1.2920796e-38
2.1719608 -0.10625769 -1.2822572 1.2828592e-38
2.1685634 -0.075143121 -1.2802359 1.2087437e-38
2.1787705 -0.048871562 -1.2862388 1.1349521e-38
2.1773732 -0.023678288 -1.2920072 1.3654409e-38
2.1615257 -0.27211744 -1.2370764 1.0702261e-38
2.2261615 -0.28436697 -1.2590834 1.1436228e-38
2.1615257 -0.24578348 -1.2370764 9.322948e-39
2.1898057 -0.2557202 -1.2557245 6.9248162e-39
2.2107775 -0.26895416 -1.2503824 1.0702301e-38
2.1615257 -0.22822751 -1.2370764 7.9338618e-39
2.1748068 -0.22606082 -1.2544602 8.6729193e-39
2.1845686 -0.1995945 -1.2502643 1.0055488e-38
2.2097223 -0.19125628 -1.254739 1.0148414e-38
2.2250988 -0.18506423 -1.2634703 1.0333883e-38
2.1727254 -0.15028623 -1.2630521 7.0191629e-39
2.2104259 -0.16436087 -1.2518346 1.0522598e-38
2.1594594 -0.14922568 -1.2456076 7.193518e-39
2.1850646 -0.13317321 -1.2554395 7.7452443e-39
2.2107775 -0.14344221 -1.2503824 2.7598854e-39
2.1765137 -0.10617451 -1.2554371 8.4889344e-39
2.1606991 -0.077246234 -1.2404889 9.5045114e-39
2.1739149 -0.073248751 -1.2581426 8.857368e-39
2.1922498 -0.044513762 -1.2546604 9.4051005e-39
2.1768878 -0.0265211 -1.2458683 1.3374943e-38
2.1985373 -0.27598533 -1.2287027 1.1248956e-38
2.1969984 -0.25266349 -1.2278357 8.9513334e-39
2.217109 -0.25102386 -1.2242429 1.0610119e-38
2.1868818 -0.22227097 -1.2286805 7.1959955e-39
2.2160537 -0.23309359 -1.2285995 7.0072967e-39
2.1931741 -0.19736066 -1.2267739 1.0333887e-38
2.190213 -0.15963954 -1.2229513 1.0336059e-38
2.2139432 -0.17930275 -1.2373127 1.0886346e-38
2.1988368 -0.13099764 -1.2274667 9.1307024e-39
2.2167573 -0.14045383 -1.2256951 8.6826639e-39
2.1820908 -0.10608441 -1.2243886 1.1072542e-38
2.1635921 -0.074612841 -1.2285451 8.4882085e-39
2.1911104 -0.0764319 -1.2260367 1.1442062e-38
2.1919589 -0.043523673 -1.2269771 1.0608719e-38
2.2397609 -0.039207339 -1.228425 8.2998838e-39
2.1677251 -0.017555963 -1.2114825 1.3468952e-38
2.1816447 -0.021469463 -1.2262295 1.3101233e-38
2.2440767 -0.27357799 -1.2042365 1.1708161e-38
2.2032528 -0.25595415 -1.2092345 1.0610115e-38
2.2208023 -0.25550643 -1.2089949 9.3190412e-39
2.2443423 -0.25210458 -1.2031397 1.504199e-38
2.2034276 -0.21960123 -1.2085134 9.5924023e-39
2.2209783 -0.22412844 -1.2082688 9.9690979e-39
2.246393 -0.22630733 -1.2042311 1.4583536e-38
2.1986318 -0.19541347 -1.2042418 8.4939833e-39
2.2223854 -0.19723304 -1.2024599 1.5496507e-38
2.2482204 -0.19664903 -1.2007819 1.5779557e-38
2.1982272 -0.16600734 -1.2010983 9.4090872e-39
2.2236516 -0.16495854 -1.1972321 1.1349133e-38
2.2456706 -0.16051927 -1.197656 1.1166896e-38
2.202729 -0.12463854 -1.2113976 9.0474695e-39
2.2202747 -0.13447708 -1.2111732 7.9339361e-39
2.2490861 -0.13597065 -1.2069187 8.5828788e-39
2.2770681 -0.13739449 -1.2018403 8.7658352e-39
2.1973932 -0.1047655 -1.2045411 8.3023627e-39
2.2216818 -0.10758165 -1.2053643 1.3750788e-38
2.2461505 -0.1056 -1.2020466 7.5655025e-39
2.2031481 -0.078344218 -1.2096671 1.0152382e-38
2.2213299 -0.076203674 -1.2068166 8.3999309e-39
2.2429261 -0.070996597 -1.2007941 8.2115866e-39
2.2037768 -0.053416517 -1.2070713 9.7839486e-39
2.2510235 -0.045362197 -1.2099653 1.0240239e-38
2.2770681 -0.05037798 -1.2018403 7.8456725e-39
2.1697915 -0.013166972 -1.2029512 1.3103358e-38
2.1950111 -0.022194497 -1.2071532 8.3945779e-39
2.2515407 -0.02118165 -1.2137761 9.8721813e-39
2.2738338 -0.009159633 -1.2151936 1.0147682e-38
2.2913172 0 -1.2194737 7.5780932e-39
2.2606466 -0.27280733 -1.1931732 1.1695894e-38
2.3316514 -0.27148259 -1.2101264 1.3730603e-38
2.261503 -0.25643888 -1.1896379 1.5501154e-38
2.2792244 -0.24731009 -1.1929381 1.6977367e-38
2.3161597 -0.24822228 -1.1933727 1.2365052e-38
2.3338552 -0.26212111 -1.2010281 8.7726777e-39
2.2606466 -0.22733945 -1.1931732 1.485618e-38
2.2895207 -0.22261432 -1.1963065 1.5499021e-38
2.3167458 -0.22416331 -1.1909539 9.9622316e-39
2.2613602 -0.19248073 -1.190227 1.5503331e-38
2.2931807 -0.19568257 -1.1926653 1.5778797e-38
2.3170192 -0.19744955 -1.1898252 7.0109218e-39
2.3360589 -0.1919101 -1.1919297 8.7661799e-39
2.2598298 -0.16220602 -1.185622 1.2549469e-38
2.2875834 -0.16529174 -1.1839148 1.2550144e-38
2.3175662 -0.16957431 -1.1875675 7.2889016e-39
2.3458686 -0.16913395 -1.1917853 5.5328518e-39
2.2627873 -0.14549725 -1.1843351 8.9512984e-39
2.2857671 -0.1365055 -1.1850418 9.1346093e-39
2.3186598 -0.14402202 -1.1830522 4.7956581e-39
2.2610748 -0.1054855 -1.1914055 7.9371605e-39
2.2866266 -0.10711926 -1.1878641 8.3062919e-39
2.3164725 -0.097563304 -1.1920828 8.3052143e-39
2.2630932 -0.070150457 -1.1830724 7.7531224e-39
2.2808416 -0.08014679 -1.1862614 8.2130285e-39
2.2617171 -0.036374312 -1.1887541 8.7643946e-39
2.2908237 -0.05151853 -1.1909268 8.1204573e-39
2.3173475 -0.044600368 -1.1884705 7.8453194e-39
2.3338552 -0.037445873 -1.2010281 7.3864978e-39
2.2606466 -0.027280733 -1.1931732 9.5970111e-39
2.3000047 -0.0092256879 -1.1836082 9.5030401e-39
2.3186598 -0.018583488 -1.1830522 8.6732626e-39
2.3338552 -0.028084405 -1.2010281 8.0293169e-39
2.3349571 0 -1.1964788 1.014624e-38
2.3215764 -0.24468257 -1.1710113 8.0271911e-39
2.3426704 -0.24339817 -1.1646346 7.3825322e-39
2.3223052 -0.22609909 -1.1680011 7.8435159e-39
2.343111 -0.21905835 -1.162815 6.9208422e-39
2.3443971 -0.1959336 -1.1736481 8.1208189e-39
2.3874285 -0.19998409 -1.1695893 7.1037859e-39
2.4177072 -0.19777799 -1.1861798 7.4707859e-39
2.4372439 -0.20414312 -1.1904798 6.6471223e-39
2.3208473 -0.15795964 -1.1740216 3.9640548e-39
2.3483913 -0.17249633 -1.1712823 4.1531502e-39
2.3880069 -0.1593148 -1.1752923 6.2725623e-39
2.2856932 -0.12823486 -1.1662314 4.7102966e-39
2.3208473 -0.14402202 -1.1740216 3.2304498e-39
2.3404665 -0.13418104 -1.173733 4.7952504e-39
2.3954992 -0.13388135 -1.1787478 6.2765293e-39
2.4188428 -0.14471559 -1.1814915 9.4129968e-39
2.3462827 -0.1032318 -1.1766243 3.9672988e-39
2.3870556 -0.10477921 -1.1711283 9.0431241e-39
2.2506011 -0.063192658 -1.1581846 8.0311582e-39
2.2911875 -0.073431194 -1.1690348 5.0761911e-39
2.3208473 -0.069688082 -1.1740216 5.0689716e-39
2.3442736 -0.07737156 -1.1781931 3.5992393e-39
2.396497 -0.078988068 -1.1887876 3.7822405e-39
2.4180856 -0.080397554 -1.184617 1.0421405e-38
2.3208473 -0.055750459 -1.1740216 7.4776229e-39
2.3459125 -0.043791439 -1.178152 7.1970843e-39
2.3021765 -0.018451376 -1.1746417 8.5796418e-39
2.3208473 -0.013937616 -1.1740216 8.1197385e-39
2.3516328 -0.020888481 -1.1724713 6.4609542e-39
2.3798037 -0.009500917 -1.1727492 6.367695e-39
2.3393648 0 -1.1782821 8.3005102e-39
2.3940635 0.0057445867 -1.1818435 8.0242988e-39
2.3514855 -0.24339817 -1.1282411 2.5765717e-39
2.3274095 -0.23229358 -1.1469297 5.9063203e-39
2.3580265 -0.22432432 -1.1415919 4.5251935e-39
2.3678894 -0.19805504 -1.1412274 6.4551865e-39
2.3915377 -0.19365014 -1.1526248 7.1956032e-39
2.4026952 -0.17233761 -1.1631982 1.1155674e-38
2.421114 -0.15918715 -1.172115 1.0974183e-38
2.4026952 -0.12446605 -1.1631982 8.9487817e-39
2.421114 -0.13989174 -1.172115 9.5938008e-39
2.4038222 -0.10053027 -1.1585456 1.0238434e-38
2.421114 -0.11577248 -1.172115 9.3125027e-39
2.4441092 -0.097211003 -1.162136 5.1759747e-39
2.4218709 -0.083613455 -1.1689894 1.1531338e-38
2.4441092 -0.087489903 -1.162136 4.7131889e-39
2.4850364 -0.078972481 -1.1673309 3.9680442e-39
2.5036559 -0.079588987 -1.1796668 4.8971514e-39
2.3317842 -0.037166975 -1.1288686 6.9208436e-39
2.3470778 -0.037445873 -1.1464379 8.3977729e-39
2.3570533 -0.018777166 -1.141127 6.0935968e-39
2.3492818 0 -1.1373395 6.457706e-39
2.3394401 -0.25087705 -1.0972614 1.1439459e-38
2.3553421 -0.24573854 -1.1123189 7.7466442e-39
2.3597908 -0.22505482 -1.1118891 4.3418869e-39
2.3675907 -0.19757473 -1.115556 4.4301168e-39
2.4698639 -0.076723546 -1.1407659 9.4144612e-39
2.4889097 -0.08390826 -1.1513406 9.5941847e-39
2.3350654 -0.041812845 -1.1153226 5.3553003e-39
2.356334 -0.041190464 -1.1082246 4.8925411e-39
2.411711 -0.057445873 -1.1259772 3.0443602e-39
2.434741 -0.057886239 -1.1158556 1.0722123e-38
2.4509747 -0.058326606 -1.1337923 6.7494297e-39
2.3558934 -0.018722937 -1.1100444 5.3546025e-39
2.336159 0 -1.1108073 2.9647202e-39
2.3603008 -0.24339817 -1.0918475 6.1760913e-39
2.369987 -0.22438054 -1.0841417 4.5248544e-39
2.3794663 -0.19940236 -1.0934324 4.7092387e-39
2.3999333 -0.19951928 -1.0896441 5.0787176e-39
2.4722714 -0.07821732 -1.111948 1.4298288e-38
2.3786204 -0.04401223 -1.0969243 5.6247336e-39
2.4659741 -0.058546789 -1.1143456 1.5228538e-38
2.4993672 -0.059229359 -1.1081671 1.1627183e-38
2.3778803 -0.023577981 -1.0999796 5.5382931e-39
2.4624169 -0.097211003 -1.0865529 1.3457684e-38
2.4633324 -0.079713024 -1.0827737 1.2545133e-38
