# .PCD v0.7 - Point Cloud Data file format
VERSION 0.7
FIELDS x y z rgb
SIZE 4 4 4 4
TYPE F F F F
COUNT 1 1 1 1
WIDTH 108
HEIGHT 1
VIEWPOINT 0 0 0 1 0 0 0
POINTS 108
DATA ascii
2.5204003 -0.21728808 -1.3441107 9.9664607e-39
2.5156691 -0.19373503 -1.3460048 9.6790964e-39
2.5196607 -0.16844036 -1.3473973 9.3060007e-39
2.5423446 -0.16101505 -1.3513591 8.3872884e-39
2.5204003 -0.12127706 -1.3441107 6.0777411e-39
2.5418971 -0.13451889 -1.3533475 8.6620718e-39
2.5204003 -0.11117064 -1.3441107 5.8965939e-39
2.5420089 -0.10190826 -1.3528504 7.8244008e-39
2.5237286 -0.21223487 -1.329321 1.0418067e-38
2.5481615 -0.21400735 -1.3255094 6.3644034e-39
2.5672212 -0.2311101 -1.3410208 1.3819619e-38
2.5203042 -0.1929 -1.3206244 9.2170449e-39
2.5259473 -0.17180917 -1.3194611 1.0226168e-38
2.5477142 -0.1569387 -1.3274978 9.0308725e-39
2.5033836 -0.1203523 -1.3240769 9.6700762e-39
2.5481613 -0.14267156 -1.3255093 9.313925e-39
2.5677848 -0.13096239 -1.3385156 8.47734e-39
2.5237286 -0.11117064 -1.329321 9.0351479e-39
2.5481617 -0.096812837 -1.3255094 1.0869696e-38
2.547714 -0.077450275 -1.327498 1.0874019e-38
2.5689123 -0.06419725 -1.3335052 9.4907423e-39
2.5683486 -0.041086238 -1.3360105 9.4907479e-39
2.5683486 -0.020543119 -1.3360105 9.2163176e-39
2.5917268 -0.010355963 -1.3368853 8.9343203e-39
2.6007919 0.010355963 -1.3358889 9.2152484e-39
2.6151421 0.031321101 -1.3375957 9.3056391e-39
2.6615946 0.042466052 -1.3498057 1.0869722e-38
2.5178859 -0.2144991 -1.2915158 7.1919934e-39
2.4919684 -0.19897246 -1.2745947 9.586912e-39
2.5243232 -0.1881523 -1.2947944 9.4925668e-39
2.5318112 -0.16459028 -1.2934029 1.0138658e-38
2.5548735 -0.16305321 -1.2956828 9.5815198e-39
2.5337131 -0.14148991 -1.2849516 1.0050432e-38
2.5526361 -0.14267156 -1.305625 9.3150152e-39
2.5337131 -0.10106421 -1.2849516 9.4025221e-39
2.5548735 -0.095793761 -1.2956828 9.3996256e-39
2.5537548 -0.081526607 -1.3006539 7.9291647e-39
2.5754359 -0.068966188 -1.304516 8.8453855e-39
2.5751138 -0.041086238 -1.3059475 8.8468218e-39
2.6008213 -0.041423853 -1.2964722 9.2202959e-39
2.5728586 -0.020543119 -1.3159685 8.9415426e-39
2.5985479 -0.015533946 -1.3065755 9.0301341e-39
2.5985479 0.010355963 -1.3065755 9.6758594e-39
2.5985477 0.036245871 -1.3065755 1.0502731e-38
2.4941525 -0.19399816 -1.2648889 9.5872553e-39
2.5359321 -0.1819156 -1.2750918 9.2098478e-39
2.5359321 -0.15664954 -1.2750918 1.0693931e-38
2.5209301 -0.13196854 -1.2597688 7.8326643e-39
2.5381508 -0.10611743 -1.2652318 9.8555787e-39
2.5615852 -0.091717429 -1.2658561 7.0968971e-39
2.5615854 -0.081526607 -1.2658563 3.2150033e-39
2.5811272 -0.071900912 -1.279225 7.2776884e-39
2.5821607 -0.041086238 -1.2746321 6.265347e-39
2.5830064 -0.015407339 -1.2708741 7.2823561e-39
2.5827808 0.014380184 -1.2718762 9.2112673e-39
2.6030948 0.0051779817 -1.286369 9.8613269e-39
2.5627043 0.030572476 -1.2608851 9.5850763e-39
2.5796239 0.03595046 -1.2859056 1.0776089e-38
2.4835014 -0.12833028 -1.2165679 2.7586746e-39
2.500705 -0.12933211 -1.2357711 1.4751399e-39
2.5014329 -0.11606728 -1.2325357 6.7209287e-39
2.5368655 -0.10415045 -1.2390597 9.5876056e-39
2.567179 -0.091717429 -1.2410008 5.4424106e-39
2.590899 -0.092444032 -1.2358007 5.5378376e-39
2.5660603 -0.081526607 -1.2459719 7.4042649e-40
2.5705349 -0.030572476 -1.2260875 2.3966996e-39
2.5881929 -0.036977615 -1.247826 2.5793e-39
2.5682974 -0.020381652 -1.2360296 2.5782238e-39
2.588644 -0.010271559 -1.2458217 2.7604613e-39
2.5883219 0.010271559 -1.2472533 2.4853177e-39
2.6121891 0.010355963 -1.2459556 2.5796672e-39
2.5863891 0.030814679 -1.2558427 4.5921714e-39
2.6106732 0.034519877 -1.2526911 4.5121937e-39
2.5750093 -0.030572476 -1.206203 3.2199877e-39
2.5931542 -0.041086238 -1.2257799 2.3949144e-39
2.5750096 -0.016305322 -1.2062031 7.2834155e-39
2.5954092 -0.010271559 -1.2157589 9.199034e-40
2.5761282 0.015286239 -1.201232 6.8192606e-39
2.5949581 0.0061629354 -1.2177631 4.3310464e-39
2.5817215 -0.035667889 -1.1763765 1.6598745e-39
2.6033018 -0.030814679 -1.1806855 2.7608074e-39
2.5802298 -0.01698471 -1.1830045 1.471184e-39
2.5586746 0.017686239 -1.1740282 6.0809515e-39
2.5802298 0.003396942 -1.1830045 4.3259989e-39
2.5452192 -0.1203523 -1.1381681 6.8199192e-39
2.5051737 -0.10858716 -1.1202606 1.2350287e-38
2.5225465 -0.10694771 -1.138712 1.0231547e-38
2.5555568 -0.095644951 -1.1400571 8.6645941e-39
2.5884335 -0.096812844 -1.1465498 8.6646096e-39
2.6564002 -0.093963303 -1.154254 6.4519523e-39
2.5437512 -0.063519262 -1.1446912 2.9441309e-39
2.6089394 -0.061629359 -1.1556331 3.2257414e-39
2.6533442 -0.073082566 -1.1678349 3.685293e-39
2.6788094 -0.073699087 -1.1639912 3.7764167e-39
2.5538969 -0.050339445 -1.1474332 2.3034348e-39
2.5861962 -0.040763304 -1.156492 1.8410357e-39
2.6089394 -0.051357798 -1.1556331 2.6693376e-39
2.6461921 -0.045100916 -1.1646969 2.3934878e-39
2.5605195 -0.12081468 -1.1180041 6.8191962e-39
2.5269148 -0.10943487 -1.1193002 1.1247538e-38
2.5583665 -0.10723671 -1.111629 1.1246798e-38
2.5940268 -0.096812844 -1.1216943 8.6610292e-39
2.4589553 -0.12542018 -1.0477952 1.2910939e-38
2.4776618 -0.11665321 -1.0557663 1.2164791e-38
2.5170934 -0.10858716 -1.0672916 1.1706373e-38
2.5351055 -0.10694771 -1.082903 9.9542498e-39
2.4610734 -0.12542018 -1.0383829 1.399823e-38
2.4874649 -0.11368195 -1.042569 1.2164773e-38
