# .PCD v0.7 - Point Cloud Data file format
VERSION 0.7
FIELDS x y z rgb
SIZE 4 4 4 4
TYPE F F F F
COUNT 1 1 1 1
WIDTH 112
HEIGHT 1
VIEWPOINT 0 0 0 1 0 0 0
POINTS 112
DATA ascii
4.090817 -0.22071192 -1.389192 4.6840377e-39
4.0890865 -0.19706422 -1.3968823 9.2152834e-39
4.0890865 -0.16553394 -1.3968823 1.059501e-38
4.0896635 -0.13663119 -1.3943188 1.124721e-38
4.1422377 -0.10376146 -1.4066539 1.2443232e-38
4.1410694 -0.069174312 -1.4118452 1.2073352e-38
4.1422377 -0.039908256 -1.4066539 1.0873015e-38
4.1422377 -0.015963303 -1.4066539 1.104658e-38
4.1410694 0.010642202 -1.4118452 1.1524113e-38
4.1422377 0.031926606 -1.4066539 1.243855e-38
4.1979299 0.043116823 -1.4142463 1.1802509e-38
4.0960088 -0.22071192 -1.3661212 7.5618844e-39
4.0960088 -0.19706422 -1.3661213 9.9474479e-39
4.0960088 -0.16553394 -1.3661213 1.3177902e-38
4.0437665 -0.14013578 -1.3568627 1.2541896e-38
4.0965858 -0.13137615 -1.3635578 1.2726637e-38
4.0960088 -0.11035596 -1.3661212 1.2538649e-38
4.1474948 -0.095779814 -1.3832932 1.3089301e-38
4.1474948 -0.071834862 -1.3832932 1.2263514e-38
4.1474948 -0.039908256 -1.3832932 1.2077316e-38
4.1474948 -0.015963303 -1.3832932 1.2622946e-38
4.1474948 0.0079816515 -1.3832932 1.1617773e-38
4.2026629 0.032337617 -1.3932139 1.1247927e-38
4.0506034 -0.18684772 -1.3264811 7.6234854e-39
4.1012006 -0.20494679 -1.3430505 8.1279193e-39
4.0506034 -0.17127708 -1.3264811 1.051098e-38
4.103508 -0.16290642 -1.3327968 4.4192694e-39
4.1012006 -0.13400367 -1.3430505 1.2346647e-38
4.1562562 -0.13568807 -1.3443586 4.1506012e-39
4.102354 -0.10510091 -1.3379236 9.3084768e-39
4.1562562 -0.095779814 -1.3443586 9.2226458e-41
4.1545038 -0.071834862 -1.3521454 7.465674e-39
4.1545038 -0.039908256 -1.3521454 8.9357678e-39
4.1046615 -0.015765138 -1.32767 5.9697669e-39
4.1527519 -0.015963303 -1.3599323 1.8719629e-38
4.102931 0.015765138 -1.3353602 1.326146e-38
4.1545038 0 -1.3521454 1.2984504e-38
4.1046615 0.031530276 -1.32767 1.1517603e-38
4.1527519 0.031926606 -1.3599323 1.6230405e-38
4.0551615 -0.19203793 -1.3062268 3.685691e-39
4.1104302 -0.19969173 -1.3020358 4.0548281e-39
4.1098533 -0.16553394 -1.3045992 2.6697104e-39
4.1098533 -0.13400367 -1.3045992 4.0515658e-39
4.1104302 -0.099845864 -1.3020358 2.7626361e-39
4.159761 -0.11174311 -1.3287847 3.0374335e-39
4.1609292 -0.069174312 -1.3235934 3.0399391e-39
4.1615133 -0.039908256 -1.3209977 2.5796658e-39
4.1081228 -0.015765138 -1.3122895 1.3797017e-39
4.1632657 -0.015963303 -1.3132108 2.7604753e-39
4.1081228 0 -1.3122895 1.6541263e-39
4.1620975 0.010642202 -1.3184021 2.3016565e-39
4.1098533 0.031530276 -1.3045992 3.3129176e-39
4.1702747 -0.22348623 -1.2820631 4.7001694e-39
4.1167755 -0.19706422 -1.2738382 3.9683834e-39
4.1167755 -0.16553394 -1.2738382 6.1829492e-39
4.1167755 -0.13400367 -1.2738382 6.3666398e-39
4.1167755 -0.11035596 -1.2738382 6.0875012e-39
4.1150451 -0.039412845 -1.2815285 6.4326466e-40
4.1150451 -0.015765138 -1.2815285 1.5669628e-39
4.1667705 0 -1.297637 2.761197e-39
4.2204118 0.016168809 -1.3143423 2.9463183e-39
4.1737795 -0.22348623 -1.2664893 2.7658563e-39
4.1219673 -0.19706422 -1.2507674 1.1703457e-38
4.1219673 -0.16553394 -1.2507674 1.908956e-38
4.1737795 -0.14366972 -1.2664893 1.8073988e-38
4.2292862 -0.12935047 -1.2749064 1.724528e-38
4.1737795 -0.11174311 -1.2664893 1.6700063e-38
4.2298779 -0.10240245 -1.2722774 1.325999e-38
4.1755319 -0.071834855 -1.2587024 1.4836364e-38
4.2857971 -0.032755964 -1.2834104 3.306438e-39
4.0745325 -0.18684772 -1.2201458 1.9458955e-38
4.1277356 -0.19969173 -1.2251332 3.9600821e-39
4.1842933 -0.20752293 -1.2197678 1.9339614e-39
4.0745325 -0.16349176 -1.2201458 1.7889119e-38
4.1288896 -0.16553394 -1.2200063 4.5964411e-40
4.1842933 -0.16761467 -1.2197678 1.180281e-38
4.0745325 -0.14013578 -1.2201458 1.6409317e-38
4.1825409 -0.14366972 -1.2275547 3.2229234e-39
4.2363858 -0.12935047 -1.2433578 4.2248644e-39
4.180789 -0.11174311 -1.2353417 3.2147342e-39
4.2369771 -0.10240245 -1.2407287 1.3002493e-38
4.1842933 -0.071834862 -1.2197678 1.6141809e-38
4.2346106 -0.080844037 -1.2512449 1.4122877e-38
4.2893929 -0.065511927 -1.2674321 1.336809e-38
4.2381606 -0.048506424 -1.2354707 8.5411622e-39
4.2911906 -0.032755964 -1.2594428 5.0718611e-39
4.3451371 -0.049772475 -1.2839034 8.4012607e-39
4.3487797 -0.016590826 -1.2677172 4.7044826e-39
4.3469582 0 -1.2758102 1.6580836e-39
4.1323504 -0.18918166 -1.2046258 5.33256e-39
4.187798 -0.19954127 -1.2041939 4.3260326e-39
4.187798 -0.16761467 -1.2041939 1.5302293e-38
4.187798 -0.14366972 -1.2041939 9.1266667e-39
4.243485 -0.13743487 -1.211809 9.9377383e-39
4.30018 -0.13102385 -1.2194968 8.6490986e-39
4.2417102 -0.10509725 -1.2196963 1.8437677e-38
4.2417102 -0.072759636 -1.2196963 1.4462161e-38
4.243485 -0.048506424 -1.211809 1.2537852e-38
4.2983823 -0.032755964 -1.227486 1.5201817e-38
4.3542433 -0.016590826 -1.2434381 7.848164e-39
4.4101844 0 -1.2681408 6.4320861e-40
4.1392727 -0.18918166 -1.1738648 1.1886364e-38
4.1913028 -0.20752293 -1.1886201 7.4700391e-39
4.1930552 -0.16761467 -1.1808332 1.5758214e-38
4.1948075 -0.14366972 -1.1730462 1.1244624e-38
4.1913028 -0.063853212 -1.1886201 6.2451739e-39
4.2488098 -0.064675234 -1.1881475 5.9696674e-39
4.2511764 -0.043116823 -1.1776314 1.3913578e-38
4.3037758 -0.032755964 -1.2035184 1.6487856e-38
4.2523594 -0.016168809 -1.1723733 1.2085504e-38
4.3037758 -0.016377982 -1.2035184 1.2540038e-38
4.1983118 -0.063853212 -1.1574724 5.2349834e-39
