# .PCD v0.7 - Point Cloud Data file format
VERSION 0.7
FIELDS x y z rgb
SIZE 4 4 4 4
TYPE F F F F
COUNT 1 1 1 1
WIDTH 103
HEIGHT 1
VIEWPOINT 0 0 0 1 0 0 0
POINTS 103
DATA ascii
3.3111334 -0.36435962 -1.4087477 1.2810487e-38
3.347945 -0.31885412 -1.4138484 1.1798544e-38
3.2760406 -0.27693579 -1.4007143 1.0046794e-38
3.3096409 -0.25375044 -1.4150805 1.3453362e-38
3.3486991 -0.26297247 -1.4106489 1.4201375e-38
3.2745631 -0.21897247 -1.4069829 1.4460346e-38
3.3101385 -0.22989357 -1.4129696 1.5119034e-38
3.2765329 -0.19750459 -1.3986247 1.391617e-38
3.3091435 -0.19085504 -1.4171916 1.3825784e-38
3.2765329 -0.16315596 -1.3986248 1.346057e-38
3.2775178 -0.13524771 -1.3944457 1.4180195e-38
3.2819502 -0.36066055 -1.3756398 1.2626457e-38
3.3200889 -0.37086606 -1.3707502 1.290053e-38
3.3517153 -0.38131011 -1.397851 1.3084545e-38
3.2804728 -0.34777981 -1.3819084 1.2075841e-38
3.3171039 -0.34700918 -1.3834161 1.2258787e-38
3.3532236 -0.3418642 -1.391452 1.2349931e-38
3.3532236 -0.31556696 -1.391452 1.133794e-38
3.2819502 -0.27693579 -1.3756398 1.2246897e-38
3.3177006 -0.25244915 -1.3808829 1.2631552e-38
3.3171034 -0.22772478 -1.3834159 1.3185083e-38
3.2816544 -0.19063488 -1.3768934 1.2999973e-38
3.3171036 -0.20820551 -1.3834161 1.3176451e-38
3.2819502 -0.16100916 -1.3756398 1.3826134e-38
3.2819502 -0.13524771 -1.3756398 1.4462887e-38
3.3141186 -0.11711559 -1.3960818 1.3290237e-38
3.3260591 -0.37086606 -1.3454186 1.2717921e-38
3.357748 -0.37473577 -1.372255 1.3082761e-38
3.3260591 -0.35134679 -1.3454186 1.133359e-38
3.3587534 -0.34624708 -1.3679891 1.1615573e-38
3.359256 -0.32214129 -1.3658561 1.2075849e-38
3.2550747 -0.26779816 -1.3370981 1.3365833e-38
3.2908146 -0.25761467 -1.3380282 1.3475679e-38
3.3245666 -0.24724403 -1.3517514 1.1519786e-38
3.2908146 -0.21897247 -1.3380282 1.2818439e-38
3.3245666 -0.23423119 -1.3517514 1.3825396e-38
3.2565374 -0.1912844 -1.330892 1.2540085e-38
3.2889152 -0.19321103 -1.3460878 1.2443184e-38
3.253612 -0.15940367 -1.3433043 1.327298e-38
3.2908146 -0.16100916 -1.3380282 1.2719035e-38
3.253612 -0.12752293 -1.3433043 1.4734823e-38
3.289928 -0.13653579 -1.3417892 1.2993473e-38
3.2952468 -0.3735413 -1.3192222 1.4377067e-38
3.3305368 -0.37086606 -1.3264198 1.3548048e-38
3.368305 -0.37473577 -1.3274621 1.143654e-38
3.4055521 -0.37206605 -1.3350738 7.8344902e-39
3.3290443 -0.34484035 -1.3327527 1.0780738e-38
3.366797 -0.3484385 -1.3338611 4.6898026e-39
3.4055521 -0.35877797 -1.3350738 4.1552759e-39
3.3637805 -0.32214129 -1.3466591 1.0598521e-38
3.2594628 -0.26779816 -1.3184798 1.3644936e-38
3.3290443 -0.24724403 -1.3327527 1.0105912e-39
3.3290443 -0.23423119 -1.3327527 1.2882767e-39
3.2631197 -0.19447248 -1.3029646 5.5299441e-39
3.2952468 -0.20609175 -1.3192222 9.1913969e-40
3.2635584 -0.16833027 -1.3011028 2.8562849e-39
3.2982018 -0.15456881 -1.306685 3.8743702e-39
3.296232 -0.1373945 -1.3150432 3.5938765e-39
3.3320293 -0.13012843 -1.3200868 5.3509787e-39
3.3409848 -0.36435962 -1.2820895 6.826794e-39
3.3728294 -0.36816144 -1.3082651 6.8167593e-39
3.3743377 -0.35501283 -1.3018662 2.3931291e-39
3.4116488 -0.34548992 -1.3092064 3.3208335e-39
3.2697017 -0.1912844 -1.2750371 3.2254037e-39
3.3409848 -0.20820551 -1.2820895 3.5949359e-39
3.269702 -0.16577981 -1.2750372 2.213819e-39
3.2711644 -0.14027523 -1.2688309 8.309854e-40
3.3011568 -0.14168808 -1.2941477 4.5107503e-39
3.3365071 -0.13012843 -1.3010881 4.6091075e-39
3.3114986 -0.36066055 -1.2502675 6.6395483e-39
3.3459604 -0.34700918 -1.2609798 3.2239464e-39
3.3788621 -0.3418642 -1.2826692 3.7785607e-39
3.3803701 -0.32871559 -1.2762702 4.9760459e-39
3.2755525 -0.1912844 -1.2502126 3.0395761e-39
3.3114986 -0.20609175 -1.2502675 4.2374116e-39
3.2755527 -0.16577981 -1.2502127 9.6769356e-39
3.2755525 -0.13389908 -1.2502126 9.5919104e-39
3.3129761 -0.1159266 -1.2439989 3.774651e-39
3.3188858 -0.36066055 -1.2189244 6.1817875e-39
3.3499403 -0.36435962 -1.244092 6.087085e-39
3.3509357 -0.34700918 -1.2398701 3.5008878e-39
3.3879111 -0.3418642 -1.2442752 3.3182944e-39
3.3529255 -0.31230825 -1.2314262 2.7604823e-39
3.3864028 -0.32871559 -1.2506742 6.0777187e-39
3.3529255 -0.29929543 -1.2314262 7.2801925e-39
3.2828658 -0.1912844 -1.219182 4.3296031e-39
3.3159308 -0.20609175 -1.2314616 3.5920605e-39
3.2498014 -0.16411009 -1.2069026 4.3307031e-39
3.2806718 -0.16577981 -1.2284912 4.5154335e-39
3.2822809 -0.1351743 -1.2216645 3.9622611e-39
3.3529255 -0.13012843 -1.2314262 6.16845e-39
3.3159308 -0.1159266 -1.2314616 4.0534029e-39
3.351433 -0.11060917 -1.2377591 4.8799056e-39
3.2916422 -0.30605504 -1.1819454 2.8544744e-39
3.3218405 -0.30913761 -1.2063872 2.5789861e-39
3.2916422 -0.2869266 -1.1819454 1.041483e-38
3.3218405 -0.28337616 -1.2063872 1.0782903e-38
3.2916422 -0.26779816 -1.1819454 1.3082084e-38
3.252697 -0.16411009 -1.1946154 3.6882092e-39
3.3559108 -0.11711559 -1.2187604 2.4838828e-39
3.261385 -0.29034865 -1.1577538 7.0075587e-39
3.2945676 -0.28055045 -1.1695333 1.3814216e-38
3.2945676 -0.26779816 -1.1695333 1.3185449e-38
