# .PCD v0.7 - Point Cloud Data file format
VERSION 0.7
FIELDS x y z rgb
SIZE 4 4 4 4
TYPE F F F F
COUNT 1 1 1 1
WIDTH 116
HEIGHT 1
VIEWPOINT 0 0 0 1 0 0 0
POINTS 116
DATA ascii
4.090817 -0.22071192 -1.389192 4.6840335e-39
4.0896635 -0.19443671 -1.3943188 9.0362858e-39
4.0890865 -0.16553394 -1.3968823 1.0412058e-38
4.090817 -0.13400367 -1.389192 1.1987621e-38
4.1422377 -0.10376146 -1.4066539 1.2168095e-38
4.0873561 -0.063060552 -1.4045725 1.3917594e-38
4.1410694 -0.074495412 -1.4118452 1.152018e-38
4.1404853 -0.039908256 -1.4144408 1.2075132e-38
4.1404853 -0.015963303 -1.4144408 1.1049821e-38
4.0890865 0.015765138 -1.3968823 1.1342599e-38
4.1404853 0 -1.4144408 1.0685737e-38
4.1410694 0.037247706 -1.4118452 1.2171635e-38
4.1991134 0.048506424 -1.4089882 1.1801429e-38
4.0977392 -0.22071192 -1.358431 8.0286148e-39
4.045476 -0.18684772 -1.3492672 1.0790864e-38
4.0960088 -0.20494679 -1.3661212 8.5598443e-39
4.0471849 -0.16349176 -1.3416719 1.3364448e-38
4.0942783 -0.16553394 -1.3738115 1.3083199e-38
4.0471849 -0.14013578 -1.3416719 1.3095787e-38
4.0954318 -0.13137615 -1.3686846 1.2540814e-38
4.0960088 -0.11035596 -1.3661212 1.2631206e-38
4.1474948 -0.095779814 -1.3832932 1.3177563e-38
4.1474948 -0.071834862 -1.3832932 1.2173108e-38
4.1474948 -0.039908256 -1.3832932 1.2075523e-38
4.1474948 -0.015963303 -1.3832932 1.1977953e-38
4.0960088 0.015765138 -1.3661212 1.1525949e-38
4.1474948 0 -1.3832932 1.152738e-38
4.0977392 0.031530276 -1.358431 1.1429816e-38
4.1474948 0.039908256 -1.3832932 1.1798562e-38
4.0019159 -0.19229357 -1.3105371 9.2998826e-39
4.0019159 -0.16921835 -1.3105371 1.1146657e-38
4.0506034 -0.15570642 -1.3264811 1.1606905e-38
4.0506034 -0.14013578 -1.3264811 1.2714324e-38
4.103508 -0.13137615 -1.3327968 6.9121737e-39
4.103508 -0.10510091 -1.3327968 4.6087011e-39
4.1527519 -0.095779814 -1.3599323 1.4198407e-38
4.1545038 -0.071834862 -1.3521454 8.1085281e-39
4.1545038 -0.039908256 -1.3521454 9.2112967e-39
4.1046615 -0.015765138 -1.32767 6.7962821e-39
4.1527519 -0.015963303 -1.3599323 1.8351925e-38
4.103508 0.010510092 -1.3327968 1.2061116e-38
4.1527519 0 -1.3599323 1.7798043e-38
4.102931 0.039412845 -1.3353602 1.3462007e-38
4.0086708 -0.21536879 -1.2805208 4.7862961e-39
4.0064192 -0.18972965 -1.2905263 4.0537477e-39
4.0574403 -0.20241834 -1.2960997 5.3498745e-39
4.0551615 -0.16608685 -1.3062268 1.4715568e-39
4.1098533 -0.15765136 -1.3045992 3.2214464e-39
4.1098533 -0.13400367 -1.3045992 3.5931212e-39
4.1098533 -0.10247339 -1.3045992 2.6700929e-39
4.1104302 -0.073570639 -1.3020358 2.9484553e-39
4.159761 -0.063853212 -1.3287847 3.8689682e-39
4.1104302 -0.036785323 -1.3020358 2.1194219e-39
4.159761 -0.047889907 -1.3287847 2.4864346e-39
4.1098533 -0.015765138 -1.3045992 2.2091218e-39
4.1092763 0.0052550458 -1.3071626 1.5644432e-39
4.1632657 0.015963303 -1.3132108 2.7640822e-39
4.0574403 0.031141285 -1.2960997 2.4799466e-39
4.1115837 0.031530276 -1.296909 3.5920338e-39
4.0120482 -0.21536879 -1.2655126 4.4221644e-39
4.0642772 -0.21798898 -1.2657181 4.6987555e-39
4.0120482 -0.18460183 -1.2655126 3.5902584e-39
4.0631375 -0.19722813 -1.2707818 3.317263e-39
4.0608587 -0.17127708 -1.2809089 2.945577e-39
4.1167755 -0.16553394 -1.2738382 6.1829478e-39
4.1161985 -0.13663119 -1.2764016 4.7038759e-39
4.1702747 -0.12770642 -1.2820631 1.2090997e-38
4.1150451 -0.11035596 -1.2815285 1.0106361e-39
4.1702747 -0.11174311 -1.2820631 1.0157749e-38
4.3378525 -0.09954495 -1.3162754 1.2892005e-38
4.1167755 -0.063060552 -1.2738382 5.2663795e-39
4.1173525 -0.042040367 -1.2712747 5.8126645e-39
4.1667705 -0.031926606 -1.297637 1.1027869e-39
4.1150451 -0.015765138 -1.2815285 1.5684257e-39
4.1667705 0.0079816515 -1.297637 1.2918571e-39
4.0676956 -0.19463304 -1.2505274 5.1654804e-39
4.1219673 -0.18918166 -1.2507674 1.5870996e-38
4.1219673 -0.17341653 -1.2507674 1.9092088e-38
4.1755319 -0.15963301 -1.2587024 1.8163247e-38
4.1749477 -0.13834862 -1.2612979 1.6966169e-38
4.231061 -0.12935047 -1.2670193 1.7425658e-38
4.2292862 -0.11318165 -1.2749064 1.5967471e-38
4.2857971 -0.098267883 -1.2834104 1.3408438e-38
4.231061 -0.064675234 -1.2670193 1.4905504e-38
4.2834001 -0.076430582 -1.2940627 1.4665606e-38
4.2275114 -0.048506424 -1.2827936 1.5040148e-38
4.2857971 -0.049133942 -1.2834104 1.2845022e-38
4.180789 -0.22348623 -1.2353417 4.2409752e-39
4.1277356 -0.19443671 -1.2251332 7.6507953e-39
4.1842933 -0.19954127 -1.2197678 3.952885e-39
4.1271591 -0.17341653 -1.2276967 1.0417736e-38
4.183125 -0.16495411 -1.224959 8.7550059e-39
4.1825409 -0.14366972 -1.2275547 4.6980283e-39
4.2363858 -0.12935047 -1.2433578 4.8677283e-39
4.2369771 -0.10779205 -1.2407287 1.0418496e-38
4.2893929 -0.098267883 -1.2674321 9.3914266e-39
4.2381606 -0.072759636 -1.2354707 1.6509181e-38
4.2893929 -0.07370092 -1.2674321 1.3563245e-38
4.2363858 -0.032337617 -1.2433578 5.1611616e-39
4.2911906 -0.049133942 -1.2594428 8.7492522e-39
4.2381606 -0.016168809 -1.2354707 4.8856467e-39
4.2452602 -0.2263633 -1.2039219 6.5416186e-39
4.187798 -0.19954127 -1.2041939 4.0494359e-39
4.187798 -0.16761467 -1.2041939 1.5763617e-38
4.187798 -0.14366972 -1.2041939 9.5840743e-39
4.2440767 -0.13474007 -1.20918 9.114418e-39
4.2417102 -0.10509725 -1.2196963 1.8069256e-38
4.30018 -0.10645688 -1.2194968 1.5483745e-38
4.2428937 -0.070064835 -1.2144381 1.2518489e-38
4.2452602 -0.048506424 -1.2039219 1.3456226e-38
4.2977829 -0.038215291 -1.2301491 1.4189813e-38
4.3542433 -0.016590826 -1.2434381 8.0350706e-39
4.1913028 -0.19954127 -1.1886201 9.4954184e-39
4.1930552 -0.16761467 -1.1808332 1.6125567e-38
4.3037758 -0.13921285 -1.2035184 1.0134664e-38
4.2488098 -0.048506424 -1.1881475 1.3454779e-38
