# .PCD v0.7 - Point Cloud Data file format
VERSION 0.7
FIELDS x y z rgb
SIZE 4 4 4 4
TYPE F F F F
COUNT 1 1 1 1
WIDTH 124
HEIGHT 1
VIEWPOINT 0 0 0 1 0 0 0
POINTS 124
DATA ascii
4.0300927 -0.06228257 -1.4176258 1.43739e-38
4.0838947 0.015765138 -1.419953 1.1226618e-38
4.1404853 -0.22348623 -1.4144408 4.2305831e-39
4.0890865 -0.19706422 -1.3968823 7.739782e-39
4.0890865 -0.16553394 -1.3968823 1.1437338e-38
4.0890865 -0.14188623 -1.3968823 1.087052e-38
4.1404853 -0.12770642 -1.4144408 1.1337958e-38
4.0885096 -0.10510091 -1.3994457 1.2348888e-38
4.1422377 -0.095779814 -1.4066539 1.3368062e-38
4.0890865 -0.070943117 -1.3968823 1.0873029e-38
4.0890865 -0.039412845 -1.3968823 1.2072971e-38
4.1404853 -0.015963303 -1.4144408 1.0877324e-38
4.0890865 0.015765138 -1.3968823 1.1247148e-38
4.1404853 0 -1.4144408 9.6723197e-39
4.1399012 0.037247706 -1.4170364 1.30864e-38
4.1955633 0.048506424 -1.4247626 1.2169492e-38
4.0960088 -0.22071192 -1.3661212 6.5491575e-39
4.1474948 -0.23944955 -1.3832932 4.063432e-39
4.0960088 -0.19706422 -1.3661212 8.1060394e-39
4.0471849 -0.16349176 -1.3416719 1.4015143e-38
4.0942783 -0.16553394 -1.3738115 1.189833e-38
4.0471849 -0.14013578 -1.3416719 1.3926924e-38
4.0960088 -0.13400367 -1.3661212 1.2721593e-38
4.1457424 -0.12770642 -1.39108 1.2997829e-38
4.0960088 -0.11035596 -1.3661212 1.3641746e-38
4.1474948 -0.095779814 -1.3832932 1.2820251e-38
4.0942783 -0.063060552 -1.3738115 1.2718357e-38
4.1480789 -0.074495412 -1.3806975 1.2907063e-38
4.0942783 -0.047295414 -1.3738115 1.2721943e-38
4.1480789 -0.037247706 -1.3806975 1.3090385e-38
4.1474948 -0.015963303 -1.3832932 1.2175626e-38
4.0960088 0.015765138 -1.3661212 1.1887202e-38
4.1474948 0 -1.3832932 1.2070876e-38
4.1474948 0.039908256 -1.3832932 1.1891501e-38
4.1046615 -0.25224221 -1.32767 9.3960649e-39
4.0019159 -0.21536879 -1.3105371 1.0226201e-38
4.1046615 -0.23647708 -1.32767 9.3107118e-39
4.0019159 -0.19229357 -1.3105371 5.8051171e-39
4.0506034 -0.17127708 -1.3264811 2.6636414e-39
4.102931 -0.15765136 -1.3353602 4.5946867e-39
4.102931 -0.13400367 -1.3353602 5.9937991e-39
4.102931 -0.11035596 -1.3353602 5.5266875e-39
4.1545038 -0.095779814 -1.3521454 5.3426648e-39
4.1012006 -0.063060552 -1.3430505 1.2160067e-38
4.1550879 -0.074495412 -1.3495498 4.4182044e-39
4.1545038 -0.039908256 -1.3521454 7.2769681e-39
4.1545038 -0.015963303 -1.3521454 8.4826748e-39
4.102931 0.015765138 -1.3353602 1.1063082e-38
4.1545038 0 -1.3521454 1.0785045e-38
4.102931 0.039412845 -1.3353602 1.0141896e-38
4.1081228 -0.25224221 -1.3122895 8.9451453e-39
4.1632657 -0.25541285 -1.3132108 8.3998706e-39
4.0069823 -0.21536879 -1.2880249 6.0852353e-39
4.1098533 -0.23647708 -1.3045992 4.9785458e-39
4.0069823 -0.19998531 -1.2880249 5.4280501e-39
4.0557308 -0.18684772 -1.3036951 4.7131259e-39
4.0540218 -0.17127708 -1.3112904 3.5840983e-39
4.1098533 -0.16553394 -1.3045992 2.9448666e-39
4.1098533 -0.13400367 -1.3045992 3.2243401e-39
4.1098533 -0.10247339 -1.3045992 2.4867681e-39
4.1098533 -0.070943117 -1.3045992 3.2228758e-39
4.1098533 -0.039412845 -1.3045992 3.2228884e-39
4.1615133 -0.015963303 -1.3209977 2.3942193e-39
4.1098533 0.015765138 -1.3045992 3.0377642e-39
4.1615133 0 -1.3209977 2.3012852e-39
4.1098533 0.039412845 -1.3045992 3.503064e-39
4.0625677 -0.21798898 -1.2733135 4.147346e-39
4.118506 -0.22071192 -1.2661479 4.7930713e-39
4.0625677 -0.19463304 -1.2733135 3.5927667e-39
4.1173525 -0.16816147 -1.2712747 1.217997e-38
4.1667705 -0.15963301 -1.297637 9.2355378e-41
4.1161985 -0.13663119 -1.2764016 6.7418697e-39
4.1702747 -0.12770642 -1.2820631 1.5868832e-38
4.0642772 -0.093423858 -1.2657181 9.2324549e-41
4.1173525 -0.10510091 -1.2712747 9.9662084e-39
4.1161985 -0.073570639 -1.2764016 3.9504776e-39
4.1150451 -0.039412845 -1.2815285 2.7598994e-40
4.1667705 -0.015963303 -1.297637 1.9350474e-39
4.1150451 0.015765138 -1.2815285 3.5005865e-39
4.1667705 0 -1.297637 3.4984285e-39
4.1150451 0.031530276 -1.2815285 2.8645217e-39
4.0676956 -0.19463304 -1.2505274 5.6153112e-39
4.1219673 -0.19706422 -1.2507674 9.8591801e-39
4.1219673 -0.16553394 -1.2507674 1.7799921e-38
4.1219673 -0.14188623 -1.2507674 1.6970869e-38
4.1755319 -0.13568807 -1.2587024 1.5477021e-38
4.231061 -0.12935047 -1.2670193 1.603477e-38
4.176116 -0.10642201 -1.2561067 1.510824e-38
4.2275114 -0.097012848 -1.2827936 9.8866105e-39
4.1772842 -0.079816505 -1.2509154 1.2910718e-38
4.2292862 -0.072759636 -1.2749064 1.1866724e-38
4.2822018 -0.065511927 -1.2993889 1.4132902e-38
4.2857971 0 -1.2834104 2.5785755e-39
4.1271591 -0.18918166 -1.2276967 7.2819932e-39
4.1825409 -0.20752293 -1.2275547 1.9353838e-39
4.1254282 -0.16553394 -1.2353868 1.5014919e-38
4.1825409 -0.16761467 -1.2275547 8.1096043e-39
4.1825409 -0.14366972 -1.2275547 4.8899991e-39
4.2363858 -0.12935047 -1.2433578 2.4799395e-39
4.1825409 -0.11174311 -1.2275547 6.3633173e-39
4.2363858 -0.097012848 -1.2433578 1.32683e-38
4.2363858 -0.072759636 -1.2433578 1.6691417e-38
4.2911906 -0.040944956 -1.2594428 8.3873094e-39
4.2929888 -0.016377982 -1.2514536 1.0154095e-38
4.3451371 -0.016590826 -1.2839034 1.1046268e-39
4.3451371 0 -1.2839034 1.7516959e-39
4.1340814 -0.18918166 -1.1969357 5.8828878e-39
4.187798 -0.20752293 -1.2041939 1.840017e-39
4.1358118 -0.16553394 -1.1892453 1.6035518e-38
4.187798 -0.13568807 -1.2041939 1.0958705e-38
4.187798 -0.11174311 -1.2041939 1.2156111e-38
4.2417102 -0.097012848 -1.2196963 1.7982088e-38
4.2417102 -0.072759636 -1.2196963 1.5310972e-38
4.2417102 -0.048506424 -1.2196963 9.1018371e-39
4.2965841 -0.032755964 -1.2354753 1.4927409e-38
4.3524218 -0.016590826 -1.2515312 1.1436958e-38
4.1392727 -0.18918166 -1.1738648 9.4652232e-39
4.1913028 -0.20752293 -1.1886201 7.4740033e-39
4.1410036 -0.16553394 -1.1661745 1.5481268e-38
4.192471 -0.13834862 -1.1834288 1.1978591e-38
4.1913028 -0.063853212 -1.1886201 8.5410991e-39
4.1427341 -0.047295414 -1.1584843 9.9520245e-39
4.1913028 -0.047889907 -1.1886201 1.0309023e-38
4.1461949 -0.15765136 -1.1431038 1.5386518e-38
