# .PCD v0.7 - Point Cloud Data file format
VERSION 0.7
FIELDS x y z rgb
SIZE 4 4 4 4
TYPE F F F F
COUNT 1 1 1 1
WIDTH 141
HEIGHT 1
VIEWPOINT 0 0 0 1 0 0 0
POINTS 141
DATA ascii
2.1557491 -0.13260551 -1.3545758 1.0408432e-38
2.1561546 -0.10608441 -1.3528548 1.022906e-38
2.1906993 0.022412844 -1.3544966 1.1059871e-38
2.1906993 0.044825688 -1.3544966 1.0503452e-38
2.1622384 -0.15028623 -1.3270409 1.1058776e-38
2.1483221 -0.13459571 -1.3119802 1.2070788e-38
2.1615627 -0.13113211 -1.3299092 1.115245e-38
2.1489935 -0.11411376 -1.3091322 1.2168758e-38
2.1619852 -0.10497936 -1.3281167 1.1797097e-38
2.1726165 -0.081655785 -1.3274728 1.1706715e-38
2.1927559 -0.071721107 -1.3457706 1.3557438e-38
2.1815817 -0.035611011 -1.3190751 8.8468008e-39
2.195498 -0.016436085 -1.3341359 1.216441e-38
2.2100854 -0.018055046 -1.3463484 1.3354294e-38
2.1795394 0.022256881 -1.3277404 1.1149535e-38
2.1948125 0.0089651374 -1.3370445 1.1518336e-38
2.2121563 0.009027523 -1.3375616 1.1150278e-38
2.1802201 0.038578596 -1.3248521 9.7705844e-39
2.1944697 0.047814067 -1.3384988 1.0692532e-38
2.1958408 0.062755965 -1.3326814 1.003709e-38
2.2121563 0.076733947 -1.3375617 1.0231197e-38
2.2147665 0.096836694 -1.3376954 1.0598539e-38
2.2445292 0.1099156 -1.3571358 1.0323048e-38
2.1699448 -0.15205431 -1.2943435 1.004283e-38
2.1516783 -0.12874372 -1.2977403 1.0319456e-38
2.1701252 -0.13358778 -1.2935786 1.1156031e-38
2.152014 -0.11411376 -1.2963164 1.1804308e-38
2.1712737 -0.10438496 -1.2961161 1.280946e-38
2.1530209 -0.061445873 -1.2920445 1.1337201e-38
2.1718893 -0.079662077 -1.2984451 1.2353886e-38
2.1550345 -0.048278898 -1.2835007 8.9408447e-39
2.1736686 -0.037633948 -1.2970693 9.8591647e-39
2.1877086 -0.022256881 -1.2930791 1.0319395e-38
2.2009823 -0.016649542 -1.3108662 9.7680452e-39
2.2162981 -0.009027523 -1.3199881 9.7741619e-39
2.1852579 0.021366606 -1.3034775 1.1054496e-38
2.2033327 0.010245873 -1.3008937 1.0690374e-38
2.2162981 0.0045137615 -1.3199881 1.059817e-38
2.1846452 0.035611011 -1.3060771 1.0233719e-38
2.2021248 0.047814067 -1.3060186 1.0230859e-38
2.2027452 0.067878902 -1.3033869 1.0134699e-38
2.2176785 0.078238539 -1.3141303 1.0322313e-38
2.218369 0.099302761 -1.3112013 1.1335392e-38
2.1576595 -0.14028136 -1.2607386 4.2384766e-39
2.1754203 -0.12376513 -1.2711109 5.3499165e-39
2.1764345 -0.10608441 -1.2668087 7.5579075e-39
2.1570482 -0.06144587 -1.2749567 1.3282304e-38
2.1777143 -0.07517951 -1.2675537 5.3441165e-39
2.1570482 -0.048278898 -1.2749567 9.4929353e-39
2.1781411 -0.044243425 -1.267802 8.6577502e-39
2.1921339 -0.023740673 -1.2743043 9.0380234e-39
2.20962 -0.012551194 -1.2742169 3.4983766e-39
2.1934271 0.014244405 -1.2688162 5.8954742e-39
2.2089517 0.013447708 -1.2770528 5.5274078e-39
2.1897509 0.035611011 -1.2844138 1.0966621e-38
2.2089517 0.043705046 -1.2770528 7.8323055e-39
2.2266526 0.05416514 -1.2760543 2.0222054e-39
2.2089803 0.07570561 -1.2769316 9.4921898e-39
2.2252719 0.078238539 -1.2819121 5.5310259e-39
2.2092087 0.10309909 -1.2759621 1.2074015e-38
2.2259624 0.10381653 -1.2789831 6.7252461e-39
2.159472 -0.13580917 -1.2472359 6.5426303e-39
2.1804903 -0.097244039 -1.2495995 3.0345749e-39
2.1671164 -0.06144587 -1.2322372 1.5694907e-39
2.1804903 -0.075143114 -1.2495995 2.670795e-39
2.1684589 -0.049741894 -1.2265413 6.5340151e-39
2.1818426 -0.041255046 -1.2438631 9.4871269e-39
2.1912332 -0.026614679 -1.2410713 8.3151944e-39
2.2133219 -0.013447708 -1.25851 2.6686216e-39
2.1979201 0.0089027528 -1.2497524 2.3941955e-39
2.2133219 0.017930277 -1.25851 3.0359706e-39
2.1955044 0.041462999 -1.2352997 3.221452e-39
2.2159662 0.048667889 -1.2472907 3.0370594e-39
2.2164755 0.075904824 -1.2451299 3.0366936e-39
2.2307944 0.08124771 -1.2584807 3.3136295e-39
2.2194917 0.10309909 -1.2323318 2.760841e-39
2.2318299 0.10833028 -1.2540873 5.3376425e-39
2.1751711 -0.14044771 -1.1980617 3.501999e-39
2.1896162 -0.13260551 -1.2108786 3.591308e-39
2.1751711 -0.10533577 -1.1980617 2.5797288e-39
2.1963246 -0.10203853 -1.2194687 3.3161518e-39
2.1741643 -0.065834865 -1.2023337 2.7594061e-39
2.1906302 -0.083983481 -1.2065763 3.0377895e-39
2.1678963 -0.048132107 -1.1940548 8.0224701e-39
2.239078 -0.036110092 -1.2233336 8.9231715e-39
2.1926582 -0.0265211 -1.1979717 8.1268725e-39
2.2236049 0.026895413 -1.2148798 2.7618976e-39
2.2054086 0.038578596 -1.2179794 2.8519535e-39
2.2236049 0.044825688 -1.2148798 5.8011346e-39
2.2231936 0.077996694 -1.2166249 8.3876751e-39
2.2249761 0.1016049 -1.2090623 1.218165e-38
2.2376976 0.10532111 -1.2291914 2.861345e-39
2.2163007 -0.16024955 -1.1717645 7.2762353e-39
2.1741307 -0.13567217 -1.1734153 4.1437629e-39
2.1661308 -0.10347784 -1.1766359 6.8177963e-39
2.1791985 -0.080464832 -1.1809739 3.6870993e-39
2.2003877 -0.070819981 -1.1816447 2.2130524e-39
2.2297747 -0.062755965 -1.1887015 1.3858295e-39
2.17191 -0.043757796 -1.1770241 9.9603538e-39
2.1951933 -0.046411928 -1.1872159 9.3056363e-39
2.1511202 -0.025970642 -1.1562552 6.0895905e-39
2.1946862 -0.0265211 -1.1893672 6.8293051e-39
2.1832259 0.0087779816 -1.1638861 1.7545882e-39
2.2093582 0.022225689 -1.1826944 1.9361194e-39
2.2085943 0.045533027 -1.1859365 2.6700831e-39
2.2071655 0.069937617 -1.182736 3.8682508e-39
2.2292607 0.087410092 -1.190883 1.1978299e-39
2.2297747 0.10309909 -1.1887015 1.7502848e-39
2.2007701 -0.15028623 -1.1635534 6.7356746e-39
2.2349164 -0.15688992 -1.1668864 5.4341317e-39
2.1852396 -0.14044771 -1.1553422 4.3263773e-39
2.2027981 -0.14144588 -1.1549487 4.4160338e-39
2.2071962 -0.07600458 -1.154815 4.3295961e-39
2.2380013 -0.071721107 -1.1537973 4.6033103e-39
2.2602932 -0.072352298 -1.1529359 3.9582814e-39
2.1531062 -0.034627523 -1.1478292 1.151795e-38
2.1799445 -0.034994494 -1.1429343 1.2065729e-38
2.2122695 -0.046119634 -1.1444051 9.5797121e-39
2.1458042 -0.021583486 -1.1439365 6.0830997e-39
2.1779311 -0.021856882 -1.1514782 6.8195773e-39
2.2138448 -0.019247707 -1.1574838 6.4536787e-39
2.2366302 -0.014941897 -1.1596147 4.6007767e-39
2.261152 -0.01508991 -1.1558301 4.6947787e-39
2.2979658 -0.0091926605 -1.1696417 3.4105278e-39
2.3259275 -0.0092917439 -1.1686989 3.959764e-39
2.1868505 0.021067157 -1.1485071 2.5789427e-39
2.2078252 0.011401835 -1.154793 2.5803902e-39
2.2380013 0.013447707 -1.1537973 3.2261268e-39
2.2091749 0.041800786 -1.1596537 2.7601152e-39
2.2376585 0.044825688 -1.1552516 2.8530227e-39
2.1872532 0.06144587 -1.1467984 3.6806099e-39
2.2076445 0.076824464 -1.1590896 2.6689929e-39
2.2338881 0.10309909 -1.1712494 3.1288879e-39
2.195308 -0.043889906 -1.1126227 1.0968805e-38
2.2132859 -0.042085323 -1.1289757 1.050021e-38
2.225491 -0.026708258 -1.1327704 1.0052896e-38
2.2577164 0.036110092 -1.1442525 3.5920324e-39
2.1635008 -0.039715961 -1.0758275 1.1702733e-38
2.1826239 -0.034877062 -1.0966938 1.2160797e-38
2.183624 -0.026157798 -1.0924504 1.0144023e-38
2.1434884 -0.038427521 -1.0491416 1.2072259e-38
