# .PCD v0.7 - Point Cloud Data file format
VERSION 0.7
FIELDS x y z rgb
SIZE 4 4 4 4
TYPE F F F F
COUNT 1 1 1 1
WIDTH 143
HEIGHT 1
VIEWPOINT 0 0 0 1 0 0 0
POINTS 143
DATA ascii
2.6038733 -0.24012844 -1.3538187 1.2798263e-38
2.647805 -0.25479633 -1.3766599 1.2991627e-38
2.6002808 -0.2244679 -1.3690615 1.2720856e-38
2.601079 -0.19836698 -1.3656741 1.2905253e-38
2.6030748 -0.17052598 -1.357206 1.2446099e-38
2.6234236 -0.12634128 -1.3754869 1.0410176e-38
2.6006799 -0.11136392 -1.3673679 1.3541571e-38
2.623826 -0.10177492 -1.3737788 1.6411889e-38
2.6502404 -0.095548615 -1.3663263 1.5312385e-38
2.6239069 -0.080016151 -1.3734373 1.3450878e-38
2.647805 -0.063699082 -1.3766598 1.3915084e-38
2.647805 -0.042466048 -1.3766598 1.2446072e-38
2.6234238 -0.013160551 -1.3754869 1.078116e-38
2.6494286 -0.017694188 -1.3697708 1.2261318e-38
2.622216 0 -1.3806107 9.7677383e-39
2.6486168 0.0088470941 -1.3732153 1.2168036e-38
2.6951287 0.032388989 -1.3894684 1.234593e-38
2.5641282 -0.2311101 -1.3219315 1.3075964e-38
2.5836141 -0.22092722 -1.3395139 1.2628307e-38
2.5854952 -0.1954688 -1.3315341 1.2169494e-38
2.600436 -0.16658166 -1.3349823 1.3280153e-38
2.6004391 -0.13535902 -1.3349686 9.7691452e-39
2.6301863 -0.10949578 -1.3467933 1.1517247e-38
2.6538935 -0.095548615 -1.3508263 1.1895429e-38
2.6310141 -0.073699079 -1.3432798 1.2718713e-38
2.6526756 -0.084932104 -1.355993 1.1976144e-38
2.6318769 -0.042113762 -1.33962 1.1986898e-38
2.6538935 -0.042466052 -1.3508263 1.2260243e-38
2.654624 -0.014863119 -1.3477262 1.2169843e-38
2.6330845 0.021056881 -1.3344961 1.2996715e-38
2.6547632 0.0075832233 -1.3471358 1.2536113e-38
2.6538935 0.031849541 -1.3508263 1.2622881e-38
2.5486498 -0.24457981 -1.291703 1.0041049e-38
2.5474808 -0.23438899 -1.2966626 1.0563676e-38
2.5688407 -0.2242624 -1.3019361 1.1980764e-38
2.593513 -0.21747524 -1.2975148 8.0181275e-39
2.6064169 -0.19783241 -1.3096048 1.1519448e-38
2.604531 -0.17275304 -1.3109239 1.3458063e-38
2.6048203 -0.12839878 -1.3163794 9.3996228e-39
2.6379151 -0.12634128 -1.3140008 1.1422132e-38
2.6134534 -0.11484405 -1.3131708 1.1335723e-38
2.6382599 -0.10227627 -1.3125368 9.0319319e-39
2.6379149 -0.073699079 -1.3140008 1.17056e-38
2.6379149 -0.042113759 -1.3140008 1.2537528e-38
2.6383982 -0.016845506 -1.3119513 1.2723e-38
2.6379151 0.010528441 -1.3140008 1.3181108e-38
2.6611998 0.010616513 -1.3198261 1.345839e-38
2.5759096 -0.22083855 -1.2719432 3.871499e-39
2.6143682 -0.22213702 -1.2758685 5.0682443e-39
2.5774806 -0.18831192 -1.2652781 7.1048228e-39
2.6049242 -0.20422995 -1.2825191 9.5912294e-39
2.5782659 -0.17461652 -1.2619456 4.7772591e-39
2.597868 -0.16914742 -1.2790351 3.8671802e-39
2.6427455 -0.10002019 -1.2935055 3.3129036e-39
2.6446776 -0.071593396 -1.2853073 3.3114827e-39
2.6672883 -0.074315593 -1.2939926 2.9452239e-39
2.644758 -0.042113762 -1.2849658 2.5782561e-39
2.6648529 -0.053082563 -1.3043261 1.4701148e-39
2.6218359 -0.010440367 -1.277604 2.4860506e-39
2.6457646 -0.018424772 -1.2806959 3.1288963e-39
2.6230335 0.020880735 -1.272523 4.317381e-39
2.6451604 0.0052642203 -1.2832577 3.772486e-39
2.5650144 -0.24457981 -1.2222697 9.5868952e-39
2.5650144 -0.22419816 -1.2222697 4.3313855e-39
2.5837641 -0.22255047 -1.2386178 3.9615268e-39
2.6302185 -0.062642202 -1.2420372 3.3169001e-39
2.6516016 -0.066680126 -1.2559308 3.2232611e-39
2.6228068 -0.040361471 -1.2484187 2.8548429e-39
2.6548216 -0.0526422 -1.2422671 1.93719e-39
2.6290209 -0.020880735 -1.2471182 1.8414337e-39
2.6524067 -0.010528441 -1.2525148 5.8987617e-39
2.6171963 0.01818624 -1.2471581 3.9547067e-39
2.6528895 0.0042113764 -1.2504653 5.8126743e-39
2.5696898 -0.24457981 -1.2024314 5.71285e-39
2.5884767 -0.25336516 -1.2186226 6.4472369e-39
2.5696898 -0.22674587 -1.2024316 4.792714e-39
2.5908329 -0.22939818 -1.2086248 4.698359e-39
2.568521 -0.18343486 -1.207391 5.8057939e-39
2.5924039 -0.18488806 -1.2019597 1.5093393e-38
2.6137061 -0.19676329 -1.2118366 1.1698379e-38
2.5702744 -0.1605055 -1.1999516 2.67729e-39
2.5924039 -0.16948074 -1.2019597 4.6112402e-39
2.6362062 -0.062642202 -1.2166324 2.7633466e-39
2.6334119 -0.038281348 -1.228488 1.0222898e-38
2.6586862 -0.042113759 -1.2258708 3.9636792e-39
2.6326137 -0.020880735 -1.2318753 1.4385425e-38
2.6584446 -0.01579266 -1.2268956 7.281989e-39
2.635807 0.01392049 -1.218326 5.2619864e-39
2.6572368 0 -1.2320194 1.5104931e-38
2.6362062 0.031321101 -1.2166324 5.8778459e-39
2.5947602 -0.24651743 -1.1919621 7.0010637e-39
2.5957026 -0.22392002 -1.187963 3.8718423e-39
2.6184573 -0.23818716 -1.1916769 5.5284966e-39
2.5963309 -0.19173579 -1.185297 2.5793196e-39
2.6160817 -0.20194128 -1.2017567 1.9357621e-39
2.5968218 -0.16306101 -1.1832142 2.8548317e-39
2.577872 -0.12738532 -1.1677148 1.1888175e-38
2.5994728 -0.11298716 -1.1719668 7.5711904e-39
2.6208332 -0.10355963 -1.1815971 2.4827982e-39
2.6668978 -0.10002019 -1.1910288 2.9466616e-39
2.6916428 -0.10085687 -1.1906587 2.9498888e-39
2.6397986 -0.067862384 -1.2013894 3.4068901e-39
2.6656902 -0.073699079 -1.1961526 3.1303172e-39
2.6910338 -0.071661465 -1.1932421 3.4998326e-39
2.6421936 -0.031321101 -1.1912274 3.5902135e-39
2.6641374 -0.045121886 -1.2027403 2.7633325e-39
2.6916428 -0.053082563 -1.1906587 3.0417131e-39
2.6342752 -0.013892355 -1.1914047 2.6729474e-39
2.6620674 -0.021056881 -1.2115241 2.4906959e-39
2.639142 0.0089488858 -1.1898518 3.406188e-39
2.6620674 0.010528441 -1.2115241 3.2232359e-39
2.5813787 -0.17324403 -1.1528362 3.8675361e-39
2.6018291 -0.15920918 -1.1619692 4.0490757e-39
2.5576804 -0.14148991 -1.1531249 5.6023352e-39
2.5825477 -0.14267156 -1.1478766 7.6309614e-39
2.6026144 -0.13010643 -1.1586367 1.1889624e-38
2.6255844 -0.12427156 -1.1614375 1.2803668e-38
2.6717284 -0.12634128 -1.1705334 1.3174219e-38
2.6232088 -0.1139156 -1.1715174 7.7570082e-39
2.6717284 -0.11581285 -1.1705334 8.3087568e-39
2.6940782 -0.10616513 -1.1803253 5.9919747e-39
2.6955395 -0.076438889 -1.1741252 4.2381179e-39
2.7164278 -0.064227521 -1.1901172 3.6870993e-39
2.6255841 -0.031067891 -1.1614375 2.9484567e-39
2.669313 -0.042113762 -1.1807811 2.9477378e-39
2.7164278 -0.053522933 -1.1901172 2.5843573e-39
2.6041853 -0.010271559 -1.1519716 3.5041318e-39
2.6255844 -0.016569542 -1.1614375 2.7644242e-39
2.6374815 0 -1.1610897 3.7745992e-39
2.5594769 -0.13589725 -1.0997314 9.8577227e-39
2.5878077 -0.13248073 -1.1255589 1.0406589e-38
2.6303358 -0.12427156 -1.141278 1.2619958e-38
2.6303358 -0.015533945 -1.141278 3.3143553e-39
2.588392 0.010190826 -1.1230791 2.0290185e-39
2.6088979 0 -1.1319764 2.6707838e-39
2.5695865 -0.12607983 -1.0797217 1.2255896e-38
2.5565834 -0.11032294 -1.066237 1.3178918e-38
2.5800917 -0.12464587 -1.0580349 1.2807595e-38
2.5405679 -0.10943486 -1.0382873 1.1977488e-38
2.5746939 -0.1041633 -1.050423 1.1522624e-38
2.5405679 -0.089537613 -1.0382873 1.1701265e-38
2.5855014 -0.10106421 -1.035082 3.8614643e-39
2.6070943 -0.11209908 -1.0437266 8.297957e-39
