# .PCD v0.7 - Point Cloud Data file format
VERSION 0.7
FIELDS x y z rgb
SIZE 4 4 4 4
TYPE F F F F
COUNT 1 1 1 1
WIDTH 139
HEIGHT 1
VIEWPOINT 0 0 0 1 0 0 0
POINTS 139
DATA ascii
3.3471909 -0.25639814 -1.4170479 1.2249746e-38
3.3111334 -0.22121835 -1.4087477 1.1335022e-38
3.2775178 -0.19321102 -1.3944457 7.2827527e-39
3.2760406 -0.16744953 -1.4007143 5.9862125e-39
3.3096409 -0.15615413 -1.4150805 5.4355779e-39
3.240448 -0.13389908 -1.3991592 8.0159779e-39
3.2775178 -0.14168808 -1.3944457 9.3923725e-39
3.240448 -0.10839449 -1.3991592 9.4075416e-39
3.2745631 -0.090165138 -1.4069829 3.2146221e-39
3.3111334 -0.045544952 -1.4087477 5.160091e-39
3.2775178 -0.012880734 -1.3944457 7.2708655e-39
3.3111334 -0.026025688 -1.4087477 6.3575132e-39
3.2775178 0.0064403671 -1.3944457 1.2264488e-38
3.3088946 0.016266055 -1.418247 2.0240229e-39
3.3096409 0.045544952 -1.4150805 3.6802764e-39
3.3111334 0.065064214 -1.4087477 7.1938053e-39
3.2506869 -0.24229357 -1.3557165 1.077859e-38
3.3171036 -0.25375044 -1.3834159 1.141962e-38
3.2487364 -0.22529049 -1.3639911 1.2346989e-38
3.2150502 -0.20198166 -1.354349 7.835593e-39
3.2477615 -0.1912844 -1.3681287 5.4384351e-39
3.2489316 -0.16322935 -1.3631638 4.9713473e-39
3.2150502 -0.12623852 -1.354349 1.745292e-39
3.2477612 -0.13602446 -1.3681287 6.999654e-39
3.2121544 -0.10099083 -1.3666363 7.3698616e-39
3.2477615 -0.10839449 -1.3681287 4.421475e-39
3.2472742 -0.080764525 -1.3701974 6.3482029e-39
3.2814577 -0.068697244 -1.3777293 3.6777863e-39
3.2834275 -0.045082569 -1.3693712 8.5706049e-39
3.3141186 -0.045544952 -1.3960818 9.2163218e-39
3.2819502 -0.019321101 -1.3756398 6.0712489e-39
3.2506869 0.012752294 -1.3557165 8.3764521e-39
3.2816544 0.012880733 -1.3768934 8.8529076e-39
3.2819502 0.038642202 -1.3756398 4.3263563e-39
3.3156111 0.052051377 -1.3897489 4.784082e-39
3.3156111 0.065064214 -1.3897489 8.01279e-39
3.2878599 -0.24473393 -1.3505653 1.262868e-38
3.2208419 -0.21460551 -1.3297745 1.0603592e-38
3.2550747 -0.22954127 -1.3370981 1.1983996e-38
3.2208424 -0.19566973 -1.3297746 3.871513e-39
3.2218077 -0.16621406 -1.3256789 3.3165133e-39
3.253612 -0.16577981 -1.3433043 2.9473763e-39
3.2214212 -0.13128807 -1.3273171 3.9579213e-39
3.2208419 -0.11361468 -1.3297745 5.2440064e-39
3.2550747 -0.10201835 -1.3370981 8.6710527e-39
3.255075 -0.07651376 -1.3370981 1.2909877e-38
3.2878599 -0.045082569 -1.3505653 1.1427588e-38
3.2887461 -0.020609174 -1.3468041 4.0476436e-39
3.22229 0.018935781 -1.3236309 3.1310487e-39
3.2550747 0 -1.3370981 2.8562667e-39
3.2565374 0.03825688 -1.330892 3.3107526e-39
3.2863824 0.038642202 -1.3568339 4.6951192e-39
3.2594628 -0.24229357 -1.3184798 1.1895438e-38
3.1976099 -0.21248439 -1.2801341 7.2838107e-39
3.2280819 -0.22091743 -1.2990565 9.8681862e-39
3.2594628 -0.22954127 -1.3184798 1.1798178e-38
3.1976099 -0.19998531 -1.2801341 4.8745288e-39
3.2275991 -0.19356577 -1.3011044 3.8711445e-39
3.2280822 -0.16411011 -1.2990566 2.8544716e-39
3.2280819 -0.13255045 -1.2990565 1.6577361e-39
3.2618032 -0.10966972 -1.30855 1.7491988e-39
3.2609258 -0.07651376 -1.3122737 9.2052137e-40
3.2623885 -0.044633027 -1.3060676 1.7484758e-39
3.2629733 -0.017853212 -1.3035852 2.94557e-39
3.2280819 0.018935781 -1.2990565 3.7753489e-39
3.262388 0 -1.3060675 3.3143511e-39
3.2280819 0.037871562 -1.2990565 4.9746166e-39
3.2653136 0.03825688 -1.2936554 3.6799065e-39
3.1694684 -0.22280365 -1.2556833 1.0607877e-38
3.201911 -0.21248439 -1.2618855 4.874512e-39
3.2353218 -0.22722936 -1.2683386 6.5434164e-39
3.201911 -0.19998531 -1.2618855 4.4214568e-39
3.2338738 -0.1893578 -1.2744821 2.582565e-39
3.2338741 -0.16411011 -1.2744823 2.1190618e-39
3.2338738 -0.13255045 -1.2744821 1.7531505e-39
3.2338738 -0.10099083 -1.2744821 1.9353908e-39
3.268239 -0.11477064 -1.2812431 1.3825869e-39
3.2338741 -0.075743116 -1.2744823 2.1179715e-39
3.2692139 -0.042507645 -1.2771057 1.8431741e-39
3.2353218 -0.025247708 -1.2683386 2.6729362e-39
3.270189 -0.017003058 -1.2729683 2.2119524e-39
3.2333908 0.016831806 -1.27653 2.0257801e-39
3.2699943 0.012752293 -1.2737958 3.036688e-39
3.2697017 0.03825688 -1.2750371 3.4976774e-39
3.3129761 -0.27049541 -1.2439989 1.2634732e-38
3.2770152 -0.25504586 -1.2440065 1.1895763e-38
3.3469553 -0.24724403 -1.2567577 1.2921798e-38
3.3818784 -0.26297247 -1.2698712 1.2228172e-38
3.2071676 -0.21665077 -1.2395816 6.7238e-39
3.2425616 -0.22722936 -1.2376206 7.4664335e-39
3.2090793 -0.18748623 -1.2314712 2.5739232e-39
3.2403896 -0.1988257 -1.2468359 3.6878154e-39
3.2090793 -0.16873762 -1.2314712 2.1197582e-39
3.2396655 -0.16095413 -1.2499077 2.3009307e-39
3.2090793 -0.14998899 -1.2314712 1.7538624e-39
3.2411139 -0.13255045 -1.2437642 1.6595129e-39
3.2411139 -0.10730276 -1.2437643 2.3927676e-39
3.2396657 -0.075743116 -1.2499079 2.4838716e-39
3.277015 -0.07651376 -1.2440064 1.9335803e-39
3.2396655 -0.050495416 -1.2499077 2.1161765e-39
3.2760398 -0.042507645 -1.2481438 2.3931193e-39
3.2750647 -0.021253822 -1.2522812 2.0254158e-39
3.2740898 0.012752294 -1.2564187 1.6580822e-39
3.3070664 0.012880734 -1.2690734 1.2896766e-39
3.3499403 -0.27326974 -1.244092 1.0429622e-38
3.3889165 -0.28050399 -1.2400092 1.2993448e-38
3.4268901 -0.29233763 -1.2445378 1.5207936e-38
3.3529255 -0.26025686 -1.2314262 1.0837094e-38
3.3879111 -0.26297247 -1.2442752 1.0763882e-38
3.2469053 -0.21460551 -1.2191898 3.5016024e-39
3.2799406 -0.22954127 -1.2315943 7.0933574e-39
3.2133801 -0.18748623 -1.2132225 2.5778819e-39
3.2469053 -0.20198166 -1.2191898 3.2275449e-39
3.2133801 -0.16873762 -1.2132225 2.7611745e-39
3.2488358 -0.1556942 -1.2109983 3.2203997e-39
3.2857914 -0.15302752 -1.2067698 3.8765661e-39
3.2478704 -0.13465443 -1.215094 2.4856765e-39
3.282866 -0.12752293 -1.219182 2.1172667e-39
3.2469053 -0.11361468 -1.2191898 2.3924243e-39
3.282866 -0.11477064 -1.219182 2.2116273e-39
3.39696 -0.30241835 -1.2058814 1.4006878e-38
3.3954518 -0.28269541 -1.2122803 1.2343366e-38
3.39696 -0.26297247 -1.2058814 1.4650114e-38
3.2526972 -0.16411009 -1.1946154 5.4323521e-39
3.2526972 -0.13255045 -1.1946154 3.3165245e-39
3.4014843 -0.28269541 -1.1866844 1.4283103e-38
3.4421318 -0.30562571 -1.1798693 1.3356471e-38
3.3738215 -0.27326974 -1.1427654 1.4560765e-38
3.4070141 -0.28488684 -1.1632214 1.5295091e-38
3.4080198 -0.25420669 -1.1589553 1.1530956e-38
3.4421318 -0.26576146 -1.1798693 1.3449794e-38
3.3121197 -0.28055045 -1.0950599 1.5663484e-38
3.3425245 -0.27693579 -1.1186266 1.474192e-38
3.3121197 -0.25504586 -1.0950599 1.0876576e-38
3.3454792 -0.25761467 -1.1060894 1.1062769e-38
3.3768067 -0.26025686 -1.1300997 1.2719397e-38
3.3165078 -0.28055045 -1.0764415 1.5663107e-38
3.3165078 -0.26142201 -1.0764415 1.0778966e-38
3.2816565 -0.2398532 -1.0717434 1.0698577e-38
