# .PCD v0.7 - Point Cloud Data file format
VERSION 0.7
FIELDS x y z rgb
SIZE 4 4 4 4
TYPE F F F F
COUNT 1 1 1 1
WIDTH 128
HEIGHT 1
VIEWPOINT 0 0 0 1 0 0 0
POINTS 128
DATA ascii
4.0838947 0.015765138 -1.419953 5.2393919e-39
4.090817 -0.22071192 -1.389192 5.0513685e-39
4.0896635 -0.19443671 -1.3943188 9.9542722e-39
4.1387334 -0.20752293 -1.4222277 7.7336737e-39
4.0896635 -0.16816147 -1.3943188 1.1243251e-38
4.1387334 -0.15963301 -1.4222277 8.9294003e-39
4.090817 -0.13400367 -1.389192 1.1891839e-38
4.1387334 -0.13568807 -1.4222277 1.1146735e-38
4.090817 -0.11035596 -1.389192 1.1985142e-38
4.1422377 -0.095779814 -1.4066539 1.2165586e-38
4.1404853 -0.071834862 -1.4144408 1.2257735e-38
4.1404853 -0.039908256 -1.4144408 1.2350645e-38
4.1404853 -0.015963303 -1.4144408 1.1140568e-38
4.0890865 0.015765138 -1.3968823 1.1800711e-38
4.1422377 0 -1.4066539 1.1425816e-38
4.1404853 0.031926606 -1.4144408 1.2356043e-38
4.0960088 -0.19706422 -1.3661212 9.674098e-39
4.0960088 -0.16553394 -1.3661212 1.2814866e-38
4.0960088 -0.13400367 -1.3661212 1.2728437e-38
4.0965858 -0.10510091 -1.3635578 1.2720889e-38
4.1457424 -0.095779814 -1.39108 1.2997839e-38
4.0977392 -0.063060552 -1.358431 1.3463488e-38
4.1469107 -0.074495412 -1.3858887 1.1894007e-38
4.1474948 -0.039908256 -1.3832932 1.2075524e-38
4.1474948 -0.015963303 -1.3832932 1.2432816e-38
4.0960088 0.015765138 -1.3661212 1.1616341e-38
4.1474948 0 -1.3832932 1.1983687e-38
4.0977392 0.031530276 -1.358431 1.1707835e-38
4.1457424 0.031926606 -1.39108 1.1795706e-38
4.0019159 -0.18460183 -1.3105371 8.7248093e-39
4.0506034 -0.16349176 -1.3264811 1.1148806e-38
4.102931 -0.13400367 -1.3353602 8.1128553e-39
4.1012006 -0.11035596 -1.3430505 1.3730252e-38
4.1550879 -0.10110091 -1.3495498 4.7001807e-39
4.102931 -0.063060552 -1.3353602 8.2940068e-39
4.1545038 -0.079816505 -1.3521454 7.4660482e-39
4.103508 -0.036785323 -1.3327968 7.8251365e-39
4.1527519 -0.047889907 -1.3599323 1.429173e-38
4.1545038 -0.015963303 -1.3521454 1.2711516e-38
4.102931 0.015765138 -1.3353602 1.3731761e-38
4.1545038 0 -1.3521454 1.3444067e-38
4.102931 0.031530276 -1.3353602 1.4107015e-38
4.0052934 -0.19229357 -1.295529 4.142e-39
4.0574403 -0.19463304 -1.2960997 3.9683792e-39
4.0551615 -0.16608687 -1.3062268 1.3804345e-39
4.1104302 -0.16290642 -1.3020358 2.7644214e-39
4.1098533 -0.13400367 -1.3045992 3.1339424e-39
4.1115837 -0.11035596 -1.296909 2.580756e-39
4.1609292 -0.10110091 -1.3235934 2.1205205e-39
4.1081228 -0.063060552 -1.3122895 4.333168e-39
4.1620975 -0.074495412 -1.3184021 2.6700845e-39
4.1092763 -0.036785323 -1.3071626 2.3960102e-39
4.1632657 -0.047889907 -1.3132108 2.7644157e-39
4.1098533 -0.015765138 -1.3045992 1.7495632e-39
4.1092763 0.010510092 -1.3071626 1.1049238e-39
4.1098533 0.031530276 -1.3045992 2.6708034e-39
4.2786059 -0.27842566 -1.3153672 1.1892114e-38
4.336031 -0.29863486 -1.3243685 1.308457e-38
4.0642772 -0.21798898 -1.2657181 4.5154265e-39
4.0608587 -0.19463304 -1.2809089 4.0530134e-39
4.1161985 -0.19443671 -1.2764016 4.7023695e-39
4.1167755 -0.16553394 -1.2738382 6.3673377e-39
4.1150451 -0.13400367 -1.2815285 5.5221529e-40
4.1702747 -0.13568807 -1.2820631 1.1907689e-38
4.1685224 -0.11174311 -1.28985 5.0780086e-39
4.3378525 -0.09954495 -1.3162754 1.280512e-38
4.1667705 -0.039908256 -1.297637 6.4505692e-40
4.1667705 -0.015963303 -1.297637 1.6573703e-39
4.0608587 0 -1.2809089 1.4769125e-39
4.1167755 0.007882569 -1.2738382 3.5981631e-39
4.1667705 0.015963303 -1.297637 2.0283403e-39
4.2839994 -0.27842566 -1.2913997 1.0603543e-38
4.3414946 -0.29863486 -1.3000894 1.3363664e-38
4.2857971 -0.25385872 -1.2834104 4.8813573e-39
3.974206 -0.22800002 -1.2059308 4.5118209e-39
4.0188026 -0.23075229 -1.2354963 4.3263395e-39
4.0694046 -0.21798898 -1.242932 3.779309e-39
4.0676956 -0.20241834 -1.2505274 3.7728069e-39
4.1219673 -0.19706422 -1.2507674 1.1795997e-38
4.1219673 -0.17341653 -1.2507674 1.9091009e-38
4.1737795 -0.15963301 -1.2664893 1.8532801e-38
4.2292862 -0.14551927 -1.2749064 1.7333123e-38
4.2839994 -0.13102385 -1.2913997 1.7701943e-38
4.2292862 -0.11318165 -1.2749064 1.587457e-38
4.2857971 -0.098267883 -1.2834104 1.3592105e-38
4.2292862 -0.080844037 -1.2749064 1.4295444e-38
4.2839994 -0.065511927 -1.2913997 1.5927565e-38
4.0676956 0 -1.2505274 6.7442856e-39
4.3469582 -0.28204402 -1.2758102 1.1340416e-38
4.2893929 -0.24566972 -1.2674321 3.0442635e-39
4.3475652 -0.25992295 -1.2731125 4.9767718e-39
4.180789 -0.22348623 -1.2353417 4.1462796e-39
4.2381606 -0.2263633 -1.2354707 2.5843517e-39
4.1265821 -0.19443671 -1.23026 1.0048554e-38
4.183125 -0.20220183 -1.224959 3.0352391e-39
4.1271591 -0.16553394 -1.2276967 1.0596399e-38
4.1842933 -0.14366972 -1.2197678 5.3487815e-39
4.2357941 -0.13474007 -1.2459868 4.5929239e-39
4.2369771 -0.10779205 -1.2407287 1.0968071e-38
4.2893929 -0.098267883 -1.2674321 9.1285346e-39
4.1842933 -0.079816505 -1.2197678 1.9357173e-38
4.2381606 -0.064675234 -1.2354707 1.3843746e-38
4.2893929 -0.07370092 -1.2674321 1.3196262e-38
4.2381606 -0.040422022 -1.2354707 8.6473428e-39
4.2893929 -0.049133942 -1.2674321 8.6824957e-39
4.2381606 -0.016168809 -1.2354707 4.7045079e-39
4.3524218 -0.2571578 -1.2515312 4.8845719e-39
4.2452602 -0.2263633 -1.2039219 5.8955471e-39
4.2965841 -0.22929172 -1.2354753 2.4857157e-39
4.187798 -0.19954127 -1.2041939 3.9594024e-39
4.1323504 -0.16553394 -1.2046258 1.2264153e-38
4.187798 -0.16761467 -1.2041939 1.5393761e-38
4.2428937 -0.14012967 -1.2144381 9.7580217e-39
4.30018 -0.13102385 -1.2194968 8.6551956e-39
4.2965841 -0.11464586 -1.2354753 1.5482724e-38
4.3560643 -0.11613578 -1.2353451 1.2900802e-38
4.2965841 -0.065511927 -1.2354753 1.1663569e-38
4.2452602 -0.048506424 -1.2039219 1.4194479e-38
4.2965841 -0.040944953 -1.2354753 1.2813704e-38
4.3560643 -0.033181652 -1.2353451 1.5666018e-38
4.3542433 -0.016590826 -1.2434381 7.8474746e-39
4.1415801 -0.19443671 -1.1636112 8.4730198e-39
4.1913028 -0.20752293 -1.1886201 7.4707579e-39
4.1415801 -0.16816147 -1.1636112 1.6034807e-38
4.1913028 -0.15963301 -1.1886201 1.713754e-38
4.2488098 -0.048506424 -1.1881475 1.3272171e-38
4.3597069 -0.033181652 -1.2191591 1.6031203e-38
4.3037758 -0.016377982 -1.2035184 1.3091784e-38
