# .PCD v0.7 - Point Cloud Data file format
VERSION 0.7
FIELDS x y z rgb
SIZE 4 4 4 4
TYPE F F F F
COUNT 1 1 1 1
WIDTH 109
HEIGHT 1
VIEWPOINT 0 0 0 1 0 0 0
POINTS 109
DATA ascii
2.5054317 -0.21854313 -1.3388888 1.216082e-38
2.5128849 -0.19152109 -1.3456242 9.6769328e-39
2.5204003 -0.16675596 -1.3441107 1.0412347e-38
2.5423446 -0.13451889 -1.3513591 8.3854849e-39
2.5421951 -0.10190826 -1.3520219 8.6577474e-39
2.5187056 -0.22043513 -1.3243121 1.1607306e-38
2.5492802 -0.22419816 -1.3205383 9.5973587e-39
2.5184207 -0.19150825 -1.3210248 8.9415314e-39
2.5237286 -0.17180917 -1.329321 8.7560667e-39
2.5481617 -0.16014154 -1.3255094 9.4932814e-39
2.5226192 -0.12127706 -1.3342508 9.6690211e-39
2.5476022 -0.13757613 -1.3279951 9.3074468e-39
2.5683486 -0.13096239 -1.3360103 8.3854933e-39
2.5226192 -0.10611743 -1.3342508 7.3767308e-39
2.5468192 -0.099870086 -1.3314748 1.0596709e-38
2.5700397 -0.10528348 -1.3284947 8.8403632e-39
2.5481613 -0.081526607 -1.3255093 1.0969821e-38
2.5687995 -0.067792296 -1.3340062 9.4914611e-39
2.5686305 -0.039802294 -1.3347579 9.0315732e-39
2.5668452 -0.017119266 -1.3426911 8.8482511e-39
2.5921817 -0.014498348 -1.3348647 8.937214e-39
2.5984144 0.011835387 -1.3371001 9.2155959e-39
2.637203 0.031585321 -1.3488795 9.4878738e-39
2.5314944 -0.21223487 -1.2948115 7.7390505e-39
2.4919684 -0.19897246 -1.2745947 9.4932744e-39
2.5173895 -0.18808861 -1.2891676 1.0136839e-38
2.5323818 -0.16574533 -1.2908674 1.0781861e-38
2.5541275 -0.15625933 -1.2989968 9.7702214e-39
2.555619 -0.13927461 -1.2923688 1.0141165e-38
2.5734224 -0.13096239 -1.3134632 9.2177763e-39
2.5559921 -0.10190825 -1.2907118 9.3114013e-39
2.574362 -0.10100367 -1.3092879 9.0294026e-39
2.5751138 -0.071900919 -1.3059475 8.3887093e-39
2.5751138 -0.041086238 -1.3059475 8.8486113e-39
2.5985479 -0.015533946 -1.3065755 9.0301383e-39
2.5773687 0.020543119 -1.2959266 9.7680634e-39
2.5982232 0.0073971166 -1.3080189 9.7676991e-39
2.5571108 0.030572476 -1.2857406 9.5843798e-39
2.5962741 0.031067891 -1.3166789 1.0318698e-38
2.5403695 -0.22234128 -1.255372 4.981808e-39
2.5593481 -0.22419816 -1.2757984 8.2118654e-39
2.4941525 -0.19897246 -1.2648889 9.9520791e-39
2.5165949 -0.18554312 -1.2653688 8.1056512e-39
2.5298538 -0.16117431 -1.2611079 5.4380932e-39
2.5248811 -0.13071559 -1.2604308 7.370254e-39
2.5620329 -0.09783192 -1.2638677 8.1131944e-39
2.5796239 -0.092444032 -1.2859056 9.9538252e-39
2.563077 -0.074732721 -1.259228 2.0211012e-39
2.5811272 -0.070188992 -1.279225 7.2783919e-39
2.5627043 -0.045858718 -1.2608851 4.884181e-39
2.580977 -0.036977611 -1.279893 7.7426238e-39
2.5833824 -0.017119266 -1.2692039 6.9139253e-39
2.6030948 -0.010355963 -1.286369 9.3103013e-39
2.5615854 0.020381652 -1.2658563 1.0043201e-38
2.5818789 0.017119266 -1.2758846 9.9509945e-39
2.6061265 0.0069039757 -1.272898 4.9756773e-39
2.5403695 0.030319266 -1.255372 1.0043919e-38
2.5593481 0.030572476 -1.2757984 1.050417e-38
2.500705 -0.12933211 -1.2357711 2.2998363e-39
2.500705 -0.11938348 -1.2357711 5.5223967e-39
2.567179 -0.061144952 -1.2410008 2.1190646e-39
2.5459166 -0.050532106 -1.2307224 2.3952689e-39
2.568857 -0.038215596 -1.2335441 2.7622577e-39
2.5875165 -0.030814679 -1.2508322 2.8533618e-39
2.5705349 -0.020381652 -1.2260875 2.6740264e-39
2.5881929 -0.014380182 -1.247826 2.5778623e-39
2.590899 0 -1.2358007 2.670788e-39
2.6108251 0.012427156 -1.2520177 3.2228828e-39
2.6110525 0.031067891 -1.2510073 2.94704e-39
2.5750093 -0.030572476 -1.206203 3.313991e-39
2.5750096 -0.015286239 -1.2062031 4.8878313e-39
2.5931542 -0.010271559 -1.2257799 1.8442559e-39
2.5772469 0.010190826 -1.1962608 1.2536777e-38
2.5947649 0.010271559 -1.2186221 2.9488392e-39
2.5969126 0.034238532 -1.2090782 4.7895204e-39
2.5817213 -0.030572476 -1.1763763 2.2080414e-39
2.5559011 -0.020212844 -1.1863531 1.3370779e-38
2.5806029 -0.015286239 -1.1813476 1.9310874e-39
2.6044295 -0.015407339 -1.175675 2.3938438e-39
2.5814421 0.01146468 -1.1776192 4.1448335e-39
2.6044295 0 -1.175675 2.8522968e-39
2.5806029 0.035667889 -1.1813475 5.0631842e-39
2.5532119 -0.12737249 -1.1345351 4.7891407e-39
2.5051737 -0.10858716 -1.1202606 1.161308e-38
2.5232744 -0.11606728 -1.1354767 8.4802001e-39
2.5895522 -0.096812844 -1.1415788 8.5727741e-39
2.6111946 -0.092444032 -1.1456121 6.8189271e-39
2.5647762 -0.060638532 -1.1469136 2.8512234e-39
2.5895522 -0.066240363 -1.1415788 3.8668229e-39
2.6111946 -0.082172476 -1.1456121 3.039911e-39
2.5861962 -0.050954126 -1.156492 2.3920403e-39
2.6089394 -0.047933947 -1.1556331 2.4856807e-39
2.6518159 -0.041761469 -1.1746253 1.6584409e-39
2.5669951 0.015159633 -1.1370537 2.4853205e-39
2.5861962 0.020381652 -1.156492 2.6689845e-39
2.6066844 0.0051357797 -1.1656541 2.3016397e-39
2.5312831 -0.12933211 -1.0998884 4.0515742e-39
2.549623 -0.1203523 -1.1185988 6.9056689e-39
2.5298269 -0.11275107 -1.1063589 1.0042858e-38
2.549623 -0.11032294 -1.1185988 1.1798898e-38
2.5940268 -0.10190825 -1.1216943 1.1607998e-38
2.6360619 -0.093203671 -1.139871 7.0051148e-39
2.6134496 -0.061629359 -1.1355911 4.2338089e-39
2.6356826 -0.079395719 -1.1415547 3.2221835e-39
2.4838972 -0.10720122 -1.0584234 1.1702735e-38
2.5138426 -0.10858716 -1.0817378 1.1799631e-38
2.4610734 -0.12542018 -1.0383829 1.2897267e-38
2.4631915 -0.11577248 -1.0289706 1.1610519e-38
2.4846976 -0.10543425 -1.0396837 1.1337556e-38
