# .PCD v0.7 - Point Cloud Data file format
VERSION 0.7
FIELDS x y z rgb
SIZE 4 4 4 4
TYPE F F F F
COUNT 1 1 1 1
WIDTH 120
HEIGHT 1
VIEWPOINT 0 0 0 1 0 0 0
POINTS 120
DATA ascii
2.5155063 -0.22085643 -1.3539032 1.2357461e-38
2.5436869 -0.22419816 -1.3453938 8.0949621e-39
2.5157793 -0.19182935 -1.3526895 6.7270594e-39
2.5192909 -0.17180917 -1.3490406 7.8355467e-39
2.5414498 -0.15795779 -1.3553361 8.3811731e-39
2.5204003 -0.12127706 -1.3441107 6.6273066e-39
2.5425682 -0.13757613 -1.3503649 8.6595733e-39
2.5204003 -0.11117064 -1.3441107 7.4545197e-39
2.5429409 -0.098511316 -1.3487078 8.1960602e-39
2.5630867 -0.078748621 -1.3593926 9.9473932e-39
2.5200248 -0.2168835 -1.3218663 1.1241034e-38
2.5470428 -0.22419816 -1.3304806 1.2895881e-38
2.5184207 -0.19150825 -1.3210247 9.3985578e-39
2.524838 -0.17180915 -1.324391 9.8566577e-39
2.5481617 -0.15795779 -1.3255094 8.941181e-39
2.5226192 -0.12127706 -1.3342508 9.6790389e-39
2.5477889 -0.13417919 -1.3271664 8.3883534e-39
2.5691001 -0.13010643 -1.3326702 7.6497304e-39
2.5237286 -0.10611743 -1.329321 8.7596274e-39
2.5484414 -0.10190826 -1.3242668 1.0317246e-38
2.5481613 -0.081526607 -1.3255093 1.0970543e-38
2.5683486 -0.066765137 -1.3360105 9.490022e-39
2.5694761 -0.051357798 -1.3309999 9.3070657e-39
2.5917273 -0.036245871 -1.3368855 8.8464505e-39
2.5917273 -0.015533946 -1.3368855 8.4809147e-39
2.5972943 0.010377064 -1.3383362 8.6649403e-39
2.5164623 -0.21354772 -1.2898715 9.4893213e-39
2.4919684 -0.19897246 -1.2745947 9.6776601e-39
2.517015 -0.18965091 -1.2874159 1.0135042e-38
2.528074 -0.16750459 -1.2908798 1.0597098e-38
2.5548732 -0.15286238 -1.2956828 1.0411273e-38
2.5337131 -0.14148991 -1.2849516 1.0144036e-38
2.5526361 -0.13757613 -1.305625 9.12701e-39
2.5728586 -0.12325872 -1.3159685 7.5618409e-39
2.5537548 -0.096812844 -1.3006539 9.7648068e-39
2.5758655 -0.10271559 -1.3026072 9.5822134e-39
2.5526361 -0.081526607 -1.305625 8.2932851e-39
2.5751138 -0.07043355 -1.3059475 9.0290452e-39
2.6002529 -0.072491743 -1.298998 1.0132501e-38
2.5754895 -0.041086238 -1.3042774 9.3978404e-39
2.5985477 -0.051779814 -1.3065755 8.5652239e-39
2.5773687 -0.015407339 -1.2959266 8.1135882e-39
2.5977895 -0.013807951 -1.3099432 9.1234143e-39
2.5773687 0.020543119 -1.2959266 9.860601e-39
2.5982232 0.0073971166 -1.3080189 9.768055e-39
2.6008213 0.031067891 -1.2964722 1.0226875e-38
2.5359321 -0.21223487 -1.2750918 6.7281328e-39
2.5165949 -0.19055779 -1.2653688 8.3875953e-39
2.5270915 -0.16097616 -1.2597189 5.7136249e-39
2.5245085 -0.13742752 -1.2620866 8.4794658e-39
2.5818789 -0.097579814 -1.2758846 8.2003664e-39
2.5830064 -0.071900919 -1.2708741 3.6852832e-39
2.6042316 -0.072491743 -1.2813172 4.1415993e-39
2.5627043 -0.040763304 -1.2608851 5.3466165e-39
2.5815568 -0.041086238 -1.2773162 7.4628055e-39
2.58233 -0.016434494 -1.2738805 7.8369663e-39
2.5827808 0.014380184 -1.2718763 9.3070545e-39
2.6053684 0.0051779817 -1.2762656 5.2547852e-39
2.5403695 0.030319266 -1.255372 9.5850945e-39
2.563823 0.030572476 -1.255914 9.3999816e-39
2.5028892 -0.15917797 -1.2260652 2.8480214e-39
2.5232005 -0.15044038 -1.2360148 2.1172667e-39
2.4835014 -0.13820183 -1.2165679 2.2076603e-39
2.500705 -0.13430642 -1.2357711 1.380073e-39
2.567179 -0.096812844 -1.2410008 7.647201e-39
2.567179 -0.081526607 -1.2410008 1.6598997e-39
2.5863891 -0.066765137 -1.2558427 2.8533842e-39
2.5660603 -0.040763304 -1.2459719 2.5768099e-39
2.588644 -0.033382569 -1.2458217 2.3945612e-39
2.5705349 -0.020381652 -1.2260875 2.947714e-39
2.5881929 -0.014380182 -1.247826 2.3016355e-39
2.588644 0.020543119 -1.2458217 2.2138035e-39
2.6202466 0.0062473393 -1.2520548 2.3945612e-39
2.5875165 0.030814679 -1.2508322 4.4110227e-39
2.4662638 -0.13712293 -1.1975149 2.5768001e-39
2.5761282 -0.030572476 -1.201232 4.0421982e-39
2.5931542 -0.030814679 -1.2257799 2.1197568e-39
2.5761282 -0.020381652 -1.201232 7.5650807e-39
2.5948453 -0.01283945 -1.2182641 4.9789199e-39
2.5738909 0.020381652 -1.2111741 2.208068e-39
2.5958602 0.0041086236 -1.2137548 5.7118425e-39
2.5408156 -0.090264216 -1.1577375 3.8607566e-39
2.5603387 -0.080851376 -1.1666334 1.4740595e-39
2.5817215 -0.035667889 -1.1763765 2.1183345e-39
2.5794842 -0.015286239 -1.1863186 1.1024309e-39
2.649524 -0.020880735 -1.1848109 2.578228e-39
2.5603387 0.020212844 -1.1666334 2.7622535e-40
2.5999193 0.0051357797 -1.195717 8.1095861e-39
2.5225465 -0.12933211 -1.138712 3.0320231e-39
2.5229108 -0.10943487 -1.1370944 1.0140094e-38
2.5549979 -0.095625684 -1.1425409 7.2780836e-39
2.6326513 -0.093203671 -1.1550258 6.1713829e-39
2.5647762 -0.060638532 -1.1469136 2.1183345e-39
2.5884335 -0.061144952 -1.1465498 2.6679532e-39
2.6089394 -0.071900919 -1.1556331 3.2271974e-39
2.6326513 -0.067313761 -1.1550258 3.3176162e-39
2.5625575 -0.050532106 -1.1567736 2.4838772e-39
2.5861962 -0.050954126 -1.156492 2.2101714e-39
2.6089394 -0.041086238 -1.1556331 2.3934962e-39
2.6308327 -0.039352663 -1.1631085 1.8424707e-39
2.6111946 -0.020543119 -1.1456121 3.0460795e-39
2.6303778 -0.015533945 -1.1651292 2.210191e-39
2.5116754 -0.12833028 -1.0913684 4.7801205e-39
2.5269148 -0.13430642 -1.1193002 4.884925e-39
2.549623 -0.13038166 -1.1185988 4.3281429e-39
2.5290992 -0.11440917 -1.1095943 1.0139011e-38
2.5518248 -0.10029358 -1.1088141 1.0877645e-38
2.5951455 -0.091717429 -1.1167233 6.2707378e-39
2.6134496 -0.092444032 -1.1355911 6.5419184e-39
2.5951455 -0.081526607 -1.1167233 3.7735917e-39
2.6349247 -0.072491743 -1.1449225 3.4101509e-39
2.6349249 -0.051779814 -1.1449226 2.3970948e-39
2.4963682 -0.12732844 -1.0637374 1.2722946e-38
2.5138426 -0.12833028 -1.0817378 2.3939054e-39
2.4963682 -0.11753394 -1.0637374 1.2257713e-38
2.5160096 -0.11187768 -1.072107 1.0044684e-38
2.5351055 -0.10197339 -1.082903 1.1151354e-38
2.4797959 -0.1263743 -1.0462824 1.3449366e-38
2.4808631 -0.11665321 -1.0415404 1.2163722e-38
2.5203443 -0.10858716 -1.0528456 1.0422089e-38
