# .PCD v0.7 - Point Cloud Data file format
VERSION 0.7
FIELDS x y z rgb
SIZE 4 4 4 4
TYPE F F F F
COUNT 1 1 1 1
WIDTH 140
HEIGHT 1
VIEWPOINT 0 0 0 1 0 0 0
POINTS 140
DATA ascii
4.1404853 -0.22348623 -1.4144408 5.88615e-39
4.090817 -0.18918166 -1.389192 1.097349e-38
4.1399012 -0.20220183 -1.4170364 8.2947578e-39
4.0890865 -0.16553394 -1.3968823 1.0690088e-38
4.0896635 -0.13663119 -1.3943188 1.0145531e-38
4.1387334 -0.12770642 -1.4222277 1.1892184e-38
4.1422377 -0.10376146 -1.4066539 1.1708196e-38
4.1410694 -0.069174312 -1.4118452 1.20737e-38
4.1404853 -0.039908256 -1.4144408 1.2811964e-38
4.1404853 -0.015963303 -1.4144408 1.1595434e-38
4.0890865 0.015765138 -1.3968823 1.1065294e-38
4.1422377 0 -1.4066539 1.1242129e-38
4.1404853 0.039908256 -1.4144408 1.1528436e-38
4.1991134 0.048506424 -1.4089882 1.3271532e-38
4.1474948 -0.22348623 -1.3832932 7.0079973e-39
4.0960088 -0.18918166 -1.3661212 1.1895789e-38
4.1474948 -0.20752293 -1.3832932 9.1954466e-39
4.0960088 -0.16553394 -1.3661212 1.308822e-38
4.0437665 -0.14013578 -1.3568627 1.2634447e-38
4.0965858 -0.13137615 -1.3635578 1.2268189e-38
4.0965858 -0.10510091 -1.3635578 1.2073738e-38
4.1457424 -0.095779814 -1.39108 1.3921556e-38
4.0965858 -0.068315595 -1.3635578 1.2170955e-38
4.1457424 -0.079816505 -1.39108 1.2259906e-38
4.0942783 -0.031530276 -1.3738115 1.0596427e-38
4.1480789 -0.042568807 -1.3806975 1.1804671e-38
4.1474948 -0.015963303 -1.3832932 1.2254875e-38
4.0960088 0.015765138 -1.3661212 1.1800734e-38
4.1474948 0 -1.3832932 1.1797512e-38
4.1474948 0.031926606 -1.3832932 1.2255606e-38
4.0506034 -0.18684772 -1.3264811 8.5411608e-39
4.102931 -0.20494679 -1.3353602 6.7288629e-39
4.0506034 -0.16349176 -1.3264811 1.253352e-38
4.1046615 -0.15765136 -1.32767 2.7589605e-40
4.102931 -0.13400367 -1.3353602 8.8478994e-39
4.102931 -0.10247339 -1.3353602 7.2827191e-39
4.102931 -0.070943117 -1.3353602 9.0286907e-39
4.1545038 -0.039908256 -1.3521454 1.0780045e-38
4.1046615 -0.015765138 -1.32767 1.141501e-38
4.1527519 -0.015963303 -1.3599323 1.7523289e-38
4.0506034 0.015570642 -1.3264811 1.5679035e-38
4.1046615 0.007882569 -1.32767 1.298949e-38
4.1527519 0 -1.3599323 1.650988e-38
4.1012006 0.031530276 -1.3430505 1.439404e-38
4.1562562 0.031926606 -1.3443586 1.4205585e-38
4.0557308 -0.18684772 -1.3036951 3.3172532e-39
4.1081228 -0.20494679 -1.3122895 5.357761e-39
4.0557308 -0.17127708 -1.3036951 1.3807933e-39
4.1104302 -0.16290642 -1.3020358 2.6725887e-39
4.1098533 -0.13400367 -1.3045992 3.4083797e-39
4.1104302 -0.099845864 -1.3020358 2.3956627e-39
4.159761 -0.11174311 -1.3287847 2.5821895e-39
4.1081228 -0.078825682 -1.3122895 3.6784631e-39
4.1620975 -0.069174312 -1.3184021 3.6795589e-39
4.1615133 -0.039908256 -1.3209977 2.1183513e-39
4.1615133 -0.015963303 -1.3209977 1.1978327e-39
4.0574403 0.015570642 -1.2960997 3.6773995e-40
4.1098533 0.007882569 -1.3045992 1.6559466e-39
4.1632657 0 -1.3132108 2.4846311e-39
4.1098533 0.031530276 -1.3045992 2.6689887e-39
4.3342099 -0.26545322 -1.3324615 7.0104356e-39
4.0642772 -0.21798898 -1.2657181 4.8813279e-39
4.118506 -0.22071192 -1.2661479 4.790542e-39
4.0608587 -0.19463304 -1.2809089 4.1427147e-39
4.1167755 -0.19706422 -1.2738382 3.8736878e-39
4.1167755 -0.16553394 -1.2738382 5.6326411e-39
4.1167755 -0.13400367 -1.2738382 5.7241193e-39
4.1150451 -0.11035596 -1.2815285 1.8374904e-39
4.1702747 -0.10376146 -1.2820631 3.5103928e-39
4.1667705 -0.079816505 -1.297637 2.115487e-39
4.2227783 -0.070064835 -1.3038261 5.447154e-39
4.1679382 -0.037247706 -1.2924457 2.5836735e-39
4.2239614 -0.048506424 -1.2985679 7.6537156e-39
4.1667705 -0.015963303 -1.297637 1.0163071e-39
4.1667705 0.0079816515 -1.297637 2.0269138e-39
4.2204118 0.032337617 -1.3143423 2.8544422e-39
4.3414946 -0.28204402 -1.3000894 9.5862001e-39
4.2839994 -0.26204771 -1.2913997 5.62499e-39
4.1219673 -0.2285945 -1.2507674 3.413025e-39
4.1772842 -0.23944955 -1.2509154 4.7876833e-39
4.1219673 -0.19706422 -1.2507674 1.1241404e-38
4.1219673 -0.16553394 -1.2507674 1.8073641e-38
4.1219673 -0.14188623 -1.2507674 1.7525489e-38
4.1737795 -0.12770642 -1.2664893 1.7982156e-38
4.231061 -0.12935047 -1.2670193 1.7426406e-38
4.1737795 -0.11174311 -1.2664893 1.8357404e-38
4.231061 -0.11318165 -1.2670193 1.4034618e-38
4.2839994 -0.098267883 -1.2913997 1.287323e-38
4.2298779 -0.075454436 -1.2722774 1.474453e-38
4.2822018 -0.065511927 -1.2993889 1.6309999e-38
4.2292862 -0.048506424 -1.2749064 1.3210213e-38
4.2929888 -0.27842566 -1.2514536 1.1249289e-38
4.2363858 -0.25061652 -1.2433578 4.7852016e-39
4.2929888 -0.26204771 -1.2514536 6.5444282e-39
4.1271591 -0.22071192 -1.2276967 3.4072965e-39
4.180789 -0.23944955 -1.2353417 3.595617e-39
4.0762415 -0.18684772 -1.2125504 1.0973068e-38
4.1271591 -0.20494679 -1.2276967 6.1699045e-39
4.0745325 -0.17127708 -1.2201458 1.8262955e-38
4.1277356 -0.16290642 -1.2251332 8.2868797e-39
4.1842933 -0.15963301 -1.2197678 1.0704733e-38
4.1254282 -0.14188623 -1.2353868 1.5395958e-38
4.1825409 -0.14366972 -1.2275547 6.3435394e-39
4.2363858 -0.12935047 -1.2433578 7.5363275e-39
4.2363858 -0.10509725 -1.2433578 1.0135106e-38
4.1842933 -0.071834862 -1.2197678 1.6329082e-38
4.2346106 -0.072759636 -1.2512449 1.4111382e-38
4.2363858 -0.048506424 -1.2433578 8.288644e-39
4.2929888 -0.032755964 -1.2514536 8.2947144e-39
4.3487797 -0.016590826 -1.2677172 4.6180478e-39
4.2929888 0.016377982 -1.2514536 1.3800618e-39
4.4064937 0 -1.2845416 1.8381645e-39
4.2965841 -0.25385872 -1.2354753 5.249051e-39
4.1323504 -0.22071192 -1.2046258 3.1328409e-39
4.1335044 -0.19443671 -1.199499 4.6962108e-39
4.187798 -0.20752293 -1.2041939 1.2868558e-39
4.1340814 -0.17341653 -1.1969357 1.3274342e-38
4.187798 -0.15963301 -1.2041939 1.4569044e-38
4.187798 -0.14366972 -1.2041939 8.4762905e-39
4.2417102 -0.12935047 -1.2196963 8.3646476e-39
4.187798 -0.11174311 -1.2041939 1.6776327e-38
4.2417102 -0.097012848 -1.2196963 2.147909e-38
4.187798 -0.071834862 -1.2041939 1.5106094e-38
4.243485 -0.048506424 -1.211809 1.2627881e-38
4.2983823 -0.032755964 -1.227486 1.5022808e-38
4.2983823 -0.016377982 -1.227486 7.6612588e-39
4.4101844 0 -1.2681408 1.8474859e-40
4.1410036 -0.18918166 -1.1661745 1.1417135e-38
4.1913028 -0.20752293 -1.1886201 6.361186e-39
4.1410036 -0.16553394 -1.1661745 1.612414e-38
4.1930552 -0.16761467 -1.1808332 1.6310329e-38
4.192471 -0.13834862 -1.1834288 1.0227234e-38
4.1392727 -0.078825682 -1.1738648 1.1557892e-38
4.1913028 -0.063853212 -1.1886201 6.7961868e-39
4.2488098 -0.064675234 -1.1881475 6.3370094e-39
4.2505846 -0.048506424 -1.1802604 1.3457998e-38
4.3037758 -0.032755964 -1.2035184 1.6121608e-38
4.3037758 -0.016377982 -1.2035184 1.2635811e-38
4.1461949 -0.15765136 -1.1431038 1.4833739e-38
4.1983118 -0.17559633 -1.1574724 1.4836631e-38
