# .PCD v0.7 - Point Cloud Data file format
VERSION 0.7
FIELDS x y z rgb
SIZE 4 4 4 4
TYPE F F F F
COUNT 1 1 1 1
WIDTH 158
HEIGHT 1
VIEWPOINT 0 0 0 1 0 0 0
POINTS 158
DATA ascii
3.1818569 0.077494308 -1.3745425 7.4635356e-39
3.1815827 0.10624219 -1.375762 7.5535747e-39
3.1493981 0.14853577 -1.3684705 8.5612456e-39
3.1818569 0.1349901 -1.3745425 8.1074463e-39
3.1480393 0.17329173 -1.3745085 9.1987061e-39
3.18204 0.16665444 -1.3737296 9.8602521e-39
3.2174997 0.17673394 -1.3710216 1.1791356e-38
3.2161138 0.19566974 -1.3771795 1.0597838e-38
3.2155201 0.22903275 -1.3798187 1.1240304e-38
3.1575506 0.074267887 -1.3322425 6.2671196e-39
3.1867962 0.07499449 -1.3525931 7.559327e-39
3.1575506 0.10521284 -1.3322425 8.940486e-39
3.1856987 0.10624219 -1.3574708 8.4784134e-39
3.1575506 0.12996881 -1.3322425 9.9542568e-39
3.1863849 0.14061469 -1.3544222 9.4882325e-39
3.1870708 0.16248807 -1.3513737 1.0512145e-38
3.2216568 0.17673394 -1.3525478 1.0236257e-38
3.2216568 0.19566974 -1.3525478 1.0692211e-38
3.1884429 0.22498347 -1.3452766 1.0139374e-38
3.2230425 0.22722936 -1.3463899 1.0968053e-38
3.2211947 0.26089296 -1.3546004 1.0137938e-38
3.2216568 0.2840367 -1.3525478 1.0504195e-38
3.2216568 0.3029725 -1.3525478 9.4043186e-39
3.2544353 0.31880733 -1.3663092 9.8598975e-39
3.1329782 0.073563308 -1.2956806 8.1146055e-39
3.1616268 0.077362381 -1.3141285 8.6624263e-39
3.1911869 0.062495407 -1.3330824 4.5972146e-39
3.1302865 0.098084405 -1.3076421 8.6675173e-39
3.1620798 0.10727584 -1.3121158 1.0689319e-38
3.1966751 0.11249173 -1.3086942 9.7665781e-39
3.1939311 0.13748991 -1.3208884 1.0968057e-38
3.1944797 0.16748771 -1.3184495 1.106169e-38
3.1953032 0.18748623 -1.3147912 1.152518e-38
3.2271998 0.20198166 -1.3279161 1.152375e-38
3.1939311 0.22498347 -1.3208883 1.1893252e-38
3.2269228 0.22722936 -1.3291477 1.2255918e-38
3.1911869 0.24998163 -1.3330824 1.0687884e-38
3.2271998 0.258789 -1.3279161 1.2354978e-38
3.2271998 0.2840367 -1.3279161 1.1798549e-38
3.2271998 0.3029725 -1.3279161 1.0875531e-38
3.2628343 0.31880733 -1.3289857 1.2632588e-38
3.1083026 0.060715593 -1.2595769 6.2538857e-39
3.1370158 0.073563308 -1.2777385 4.8809972e-39
3.1677411 0.080456875 -1.2869576 4.5997174e-39
3.1657031 0.099023849 -1.2960145 9.6643477e-39
3.2007914 0.10624219 -1.290403 1.5648104e-39
3.171138 0.1361578 -1.2718626 4.7905854e-39
3.2005167 0.1374899 -1.2916224 3.4069307e-39
3.2007914 0.16873762 -1.290403 1.8392533e-39
3.2012486 0.1916526 -1.2883706 3.0338266e-39
3.2313571 0.20198166 -1.3094423 4.9792857e-39
3.2021632 0.22498345 -1.2843059 3.5869976e-39
3.2313569 0.22722936 -1.3094422 8.4693989e-39
3.2327428 0.258789 -1.3032843 7.189799e-39
3.2335742 0.2827743 -1.2995896 6.5404807e-39
3.2698336 0.29330274 -1.2978827 3.8696731e-39
3.2327428 0.3029725 -1.3032844 8.7553464e-39
3.2698336 0.30605504 -1.2978827 4.7844576e-39
3.1437454 0.073563308 -1.2478349 4.6108479e-39
3.1752143 0.086645864 -1.2537485 3.2182221e-39
3.1752143 0.10521284 -1.2537485 2.3020265e-39
3.2103956 0.11249173 -1.2477235 1.9300574e-39
3.1752143 0.12996881 -1.2537485 3.1325046e-39
3.2087488 0.14248954 -1.2550399 2.9466924e-39
3.2076516 0.16873761 -1.2599176 2.4871296e-39
3.2062795 0.19373578 -1.2660147 2.7630004e-39
3.2424428 0.19566974 -1.2601788 3.5923954e-39
3.2782326 0.2040367 -1.2605592 1.7511536e-39
3.3112507 0.19321102 -1.2732555 1.286137e-39
3.176573 0.21042567 -1.2477106 3.9572402e-39
3.2060049 0.22748327 -1.2672341 3.4051342e-39
3.2424426 0.22722936 -1.2601787 3.6820617e-39
3.2782326 0.22954127 -1.2605592 9.2373595e-41
3.3112507 0.21897247 -1.2732555 7.3514219e-40
3.2062795 0.25623119 -1.2660147 2.3967066e-39
3.2424428 0.258789 -1.2601788 2.3949284e-39
3.241519 0.28193271 -1.264284 2.8559107e-39
3.2754328 0.29330274 -1.2730004 3.776774e-39
3.2410572 0.3029725 -1.2663367 4.1430426e-39
3.2782326 0.30605504 -1.2605592 3.1281928e-39
3.1491287 0.073563308 -1.223912 3.4162578e-39
3.182008 0.080456875 -1.2235585 6.8243109e-39
3.2158837 0.07499449 -1.2233351 1.2533572e-38
3.182008 0.099023849 -1.2235585 9.7767627e-39
3.2145116 0.11249173 -1.2294322 1.3279122e-38
3.214237 0.1349901 -1.2306516 1.1613533e-38
3.2468772 0.16663487 -1.2404734 1.0700146e-38
3.2838318 0.17853209 -1.2356769 1.203242e-38
3.2810323 0.19766055 -1.248118 1.5575731e-38
3.3169065 0.19965139 -1.2481225 1.7620517e-38
3.2452145 0.2398532 -1.2478629 1.1024604e-39
3.3154926 0.22541285 -1.2544057 1.7046164e-38
3.3537829 0.22772476 -1.2482284 1.4114932e-38
3.2810323 0.24229357 -1.248118 1.0239038e-38
3.3169065 0.24473393 -1.2481225 3.8574762e-39
3.2452145 0.27772477 -1.2478629 4.6173387e-39
3.2549145 0.050495416 -1.2047575 3.131776e-39
3.2894313 0.03825688 -1.2107944 4.5146852e-39
3.187443 0.074267887 -1.1994066 1.9097467e-38
3.220274 0.07499449 -1.2038245 1.7602524e-38
3.2563004 0.075743116 -1.1985995 6.9010516e-39
3.2186279 0.10624219 -1.211141 2.0098321e-38
3.2549145 0.10730276 -1.2047573 1.5665698e-38
3.2186279 0.13124037 -1.211141 1.964094e-38
3.2544525 0.13465442 -1.20681 1.7695818e-38
3.2894313 0.12752293 -1.2107944 1.4651837e-38
3.3253901 0.12880734 -1.2104231 1.8404094e-40
3.2529745 0.15653579 -1.2133785 1.8071088e-38
3.2884979 0.17428131 -1.2149415 1.4075425e-38
3.3253901 0.16744953 -1.2104231 9.3928391e-39
3.3216195 0.19321102 -1.2271785 1.7142322e-38
3.3580682 0.20169909 -1.2291853 1.7319877e-38
3.3253901 0.2318532 -1.2104231 6.439611e-40
3.3575923 0.22555596 -1.2313013 9.5022525e-39
3.323976 0.24473393 -1.2167063 2.1208834e-39
3.3296318 0.025761468 -1.1915734 4.6955297e-39
3.2609193 0.046287466 -1.178073 3.8657481e-39
3.2950306 0.044633027 -1.1859121 2.8551863e-39
3.22686 0.074994497 -1.1745586 7.353046e-39
3.2601805 0.075743124 -1.1813573 5.5288581e-39
3.2978303 0.063761465 -1.173471 1.1027644e-39
3.2604575 0.10730276 -1.1801257 6.5469841e-39
3.2978303 0.11477064 -1.173471 1.2910261e-38
3.2922308 0.14027523 -1.1983533 9.2218051e-41
3.3291607 0.13310091 -1.1936678 6.2574619e-39
3.3652103 0.14314128 -1.1974469 7.4628308e-39
3.2922308 0.15302752 -1.1983533 1.8413342e-40
3.328218 0.16100916 -1.1978565 1.4384355e-38
3.3652103 0.16266054 -1.1974469 1.6591639e-38
3.3637819 0.19519265 -1.2037946 1.6319736e-38
3.3296318 0.22541285 -1.1915733 1.0589544e-38
3.3296318 0.2511743 -1.1915734 6.362562e-39
3.2673862 0.041027524 -1.149336 4.6991143e-39
3.3034296 0.051009174 -1.1485887 7.0169838e-39
3.2350924 0.074994497 -1.1379762 1.3913934e-38
3.2666934 0.082055047 -1.152415 1.3912521e-38
3.3020298 0.063761465 -1.1548092 8.3782738e-39
3.2673862 0.10730276 -1.149336 1.5204697e-38
3.3024962 0.1317737 -1.1527356 1.0596039e-38
3.3338737 0.14168808 -1.1727237 8.4747813e-39
3.3338737 0.16100916 -1.1727237 1.4834132e-38
3.3034296 0.2040367 -1.1485887 7.622747e-39
3.3338737 0.20609175 -1.1727237 6.7043556e-39
3.3680673 0.18868624 -1.1847516 1.4946886e-38
3.3020298 0.22316512 -1.1548092 1.4467853e-38
3.3348165 0.24902751 -1.1685349 1.1615193e-38
3.3723526 0.26025686 -1.1657085 9.404348e-39
3.3062294 0.051009174 -1.1361475 6.2786537e-39
3.2396657 0.083327211 -1.1176527 1.5483064e-38
3.3062294 0.063761465 -1.1361475 5.6942324e-39
3.2405806 0.10624219 -1.113588 1.5109603e-38
3.2729292 0.12623852 -1.1247042 1.3262508e-38
3.2433245 0.21248439 -1.1013938 1.2531374e-38
3.2743149 0.22091743 -1.1185464 1.5023165e-38
3.3062294 0.22954127 -1.1361475 1.5203613e-38
3.3395295 0.24473393 -1.1475906 1.3820305e-38
3.2119005 0.086645864 -1.0907227 1.7043899e-38
3.2119005 0.099023849 -1.0907227 1.5663138e-38
