# .PCD v0.7 - Point Cloud Data file format
VERSION 0.7
FIELDS x y z rgb
SIZE 4 4 4 4
TYPE F F F F
COUNT 1 1 1 1
WIDTH 174
HEIGHT 1
VIEWPOINT 0 0 0 1 0 0 0
POINTS 174
DATA ascii
3.2857997 0.09660551 -1.3863539 1.1791693e-38
3.2174997 0.13886239 -1.3710216 8.8252292e-39
3.2147284 0.15779817 -1.3833375 1.1499261e-38
3.2544353 0.051009174 -1.3663092 6.8199865e-39
3.2539685 0.06801223 -1.3683827 9.8620653e-39
3.2900417 0.077284403 -1.3675041 8.3862584e-39
3.2893348 0.099825688 -1.3706458 9.7652062e-39
3.3252141 0.11060917 -1.3751822 8.9347491e-39
3.2530355 0.13389908 -1.3725297 8.7496277e-39
3.2886276 0.13524771 -1.3737873 1.1244663e-38
3.3252141 0.13663486 -1.3751822 1.1798549e-38
3.2530355 0.15940367 -1.3725297 1.0687136e-38
3.2886276 0.16100916 -1.3737873 1.0872973e-38
3.3252141 0.16266054 -1.3751822 1.0782594e-38
3.362797 0.16435778 -1.3767034 1.1063146e-38
3.2886276 0.18033028 -1.3737873 1.1426113e-38
3.3240714 0.19779524 -1.3802602 1.1885672e-38
3.362797 0.18408072 -1.3767034 1.1064199e-38
3.3613536 0.2301009 -1.3831172 1.0686797e-38
3.3613536 0.25639814 -1.3831172 1.1241401e-38
3.3613536 0.28269541 -1.3831172 1.1612343e-38
3.2614346 0.025504587 -1.3352063 3.0460725e-39
3.2942834 0.025761468 -1.3486544 3.6903447e-39
3.2267377 0.046287466 -1.3299687 8.0185199e-39
3.2628343 0.03825688 -1.3289857 5.605589e-39
3.2614343 0.063761465 -1.3352062 1.0318024e-38
3.2956975 0.077284403 -1.3423711 1.0511409e-38
3.2956975 0.09660551 -1.3423711 1.0875158e-38
3.3294995 0.11711559 -1.3561391 1.0606125e-38
3.3303564 0.13793615 -1.3523304 1.1704204e-38
3.3337848 0.15615413 -1.337096 1.0973839e-38
3.3666458 0.16654922 -1.3595996 1.1525561e-38
3.3302135 0.2049523 -1.3529652 1.1149577e-38
3.3676081 0.19284648 -1.3553236 1.1710679e-38
3.4013791 0.18603303 -1.3783402 1.1247889e-38
3.3328326 0.22555596 -1.3413279 1.1154631e-38
3.3656838 0.23667522 -1.3638755 1.1246831e-38
3.3671269 0.25639814 -1.3574616 1.1793872e-38
3.3671269 0.28269541 -1.3574616 1.1335759e-38
3.302767 0.025761468 -1.3109549 6.54485e-39
3.2313571 0.050495416 -1.3094423 9.6798881e-39
3.2679667 0.04675841 -1.3061768 8.4697548e-39
3.302767 0.038642202 -1.3109549 7.1772251e-39
3.2691336 0.073325686 -1.300993 1.0688918e-38
3.2999392 0.077284403 -1.3235214 1.1524476e-38
3.2684338 0.10201835 -1.3041033 1.2255559e-38
3.3020601 0.10948624 -1.3140965 9.861708e-39
3.302767 0.12880734 -1.3109549 6.0784936e-39
3.337594 0.13880366 -1.320169 9.3989096e-39
3.3380699 0.16266054 -1.3180529 9.303128e-39
3.3387842 0.19844587 -1.3148791 1.022507e-38
3.3714571 0.19065504 -1.3382198 1.2904873e-38
3.3385465 0.22555596 -1.3159372 1.5301938e-38
3.3714571 0.23667522 -1.3382198 1.4569823e-38
3.3394985 0.25375044 -1.3117054 1.6041964e-38
3.3714571 0.25639814 -1.3382198 1.2813089e-38
3.3714571 0.27612111 -1.3382198 1.1432327e-38
3.2768328 0.025504587 -1.2667798 5.3422906e-39
3.2754331 0.044633027 -1.2730004 4.3335631e-39
3.2424428 0.075743124 -1.2601788 3.0341755e-39
3.2744999 0.078639142 -1.2771474 1.9314447e-39
3.2740331 0.10201835 -1.2792209 4.3306849e-39
3.310308 0.11163303 -1.2774442 3.8643089e-39
3.3098369 0.12880734 -1.2795388 2.5778833e-39
3.3437839 0.14314128 -1.2926621 2.4856793e-39
3.3112507 0.16100916 -1.2732555 2.67186e-39
3.3423553 0.16266054 -1.2990099 2.3916844e-39
3.3112507 0.18677065 -1.2732555 3.132499e-39
3.3430696 0.19844587 -1.2958361 2.3949214e-39
3.3437839 0.22772476 -1.2926621 1.2885962e-39
3.3098369 0.24473393 -1.2795388 1.1056273e-39
3.3437839 0.26025686 -1.2926621 2.7604781e-39
3.3452122 0.27326974 -1.2863145 4.7891099e-39
3.383004 0.27612111 -1.2869084 3.7792964e-39
3.3169065 0.025761468 -1.2481225 4.6983478e-39
3.3537829 0.026025688 -1.2482284 4.5157586e-39
3.2819653 0.04675841 -1.2439709 3.4995019e-39
3.3169065 0.038642202 -1.2481225 4.1484278e-39
3.2466002 0.069431193 -1.2417049 2.211263e-39
3.2838318 0.070137613 -1.2356769 1.8413062e-40
3.3154926 0.09660551 -1.2544057 3.1300271e-39
3.3516402 0.11386238 -1.2577499 5.4442912e-39
3.3509259 0.13663486 -1.2609237 1.9343804e-39
3.2810323 0.15302752 -1.248118 2.6722369e-39
3.3154926 0.16100916 -1.2544057 1.8449958e-39
3.3528309 0.16482936 -1.2524602 4.3289291e-39
3.3140786 0.18033028 -1.260689 3.0371168e-39
3.3509259 0.19891061 -1.2609237 3.1296446e-39
3.3887773 0.18408072 -1.2612528 4.7070694e-39
3.3140786 0.2318532 -1.260689 2.672576e-39
3.3499739 0.22555596 -1.2651557 2.94667e-39
3.3887773 0.2301009 -1.2612528 3.5002166e-39
3.3140786 0.24473393 -1.260689 2.9477168e-39
3.3480692 0.26025686 -1.2736192 3.6827903e-39
3.3873339 0.25639814 -1.2676667 3.503078e-39
3.4218004 0.27904955 -1.287593 1.9379103e-39
3.3580682 0.026025688 -1.2291853 2.4849548e-39
3.3945506 0.013148624 -1.2355971 3.3208223e-39
3.3197343 0.045082569 -1.235556 4.9850604e-39
3.3580682 0.045544956 -1.2291853 1.5117237e-38
3.320677 0.068697244 -1.2313672 1.5772322e-38
3.3585446 0.073739447 -1.2270695 2.0650057e-38
3.3197343 0.090165138 -1.235556 1.1155748e-38
3.3580682 0.10410275 -1.2291853 2.0375622e-38
3.3580682 0.13663486 -1.2291853 1.7054794e-38
3.3566399 0.15615413 -1.235533 1.267387e-38
3.3935883 0.16654922 -1.2398731 1.7894616e-38
3.4305522 0.19267707 -1.2487015 1.6128854e-38
3.3931072 0.2235266 -1.2420111 4.9738809e-39
3.4334695 0.23918532 -1.2357376 3.2236269e-39
3.3916638 0.24982384 -1.248425 6.0938743e-39
3.4305522 0.25247338 -1.2487015 3.8639166e-39
3.5534446 -0.054869723 -1.2355177 1.2251907e-38
3.4393041 -0.013288073 -1.2098098 3.7774789e-39
3.5154195 -0.020355962 -1.2222966 4.2319872e-39
3.3623536 0.026025688 -1.2101424 7.5308708e-39
3.3996022 0.01643578 -1.2131485 3.3154287e-39
3.4378455 0.0066440366 -1.2162917 4.1437671e-39
3.3637819 0.045544956 -1.2037946 1.106165e-38
3.363306 0.06940183 -1.2059106 1.447074e-38
3.4017673 0.078891739 -1.2035276 5.3423313e-39
3.3623538 0.10410275 -1.2101424 2.009681e-38
3.4012861 0.096423239 -1.2056655 6.6226346e-39
3.4383316 0.1151633 -1.214131 3.4995229e-39
3.3988807 0.13806054 -1.2163554 1.1971088e-38
3.4393041 0.13952477 -1.2098098 1.3824708e-38
3.3652103 0.16916697 -1.1974469 1.663714e-38
3.3996024 0.16107063 -1.2131484 1.7516476e-38
3.4012861 0.19284648 -1.2056655 6.6427601e-39
3.3993618 0.21476085 -1.2142174 2.8512598e-39
3.4373593 0.2214679 -1.2184523 2.8569967e-39
3.5154195 0.23070091 -1.2222966 4.4117808e-39
3.4724491 0.2416954 -1.2356058 3.2236157e-39
3.5124402 0.24427155 -1.2355362 2.4892876e-39
3.5564561 -0.027434861 -1.2221349 4.8723176e-39
3.4075408 0.026297247 -1.1778719 6.4754422e-40
3.4431939 0.0088587152 -1.1925247 2.4885729e-39
3.481293 0 -1.1963061 3.4065776e-39
3.3709242 0.045544952 -1.1720562 8.0112654e-39
3.3709245 0.065064214 -1.1720563 1.3366192e-38
3.4075408 0.078891739 -1.1778719 1.4466066e-38
3.4075408 0.09204036 -1.1778719 8.8518861e-39
3.4441662 0.11073395 -1.1882033 8.5587387e-39
3.4451387 0.14616881 -1.183882 2.0649702e-38
3.4790819 0.13427523 -1.206131 1.7053676e-38
3.3680673 0.16916697 -1.1847516 1.7066987e-38
3.4070597 0.16654922 -1.1800098 1.3545216e-38
3.4451387 0.15945688 -1.183882 1.5043396e-38
3.3680673 0.18217981 -1.1847516 8.4737219e-39
3.4075408 0.19065504 -1.1778719 1.1882065e-38
3.44368 0.21260917 -1.190364 9.8678135e-39
3.5183988 0.23070091 -1.2090571 5.4377751e-39
3.4133141 0.026297247 -1.1522162 6.0860032e-39
3.4495146 0.0066440366 -1.1644362 6.5394157e-39
3.3775904 0.04771376 -1.1424338 1.409726e-38
3.4147575 0.03944587 -1.1458023 7.9901226e-39
3.3785427 0.06940183 -1.138202 1.5849693e-38
3.4118707 0.078891739 -1.1586301 1.6214869e-38
3.4130251 0.10255927 -1.153499 1.0781122e-38
3.4842408 0.14770275 -1.1832061 1.797997e-38
3.412833 0.16654922 -1.1543542 8.2831929e-39
3.4133141 0.19065504 -1.1522162 1.4466408e-38
3.4118707 0.21037798 -1.1586301 1.4280243e-38
3.4509733 0.21260917 -1.1579542 1.4649716e-38
3.417644 0.026297247 -1.1329745 3.3226762e-39
3.4538906 0.013288073 -1.1449903 4.7884302e-39
3.3823516 0.052051377 -1.1212747 1.5019575e-38
3.417644 0.03944587 -1.1329745 8.2763952e-39
3.3823516 0.071570635 -1.1212747 1.5109603e-38
3.417644 0.1709321 -1.1329745 5.5105095e-39
3.4538906 0.19267707 -1.1449903 1.3730634e-38
3.4930847 0.20141284 -1.1439064 1.5578493e-38
3.4538906 0.21260917 -1.1449903 1.4094025e-38
3.4930847 0.21484037 -1.1439064 1.4927008e-38
