# .PCD v0.7 - Point Cloud Data file format
VERSION 0.7
FIELDS x y z rgb
SIZE 4 4 4 4
TYPE F F F F
COUNT 1 1 1 1
WIDTH 115
HEIGHT 1
VIEWPOINT 0 0 0 1 0 0 0
POINTS 115
DATA ascii
2.3397701 -0.15898977 -1.3708934 1.2724444e-38
2.3469937 -0.10491375 -1.3713826 1.1981847e-38
2.3208094 -0.070733942 -1.3560628 8.0091746e-39
2.3436215 -0.082561463 -1.371159 1.0138655e-38
2.3218913 -0.056587156 -1.351473 1.0316551e-38
2.3511062 -0.046141282 -1.3684641 9.1165718e-39
2.3582244 -0.028722936 -1.3673222 1.3824961e-38
2.3777249 -0.016538925 -1.371767 1.3643876e-38
2.3774087 0.0096477056 -1.3731085 1.0966608e-38
2.3577538 0.046503801 -1.3693192 7.0050882e-39
2.3593225 0.07180734 -1.3626627 1.0966244e-38
2.3275163 -0.15844402 -1.3276057 1.2160461e-38
2.3445058 -0.16151559 -1.3383455 1.1793104e-38
2.3283818 -0.13203669 -1.3239338 1.078475e-38
2.3423264 -0.13301285 -1.3475931 1.1242856e-38
2.3434162 -0.10451008 -1.3429693 1.1242856e-38
2.3206933 -0.069920838 -1.3328913 9.4000054e-39
2.3455956 -0.080757797 -1.3337218 1.1524847e-38
2.3251364 -0.056587156 -1.3377033 9.2058709e-39
2.359458 -0.046564676 -1.340293 1.0682823e-38
2.3648136 -0.028722936 -1.3393652 1.2349472e-38
2.3829415 -0.01447156 -1.3496325 1.2342713e-38
2.3560383 0.026719999 -1.3417244 1.1057366e-38
2.3827202 0.0077181654 -1.3505715 1.1427946e-38
2.3576756 0.047773704 -1.3405904 1.1242484e-38
2.3637154 0.076594494 -1.3440248 1.1149936e-38
2.3637154 0.10531744 -1.3440247 1.1609817e-38
2.3840482 0.099692963 -1.3449373 1.0966266e-38
2.3334301 -0.1587584 -1.3025146 1.0968403e-38
2.3528607 -0.16468257 -1.3028965 9.294852e-39
2.3269567 -0.13170356 -1.3023722 1.1246802e-38
2.3250389 -0.10341 -1.3013073 1.2071179e-38
2.3343315 -0.073091738 -1.2986897 1.004504e-38
2.3499546 -0.080757797 -1.3152266 1.0978155e-38
2.3348722 -0.056587156 -1.2963948 9.6679252e-39
2.3596101 -0.044915855 -1.3116239 1.0320126e-38
2.3703043 -0.019148624 -1.3160678 1.0505284e-38
2.3657618 0.014306421 -1.3135455 1.0784387e-38
2.3662682 0.047806319 -1.3138179 1.0876583e-38
2.3703043 0.076594494 -1.3160678 1.1151009e-38
2.3707438 0.099572845 -1.314204 1.1794578e-38
2.3354168 -0.15531835 -1.2733784 6.3525119e-39
2.3219061 -0.13293286 -1.2685871 7.4675041e-39
2.3315172 -0.10339451 -1.2738211 7.924148e-39
2.3295939 -0.075162902 -1.2727789 7.5532033e-39
2.3608522 -0.076007336 -1.268989 2.2116287e-39
2.3391993 -0.056587156 -1.2780355 1.0222929e-38
2.3572197 -0.041170642 -1.2844015 9.6762265e-39
2.3766189 -0.017951833 -1.2892758 5.0671513e-39
2.3723381 0.014306421 -1.2856423 6.5415583e-39
2.3627179 0.04759429 -1.2804466 7.6482716e-39
2.3606954 0.076064423 -1.2793415 8.2010909e-39
2.3592176 0.097384401 -1.2759246 8.0152507e-39
2.3272746 -0.15914497 -1.2458075 5.7132606e-39
2.3301234 -0.13540451 -1.2412515 4.5118223e-39
2.326201 -0.11233762 -1.2503635 6.0831123e-39
2.3478534 -0.077807337 -1.2413167 2.4885645e-39
2.3435264 -0.028293578 -1.2596761 1.3811268e-39
2.3812861 -0.019148624 -1.2694728 2.3030901e-39
2.3478534 0.028293578 -1.2413167 3.3111309e-39
2.3721588 0.014269724 -1.2646071 3.1288977e-39
2.3652112 0.047504585 -1.2504939 3.2200269e-39
2.3672433 0.076080732 -1.2515591 3.7731811e-39
2.3766198 0.097349718 -1.2543974 4.4181848e-39
2.3142042 -0.15795964 -1.2184408 5.5223813e-39
2.3163357 -0.1486679 -1.2093967 3.6824428e-39
2.3355072 -0.13418105 -1.210879 3.1314158e-39
2.3565075 -0.099027522 -1.2045979 7.101576e-39
2.3195329 -0.074333951 -1.1958308 3.3157861e-39
2.3565075 -0.084880732 -1.2045979 3.407274e-39
2.3174014 0.02787523 -1.2048748 3.2203716e-39
2.34203 0.028154129 -1.2108101 3.2221513e-39
2.3532622 0.042440362 -1.2183675 5.1637162e-39
2.3726215 0.051304955 -1.2190521 1.023478e-38
2.3717499 0.076007336 -1.2227511 8.3865667e-39
2.3922679 0.10053027 -1.222878 6.3510742e-39
2.3237958 -0.13473028 -1.1777428 3.9597317e-39
2.3390861 -0.13106056 -1.1956925 6.7262817e-39
2.349323 -0.10463224 -1.1877552 5.4345073e-39
2.323796 -0.074333951 -1.177743 2.5785896e-39
2.3423073 -0.084253214 -1.1820248 3.0413642e-39
2.3782883 0.028502753 -1.1950085 3.4061768e-39
2.362998 0.042440366 -1.1770589 2.4853233e-39
2.3776655 0.048861861 -1.1976507 2.2083749e-39
2.362998 0.066018343 -1.1770589 3.3132693e-39
2.378016 0.077194959 -1.1961645 2.7590432e-39
2.379596 0.10260991 -1.18946 5.7063872e-39
2.3280592 -0.15795964 -1.1596551 5.9001742e-39
2.2784083 -0.12731008 -1.134923 3.2250282e-39
2.3052866 -0.14111926 -1.1516563 3.3150798e-39
2.3463876 -0.10110386 -1.1647123 3.2243121e-39
2.3136251 -0.069192663 -1.1424314 4.5118279e-39
2.3287697 -0.080528446 -1.1566404 2.8573316e-39
2.3576896 -0.07322862 -1.1498879 5.1582777e-39
2.3946114 -0.082561463 -1.1548114 4.9789017e-39
2.3136251 -0.055354126 -1.1424314 1.1522645e-38
2.3323221 -0.055750459 -1.1415671 1.0878714e-38
2.3508973 -0.051488075 -1.1455775 1.1885661e-38
2.4054461 -0.0095743118 -1.1669641 2.5840028e-39
2.4260988 -0.0096477065 -1.1665193 3.41196e-39
2.3662434 0.014146789 -1.1632894 3.1299599e-39
2.3934181 0.014300305 -1.1671401 2.8555366e-39
2.4260988 0.01447156 -1.1665193 3.1335752e-39
2.3657026 0.047155965 -1.1655843 2.8533968e-39
2.3870063 0.038003668 -1.1580184 3.3125799e-39
2.347676 0.065530278 -1.1592453 2.7597382e-39
2.3826473 0.080757797 -1.1765134 2.7601278e-39
2.3826473 0.10451009 -1.1765134 7.0879008e-39
2.3621106 -0.065692969 -1.1256081 7.2693913e-39
2.4006019 -0.081088066 -1.1439247 3.7789306e-39
2.3387167 -0.055750459 -1.1144353 1.1154931e-38
2.3562663 -0.053048324 -1.122798 1.1794906e-38
2.3924551 0.028502753 -1.1348995 4.2366704e-39
2.4283121 0.01447156 -1.1571288 3.6867392e-39
2.3738158 0.037724771 -1.1311605 3.6853169e-39
