# .PCD v0.7 - Point Cloud Data file format
VERSION 0.7
FIELDS x y z rgb
SIZE 4 4 4 4
TYPE F F F F
COUNT 1 1 1 1
WIDTH 206
HEIGHT 1
VIEWPOINT 0 0 0 1 0 0 0
POINTS 206
DATA ascii
3.0675459 0.097144954 -1.409147 7.259358e-39
3.0351222 0.16835962 -1.4072247 1.0797354e-38
3.0359106 0.19412896 -1.4038805 6.5433842e-39
3.0064104 0.21441467 -1.3939127 2.3081768e-39
2.9481571 0.25721836 -1.3795271 4.5100791e-39
2.9759173 0.2596404 -1.392517 8.5666168e-39
3.005044 0.25015047 -1.3997097 6.2639148e-39
2.946816 0.29229358 -1.3852171 5.5303407e-39
2.9764588 0.2785233 -1.3902196 8.1035198e-39
2.9213219 0.30701101 -1.3669702 8.0113606e-39
2.9461455 0.3186 -1.3880621 9.0265495e-39
2.9481571 0.33906057 -1.3795271 1.0403372e-38
2.9745636 0.34815416 -1.3982606 1.1413533e-38
3.0064104 0.3573578 -1.3939127 9.8552326e-39
3.0351219 0.36878777 -1.4072248 1.0863621e-38
3.0675459 0.37643671 -1.409147 1.0587742e-38
3.1000235 0.39233762 -1.4108409 1.1147008e-38
3.0735815 0.074882567 -1.3835386 1.059708e-38
3.0759029 0.10321651 -1.3736892 4.0569707e-39
3.1028361 0.10421468 -1.3989072 3.1303578e-39
3.0433981 0.14430825 -1.3721098 1.069351e-38
3.0745101 0.12750275 -1.3795989 4.4196127e-39
3.1028361 0.1226055 -1.3989072 1.9382676e-39
3.0129683 0.16676697 -1.3660864 1.1339358e-38
3.0118754 0.19059083 -1.3707241 4.4110269e-39
3.0406396 0.19241101 -1.3838147 8.2054251e-39
2.9548624 0.25721836 -1.3510772 7.3006935e-39
2.9239795 0.28963304 -1.3556938 1.3752675e-38
2.9562035 0.29229358 -1.3453872 8.1161021e-39
2.9831371 0.27537617 -1.3618848 5.5267197e-39
3.0091429 0.28588626 -1.3823184 1.0946476e-38
2.898046 0.31002936 -1.3436699 1.2632578e-38
2.9248655 0.31666544 -1.3519351 1.179383e-38
2.9562035 0.3273688 -1.3453872 1.1149543e-38
2.9508393 0.33906057 -1.3681471 1.0132537e-38
3.0105093 0.3454459 -1.3765212 1.0224719e-38
3.0433981 0.34874496 -1.3721098 9.6733273e-39
3.0406396 0.36077064 -1.3838147 9.3045812e-39
3.0739131 0.37643671 -1.3821315 1.1604392e-38
3.1042423 0.40459818 -1.3929404 1.2711809e-38
3.1675034 0.42496878 -1.4078747 1.2156116e-38
3.2345972 0.44633025 -1.4239837 1.1695851e-38
3.0489156 0.072154127 -1.3486998 1.0777161e-38
3.0814741 0.072858714 -1.3500507 1.2440618e-38
3.0507545 0.10021406 -1.3408965 4.5150803e-39
3.0786886 0.10928807 -1.3618699 3.1343123e-39
3.0492606 0.13378577 -1.3472368 5.246156e-39
2.9921615 0.17702754 -1.3235943 1.262515e-38
3.0182517 0.17073762 -1.3436708 6.5362152e-39
3.0489154 0.15633394 -1.3486998 7.5517922e-39
2.9901309 0.19473028 -1.3322097 1.0598581e-38
3.0461569 0.19241101 -1.3604047 4.5072205e-39
2.9615676 0.22798899 -1.3226274 8.379479e-39
2.9908078 0.21243303 -1.329338 1.3445159e-38
2.9602265 0.25721839 -1.3283174 6.1713759e-39
2.9602265 0.2864477 -1.3283173 5.7128935e-39
2.9615676 0.30398533 -1.3226274 4.8734792e-39
3.0507545 0.37680486 -1.3408965 1.2894018e-38
3.0786886 0.38857982 -1.3618699 1.2893682e-38
3.111274 0.40459815 -1.3631066 1.2433777e-38
3.173238 0.42496878 -1.3835431 1.2066801e-38
3.2389853 0.44633025 -1.4053653 1.1601176e-38
3.0558124 0.084179811 -1.3194374 8.2043447e-39
3.0870454 0.072858714 -1.3264121 1.2161876e-38
3.0269048 0.10720734 -1.3069557 3.6824554e-39
3.0553524 0.10422263 -1.3213881 4.4189429e-39
3.0560882 0.13468769 -1.3182669 4.5139971e-39
3.0249918 0.17153175 -1.3150717 7.0968985e-39
3.0558124 0.15633394 -1.3194374 3.6817506e-39
2.9962225 0.2006312 -1.3063637 6.9161296e-39
3.0241723 0.19059083 -1.31855 8.6667549e-39
2.9669318 0.227989 -1.2998675 7.188741e-39
2.9962225 0.21243303 -1.3063637 4.2302636e-39
2.9665966 0.25575688 -1.30129 4.5150789e-39
2.9669318 0.2864477 -1.2998675 5.620695e-39
2.9669318 0.30398533 -1.2998675 5.995597e-39
3.0241723 0.32162201 -1.31855 5.8047079e-39
2.9669318 0.33906057 -1.2998675 7.1649974e-39
3.0558124 0.37279633 -1.3194374 4.8726805e-39
3.0856526 0.38857982 -1.3323218 8.5576092e-39
3.116899 0.40459818 -1.3392394 1.1782626e-38
3.1775389 0.43121833 -1.3652945 1.3358605e-38
3.0613298 0.084179811 -1.2960274 8.2867985e-39
3.0627093 0.10221835 -1.290175 6.268235e-39
3.0310037 0.14294313 -1.2895644 4.147367e-39
3.0630543 0.13077936 -1.2887118 4.3281808e-39
3.0036676 0.17407706 -1.2747742 3.5023675e-39
3.0319145 0.15882568 -1.2856996 3.7778754e-39
3.0029907 0.19473028 -1.2776459 4.3296171e-39
2.9736369 0.23383486 -1.2714176 3.6864085e-39
3.0033774 0.22086288 -1.2760049 3.9626268e-39
2.9461269 0.26260063 -1.2617242 4.3292528e-39
2.9729664 0.25429544 -1.2742625 3.9622793e-39
2.9736369 0.2864477 -1.2714176 4.2370697e-39
3.0024493 0.31156844 -1.2799435 4.8802994e-39
3.0337362 0.32162201 -1.2779701 4.5061639e-39
3.002991 0.33045137 -1.2776459 4.6011775e-39
3.0337362 0.33353394 -1.2779701 4.5968769e-39
3.0627089 0.34874496 -1.290175 5.2479903e-39
3.0613298 0.3697899 -1.2960274 4.6083466e-39
3.0937309 0.37886533 -1.2980458 3.1321389e-39
3.0954025 0.40072295 -1.2909542 3.8671718e-39
3.0084054 0.070811011 -1.2546717 1.1059137e-38
3.0392015 0.080405504 -1.2547815 7.7354268e-39
3.041934 0.10720734 -1.2431873 3.0453341e-39
3.0682266 0.10221834 -1.2667649 4.2428151e-39
3.0405679 0.13698716 -1.2489843 4.0508722e-39
3.0682266 0.12025687 -1.2667649 3.8715088e-39
3.0084054 0.17702754 -1.2546717 3.3168889e-39
3.0395432 0.16527799 -1.2533323 3.7775055e-39
3.0097592 0.19473028 -1.2489282 4.0526645e-39
3.041934 0.19059083 -1.2431873 3.9629828e-39
2.9821303 0.21824586 -1.2353811 3.5938527e-39
3.0093083 0.2281688 -1.2508428 3.5934912e-39
2.9787328 0.25488001 -1.2497957 3.8704186e-39
3.0111129 0.24783854 -1.2431847 4.2377592e-39
3.0392015 0.2620624 -1.2547815 2.303453e-39
3.0709853 0.25855231 -1.25506 5.5302804e-39
2.9776602 0.2864477 -1.2543477 3.960459e-39
3.0094886 0.28560442 -1.2500769 8.2890027e-39
3.0410233 0.28191558 -1.2470521 1.2900209e-38
3.0709853 0.28861651 -1.25506 1.8615237e-38
3.1037593 0.29143485 -1.2554964 1.6399683e-38
3.0084054 0.30684772 -1.2546717 1.2723755e-38
3.0382905 0.31765136 -1.2586464 1.6595554e-38
3.0709853 0.3186807 -1.25506 1.760325e-38
3.1037593 0.31572112 -1.2554964 1.7695072e-38
3.0378351 0.33353394 -1.2605786 1.1799983e-38
3.0709853 0.33671924 -1.25506 1.7880203e-38
3.1009736 0.34810278 -1.2673156 1.5489188e-38
3.0981879 0.36429358 -1.279135 4.524846e-39
3.1315243 0.37517288 -1.2771846 4.3284918e-39
3.0981879 0.40679449 -1.279135 4.0511931e-39
3.1300244 0.40459815 -1.2835493 3.6838665e-39
3.162843 0.40022138 -1.2837951 3.9557843e-39
3.1976099 0.40622017 -1.2801341 5.4280207e-39
3.0151739 0.070811011 -1.2259541 1.068964e-38
3.0464885 0.07941284 -1.2238635 6.5412024e-39
3.0460329 0.10720735 -1.2257959 3.7767936e-39
3.0792613 0.096205503 -1.219945 4.3299996e-39
3.0460329 0.13698716 -1.2257959 4.422512e-39
3.0792613 0.12025687 -1.219945 4.2392277e-39
3.0446668 0.16081101 -1.231593 3.3197699e-39
3.0774219 0.1603425 -1.2277482 3.6867602e-39
3.0138202 0.2006312 -1.2316976 4.4193002e-39
3.0446668 0.19654679 -1.231593 4.1459447e-39
3.0758131 0.18940458 -1.2345761 3.8690047e-39
3.1093307 0.19428992 -1.2318578 3.2261324e-39
2.9857063 0.21629724 -1.2202078 4.0526603e-39
3.0151739 0.22423485 -1.2259541 4.0537308e-39
3.0460329 0.2263266 -1.2257959 3.2247003e-39
3.0765026 0.21646237 -1.2316499 2.9506413e-39
3.1093307 0.2246477 -1.2318578 1.9347041e-39
3.0751235 0.25253946 -1.2375025 4.1437475e-39
3.1093307 0.24893394 -1.2318578 3.040997e-39
3.1393995 0.26973212 -1.2437706 2.6761648e-39
3.172308 0.25374863 -1.2436354 2.6733019e-39
3.0751233 0.27659082 -1.2375025 1.077353e-38
3.1079378 0.28536332 -1.2377673 8.1041855e-39
3.1393995 0.29425323 -1.2437706 3.4901314e-39
3.172308 0.28469357 -1.2436354 3.223966e-39
3.106545 0.31572112 -1.243677 1.5485196e-38
3.1393995 0.31264403 -1.2437706 5.1518234e-39
3.172308 0.30944952 -1.2436354 2.6704251e-39
3.1079378 0.3460789 -1.2377673 3.1296137e-39
3.1393995 0.33103487 -1.2437706 1.3782779e-39
3.1384623 0.37190339 -1.2477485 3.3136631e-39
3.1666291 0.38371742 -1.2677312 3.5923828e-39
3.1694684 0.3960954 -1.2556833 2.6740698e-39
3.0510428 0.07941284 -1.2045397 6.3557405e-39
3.0519536 0.1032367 -1.200675 3.778967e-39
3.0501318 0.13698716 -1.2084044 4.0598727e-39
3.1478372 0.20842937 -1.2079698 4.6944353e-39
3.1121161 0.21857615 -1.2200384 2.7648249e-39
3.1422122 0.23295046 -1.231837 2.3059824e-39
3.2069287 0.22498347 -1.2405955 3.3136743e-39
3.2430439 0.23564525 -1.2355727 4.3306695e-39
3.2411139 0.258789 -1.2437643 2.304895e-39
3.2069287 0.28747889 -1.2405955 3.499827e-39
3.2425616 0.27772477 -1.2376206 3.2250422e-39
3.1422122 0.31877431 -1.231837 3.1317661e-39
3.2396655 0.30928442 -1.2499077 3.5916653e-39
3.1422122 0.39233762 -1.231837 3.4090803e-39
3.059696 0.16676697 -1.1678245 5.6304312e-39
3.0930548 0.16835962 -1.16142 6.1753079e-39
3.0902958 0.18038531 -1.1731249 4.1469957e-39
3.1204731 0.19428991 -1.1845806 5.4370058e-39
3.1822462 0.21042567 -1.2014679 6.2606554e-39
3.2469053 0.23354128 -1.2191898 3.3139952e-39
3.2176809 0.26248074 -1.1949738 4.0576895e-39
3.2469053 0.258789 -1.2191898 2.6729544e-39
3.2148137 0.27497983 -1.2071396 2.4903596e-39
3.2498014 0.2840367 -1.2069026 3.7760622e-39
3.0651612 0.16676697 -1.144636 7.1855236e-39
3.0958135 0.16835962 -1.1497149 6.1703557e-39
3.1260443 0.19428991 -1.1609421 7.5513788e-39
3.1921847 0.24755962 -1.1593002 4.8748651e-39
3.221982 0.26248074 -1.1767253 5.1683545e-39
3.2234156 0.27497983 -1.1706424 4.3177509e-39
3.2555928 0.28193271 -1.1823281 4.6033103e-39
3.2916422 0.29330274 -1.1819454 5.8940309e-39
3.3247955 0.30913761 -1.1938499 9.7651235e-39
3.361881 0.31230825 -1.1934288 9.482057e-39
3.2262828 0.25623119 -1.1584766 4.0638062e-39
3.2628329 0.26510093 -1.1516101 6.5495191e-39
3.2955425 0.28480121 -1.1653957 5.3405152e-39
