# .PCD v0.7 - Point Cloud Data file format
VERSION 0.7
FIELDS x y z rgb
SIZE 4 4 4 4
TYPE F F F F
COUNT 1 1 1 1
WIDTH 226
HEIGHT 1
VIEWPOINT 0 0 0 1 0 0 0
POINTS 226
DATA ascii
2.828933 0.10901162 -1.3927977 1.2164441e-38
2.8577549 0.10241835 -1.392566 1.1239959e-38
2.9133487 0.09268257 -1.4007994 7.5416874e-39
2.8293643 0.13532478 -1.3909682 1.2440305e-38
2.8293643 0.16351743 -1.3909682 1.2073669e-38
2.8293643 0.19171007 -1.3909682 1.2162982e-38
2.8590603 0.18207707 -1.3870277 8.3768936e-39
2.8006585 0.22914863 -1.3950669 1.3359722e-38
2.828933 0.22554129 -1.3927977 1.2532136e-38
2.8555796 0.22759634 -1.4017962 1.2716523e-38
2.8848755 0.22965136 -1.3995517 1.0693278e-38
2.8006585 0.24591561 -1.3950669 1.3637013e-38
2.8280709 0.24809542 -1.3964565 1.4188046e-38
2.8555796 0.25794253 -1.4017962 1.3821779e-38
2.8848755 0.25261652 -1.3995517 1.0509583e-38
2.8564496 0.27311561 -1.3981041 1.2997409e-38
2.8848755 0.27558166 -1.3995517 1.0879802e-38
2.8835585 0.31577063 -1.4051398 1.1516895e-38
2.8835585 0.33299449 -1.4051398 1.1512949e-38
2.8358316 0.11277064 -1.3635274 1.2080165e-38
2.8629761 0.10241835 -1.3704133 8.7542268e-39
2.8358316 0.13532478 -1.3635274 1.1701302e-38
2.8353143 0.16238973 -1.3657227 9.7669928e-39
2.8642814 0.17069726 -1.3648751 1.1174349e-38
2.8351851 0.19452935 -1.3662715 1.1522694e-38
2.8637593 0.19118091 -1.3670903 1.1594729e-38
2.8362629 0.22178225 -1.361698 1.1706714e-38
2.8642814 0.23897617 -1.3648751 1.1521596e-38
2.8371251 0.24809542 -1.3580393 1.1338248e-38
2.8629761 0.2617358 -1.3704133 1.0876939e-38
2.8655865 0.28449541 -1.3593369 1.1798192e-38
2.8892658 0.28706422 -1.3809243 1.1613072e-38
2.8901436 0.31577066 -1.3771991 1.198114e-38
2.8911974 0.33988404 -1.3727285 1.2347038e-38
2.9160063 0.34755966 -1.389523 1.24468e-38
2.918664 0.37073028 -1.3782467 1.1340083e-38
2.9427929 0.36244404 -1.402287 1.1326774e-38
2.9840393 0.059009172 -1.3580557 9.1875713e-40
3.0146081 0.059559632 -1.3591298 8.2043377e-39
3.0731173 0.048572477 -1.3855085 1.0968755e-38
2.8410056 0.10713211 -1.3415748 9.4053864e-39
2.8177538 0.12668379 -1.3225342 1.0505984e-38
2.8429458 0.14378256 -1.3333424 1.0687518e-38
2.8435926 0.16351743 -1.3305985 1.2074384e-38
2.8439159 0.19311972 -1.3292264 1.2720127e-38
2.8160441 0.23473762 -1.3297875 1.3182928e-38
2.8439159 0.22413163 -1.3292264 1.2723364e-38
2.8160441 0.2515046 -1.3297875 1.2168755e-38
2.8448861 0.25373393 -1.3251102 1.3271504e-38
2.8435926 0.28004709 -1.3305985 1.336551e-38
2.8708076 0.28449541 -1.3371842 1.4109202e-38
2.8712428 0.31104833 -1.3353381 1.4468636e-38
2.895412 0.32151192 -1.3548462 1.2077288e-38
2.8708076 0.33570462 -1.3371842 1.3090017e-38
3.0173407 0.053603671 -1.3475356 1.2163706e-38
2.9292948 0.069511928 -1.3331411 3.3991115e-39
2.9867468 0.070811011 -1.3465686 8.0210422e-39
2.7455056 0.097992659 -1.2847009 8.6606341e-39
2.7708247 0.10434312 -1.2906134 1.0970911e-38
2.7978597 0.10709602 -1.2892443 4.6065599e-39
2.8263009 0.10619082 -1.2862679 3.961545e-39
2.8240571 0.13273853 -1.2957878 6.4490081e-39
2.82566 0.16766973 -1.2889879 2.9455784e-39
2.8487666 0.15787889 -1.3086457 3.601047e-39
2.8498013 0.19396549 -1.3042552 3.2203955e-39
2.85006 0.22554128 -1.3031576 5.7100236e-39
2.8487666 0.24809542 -1.3086457 1.0413378e-38
2.8764639 0.25794253 -1.3131855 6.2592429e-39
2.85006 0.29320365 -1.3031576 8.843561e-39
2.877707 0.28124404 -1.307911 7.4620741e-39
2.876812 0.31408292 -1.3117086 7.5542655e-39
2.9059484 0.31002936 -1.3101408 5.1489227e-39
2.877707 0.33814314 -1.307911 6.8159984e-39
2.8012483 0.088631198 -1.2748663 5.7100152e-39
2.8288651 0.083834864 -1.275388 7.6482954e-39
2.8565273 0.078939445 -1.2757168 8.9598477e-39
2.8851657 0.079658717 -1.2762643 6.0615295e-39
2.9085824 0.068895414 -1.2989645 1.271044e-38
2.8314292 0.10619082 -1.264508 3.5927555e-39
2.857821 0.09021651 -1.2702286 4.4156568e-39
2.8306966 0.13413578 -1.2676166 4.0505051e-39
2.8591144 0.13532478 -1.2647405 3.5884423e-39
2.8311086 0.16906697 -1.2658681 2.9466518e-39
2.8591144 0.15787889 -1.2647405 3.9665561e-39
2.8565273 0.19734864 -1.2757168 3.4079985e-39
2.8552339 0.22272202 -1.2812049 3.9597345e-39
2.8835993 0.2298723 -1.2829101 3.684584e-39
2.8539405 0.25373393 -1.2866931 2.9466532e-39
2.8838603 0.25604588 -1.2818024 2.7626151e-39
2.8838603 0.27880549 -1.2818024 2.6722201e-39
2.9098995 0.29854679 -1.2933763 4.2312908e-39
2.8842955 0.3148416 -1.2799565 4.7887665e-39
2.9085824 0.31002936 -1.2989645 4.7876875e-39
2.8565273 0.33831194 -1.2757168 3.5905779e-39
2.8841214 0.34139451 -1.2806948 3.2221709e-39
2.882555 0.36415413 -1.2873406 5.8825178e-39
2.8378401 0.10060183 -1.2373084 5.5324511e-39
2.8646579 0.10149357 -1.2412198 6.6355742e-39
2.8642883 0.13532478 -1.2427878 8.3862402e-39
2.8642883 0.16351743 -1.2427878 9.6787867e-39
2.863426 0.18795107 -1.2464466 5.3484578e-39
2.892127 0.20104343 -1.2467275 1.088129e-38
2.9478986 0.20853578 -1.2542067 9.9719355e-39
2.8900604 0.22901879 -1.2554963 3.2221737e-39
2.9191189 0.2181688 -1.2542591 4.0411276e-39
2.9478986 0.2201211 -1.2542067 2.388083e-39
2.8903866 0.25604588 -1.2541116 2.6718586e-39
2.9478986 0.26646239 -1.2542067 3.4054706e-39
2.8877761 0.28449538 -1.265188 2.8544646e-39
2.9178019 0.28706422 -1.2598473 3.5956113e-39
2.9478986 0.27804771 -1.2542067 2.8559135e-39
2.8903866 0.31294495 -1.2541116 4.6987443e-39
2.8625636 0.34582996 -1.2501054 2.2098225e-39
2.8895166 0.33380798 -1.2578038 3.7721161e-39
2.9191189 0.33873576 -1.2542591 3.5880668e-39
2.9478986 0.34176701 -1.2542067 3.6835064e-39
2.8617013 0.36086604 -1.2537642 4.7779653e-39
2.9257042 0.080377981 -1.2263182 2.8602309e-39
2.8694623 0.10149357 -1.2208352 1.1160003e-38
2.8975656 0.096728437 -1.2236518 9.8476474e-39
2.9252651 0.10717064 -1.228181 1.8812924e-38
2.9532139 0.11585321 -1.2316538 2.1670899e-38
2.8694623 0.13532478 -1.2208352 1.9826022e-38
2.8956077 0.1365578 -1.231959 1.9542616e-38
2.9243872 0.12630826 -1.2319064 1.7605101e-38
2.951885 0.13323119 -1.2372921 1.8530924e-38
2.9816833 0.14030093 -1.2372777 1.1327825e-38
2.8956077 0.16500735 -1.231959 1.899088e-38
2.9243872 0.16649725 -1.2319064 1.8898324e-38
2.9525495 0.15929818 -1.234473 1.9360307e-38
2.9830244 0.15199266 -1.2315878 4.6840265e-39
2.922631 0.18754862 -1.2393574 1.9175291e-38
2.9521508 0.19926754 -1.2361645 1.2352422e-38
2.9217529 0.22965136 -1.2430828 4.0515588e-39
2.9514425 0.22398287 -1.2391715 2.5778707e-39
2.9816833 0.23383486 -1.2372777 3.4069139e-39
2.922631 0.24496149 -1.2393574 3.0402866e-39
2.9505563 0.26066974 -1.2429302 2.7658437e-39
2.9803421 0.25721836 -1.2429677 2.9480881e-39
3.0111129 0.25373948 -1.2431847 3.3154287e-39
2.9230702 0.29280549 -1.2374946 3.0395649e-39
2.9523282 0.2819095 -1.2354127 2.6743725e-39
2.9830244 0.28060186 -1.2315878 2.3985059e-39
3.0111129 0.2714422 -1.2431847 2.2137657e-39
2.9217529 0.31577063 -1.2430828 3.4061922e-39
2.9521508 0.31512073 -1.2361645 2.7647703e-39
2.9830244 0.32152295 -1.2315878 3.1303382e-39
2.9514425 0.33983612 -1.2391715 3.4044112e-39
2.9830244 0.33906057 -1.2315878 2.8544562e-39
3.0192349 0.053108256 -1.2087233 3.5873983e-39
2.9585292 0.075304583 -1.2091012 5.1557554e-39
2.9870474 0.081842199 -1.2145178 4.3252773e-39
2.9296553 0.091860548 -1.2095537 2.6636035e-39
2.9567578 0.10426789 -1.2166188 2.1136906e-39
2.9873157 0.10756403 -1.2133799 2.9452169e-39
3.0192349 0.11211742 -1.2087233 2.7601096e-39
2.9558716 0.12743855 -1.2203776 3.2146487e-39
2.9870474 0.13445505 -1.2145178 3.0388446e-39
3.0192349 0.1298202 -1.2087233 2.8555408e-39
3.0473993 0.14294313 -1.2199987 2.8544716e-39
2.9567578 0.16991806 -1.2166188 4.5017848e-39
2.9873157 0.16134605 -1.2133799 3.4969431e-39
3.0192351 0.1652257 -1.2087233 2.3041761e-39
2.9565361 0.19405413 -1.2175585 3.7681785e-39
2.9874945 0.19486241 -1.2126212 3.5895073e-39
3.0192349 0.18882936 -1.2087233 3.4983865e-39
3.0473993 0.20250276 -1.2199987 3.4080069e-39
3.0792613 0.19842385 -1.219945 3.3147351e-39
2.9558716 0.2201211 -1.2203776 3.3118568e-39
2.9867792 0.22448146 -1.2156558 2.5800455e-39
3.0183327 0.22423486 -1.2125524 2.947749e-39
3.0473993 0.21441467 -1.2199987 2.7630032e-39
3.0792613 0.21646237 -1.219945 3.1321445e-39
2.9883885 0.24552663 -1.2088279 2.3985213e-39
3.0158508 0.25373948 -1.2230823 2.1215659e-39
3.0473993 0.2620624 -1.2199987 1.2032417e-39
2.9558716 0.28963304 -1.2203776 2.8565932e-39
2.9857063 0.2864477 -1.2202078 3.1306843e-39
3.0156255 0.28324404 -1.2240396 2.3052425e-39
3.0467162 0.28290826 -1.2228973 2.4878303e-39
3.0792613 0.27659082 -1.219945 2.761899e-39
2.9558716 0.30121836 -1.2203776 3.0402754e-39
2.9857063 0.3098312 -1.2202078 3.4079845e-39
3.0165277 0.31274861 -1.2202104 2.8551666e-39
3.0473993 0.31566605 -1.2199987 3.8646466e-39
3.0138202 0.33045137 -1.2316976 3.4069195e-39
3.0446668 0.33353394 -1.231593 1.7531617e-39
3.0765026 0.33671924 -1.2316499 2.3942291e-39
3.0219424 0.059009172 -1.1972362 3.9575794e-39
3.0528646 0.059559632 -1.1968102 5.1521555e-39
2.9919646 0.074047707 -1.1936547 4.235604e-39
3.0237474 0.078678899 -1.1895782 4.6947843e-39
2.9937527 0.093533948 -1.1860679 4.6008104e-39
3.0237474 0.10621651 -1.1895782 4.5140112e-39
3.0501318 0.1131633 -1.2084044 2.2998573e-39
3.0514982 0.13698716 -1.2026073 3.9604576e-39
3.0508151 0.16974497 -1.2055058 3.409816e-39
3.08202 0.16234678 -1.2082399 5.2519153e-39
3.08202 0.20443669 -1.2082399 4.8838797e-39
3.0517712 0.22870898 -1.2014478 3.2254065e-39
3.0514982 0.25610644 -1.2026073 2.6729572e-39
3.0847785 0.25253946 -1.1965349 4.2399298e-39
3.0521815 0.29482019 -1.1997087 2.7654863e-39
3.0833993 0.28260368 -1.2023875 3.4105166e-39
3.0501318 0.31566605 -1.2084044 2.6718726e-39
3.0044811 0.058458716 -1.1405482 1.1057308e-38
3.0300643 0.059009172 -1.1627749 7.365917e-39
3.0017989 0.075996332 -1.1519282 6.0831081e-39
2.9744754 0.11585321 -1.1414429 5.3408851e-39
3.0017991 0.10376421 -1.1519282 6.8188991e-39
2.9744754 0.12743855 -1.1414429 4.2352298e-39
3.0594225 0.28350386 -1.1689839 3.9626422e-39
3.0273569 0.30684772 -1.174262 5.2515678e-39
3.0610623 0.31566605 -1.1620274 5.6171175e-39
3.0902958 0.30465075 -1.1731249 4.8813643e-39
3.0930548 0.33671924 -1.16142 8.5680181e-39
2.9797907 0.057926603 -1.1188902 1.0037434e-38
2.9797907 0.069511928 -1.1188902 5.8987617e-39
3.0089512 0.077944957 -1.1215817 6.2682449e-39
3.0082359 0.10288735 -1.1246163 5.806559e-39
3.0665276 0.2620624 -1.1388389 5.3491416e-39
3.066869 0.28439727 -1.1373897 5.5278015e-39
3.0651612 0.31566605 -1.144636 4.8835265e-39
3.0665276 0.33353394 -1.1388389 8.2064704e-39
2.985106 0.09268257 -1.0963374 6.4497663e-39
3.0125272 0.10522569 -1.1064084 6.2656973e-39
