# .PCD v0.7 - Point Cloud Data file format
VERSION 0.7
FIELDS x y z rgb
SIZE 4 4 4 4
TYPE F F F F
COUNT 1 1 1 1
WIDTH 241
HEIGHT 1
VIEWPOINT 0 0 0 1 0 0 0
POINTS 241
DATA ascii
2.1548901 -0.24809174 -1.3607565 6.1832393e-39
2.1671002 -0.19586056 -1.3584909 8.3015934e-39
2.1822858 -0.20619817 -1.3680104 7.1005461e-39
2.1671002 -0.10683303 -1.3584909 6.0893173e-39
2.1822858 -0.098616518 -1.3680104 7.1153242e-39
2.1822858 -0.089651376 -1.3680104 8.8598371e-39
2.201041 -0.072344951 -1.379784 8.6754864e-39
2.1808789 -0.041837309 -1.3738192 9.5974329e-39
2.1801753 -0.026895413 -1.3767235 1.0614123e-38
2.1970465 -0.019860551 -1.3792846 1.1524591e-38
2.2038472 -0.27985322 -1.3512083 9.3149914e-39
2.1628547 -0.25194603 -1.3399113 8.0311386e-39
2.1872103 -0.26297739 -1.3476796 8.6707767e-39
2.139828 -0.22822753 -1.3266549 8.1211804e-39
2.1592343 -0.22270879 -1.3393824 6.5552994e-39
2.1628439 -0.19509114 -1.3359444 9.781457e-39
2.1680119 -0.16666147 -1.3366731 1.1534619e-38
2.187562 -0.17482018 -1.3462274 1.0791671e-38
2.1381061 -0.13752171 -1.3337643 1.1075081e-38
2.1592364 -0.13160996 -1.3393737 1.0893571e-38
2.1680624 -0.11114923 -1.3424834 8.4035729e-39
2.1858032 -0.1016049 -1.3534884 9.0442704e-39
2.2017219 -0.090275228 -1.3599821 8.4724061e-39
2.1733875 -0.089027524 -1.3325332 1.0685788e-38
2.1872103 -0.080686241 -1.3476796 1.089536e-38
2.202997 -0.068609178 -1.3547179 1.060406e-38
2.1733875 -0.035611011 -1.3325332 1.3106286e-38
2.1862431 -0.04594633 -1.3516731 1.1536063e-38
2.1733875 -0.017805506 -1.3325332 1.20021e-38
2.1865067 -0.026895413 -1.350584 1.2088179e-38
2.2017219 -0.018055046 -1.3599821 1.3194164e-38
2.1644008 -0.27405137 -1.2974198 1.0146222e-38
2.1928382 -0.27791929 -1.3244445 9.3114391e-39
2.2080975 -0.27082571 -1.3336608 9.7814276e-39
2.1781032 -0.25372845 -1.3130651 8.0246954e-39
2.1921349 -0.25550646 -1.3273488 7.6631072e-39
2.1668861 -0.22372358 -1.311232 7.3818399e-39
2.1754832 -0.19586056 -1.3238807 1.0337157e-38
2.1944211 -0.19947432 -1.3179096 1.0799573e-38
2.2080975 -0.19409175 -1.3336608 1.0518679e-38
2.1646266 -0.16543607 -1.32056 1.0606934e-38
2.1937428 -0.16393396 -1.3207103 1.1999926e-38
2.2086287 -0.16475229 -1.3314674 1.3278773e-38
2.1684098 -0.13008155 -1.3129652 1.3287434e-38
2.191783 -0.14344221 -1.328801 1.4954475e-38
2.1664801 -0.10629652 -1.310501 1.0241753e-38
2.1729538 -0.077959225 -1.3102535 1.079527e-38
2.191783 -0.071721107 -1.328801 1.1160455e-38
2.1778414 -0.044513762 -1.3141466 1.1352768e-38
2.1907277 -0.044825688 -1.3331577 1.0777619e-38
2.1729157 -0.020304589 -1.3138483 1.2367629e-38
2.1928382 -0.0089651383 -1.3244445 9.9835201e-39
2.1368041 -0.27029723 -1.2711726 1.0330267e-38
2.1736634 -0.25251713 -1.2832526 8.1222888e-39
2.2033908 -0.25550646 -1.2808787 8.9509215e-39
2.1812253 -0.2222569 -1.2857332 9.8689892e-39
2.2033908 -0.23309359 -1.2808787 1.0883786e-38
2.1844954 -0.1976411 -1.2866749 1.0334271e-38
2.1779549 -0.16156845 -1.2847916 1.1162966e-38
2.2012804 -0.17033762 -1.2895918 1.3284897e-38
2.1770046 -0.13061441 -1.286652 1.310159e-38
2.2012804 -0.14344221 -1.2895918 1.0244967e-38
2.15326 -0.10533578 -1.2712015 1.4114315e-38
2.1704743 -0.10618578 -1.2813729 1.273533e-38
2.1711152 -0.075215898 -1.2817366 1.2270754e-38
2.1833427 -0.046739452 -1.2914337 1.0708473e-38
2.2002251 -0.053790826 -1.2939484 1.2180703e-38
2.1824694 -0.023740673 -1.2950389 1.3470018e-38
2.1922498 -0.27598533 -1.2546604 1.0977402e-38
2.2107775 -0.27791929 -1.2503824 1.1064937e-38
2.1909924 -0.25105762 -1.2598518 5.5393581e-39
2.208667 -0.26895416 -1.2590955 9.4126535e-39
2.1778913 -0.2225038 -1.2520427 7.195641e-39
2.1826162 -0.1985732 -1.2511035 6.9212219e-39
2.2097223 -0.1882679 -1.254739 1.0423916e-38
2.1912019 -0.1513468 -1.2589866 8.8663083e-39
2.1615257 -0.12289174 -1.2370764 1.1077901e-38
2.1840522 -0.13752478 -1.2523971 4.782811e-39
2.2055013 -0.13447708 -1.2721654 1.0609019e-38
2.1606991 -0.10709137 -1.2404889 1.0427536e-38
2.173419 -0.10019082 -1.2601881 5.8131423e-39
2.1748068 -0.075143121 -1.2544602 9.0428214e-39
2.1802042 -0.046505503 -1.2502295 8.1086374e-39
2.1768878 -0.022100918 -1.2458683 1.3929909e-38
2.200633 -0.28043669 -1.2200502 1.143406e-38
2.2139432 -0.27791929 -1.2373127 1.1159989e-38
2.1677251 -0.24578348 -1.2114825 9.8750848e-39
2.1919816 -0.25528347 -1.2286884 9.7807172e-39
2.217109 -0.26223028 -1.2242429 1.0426087e-38
2.1656585 -0.2370055 -1.2200137 4.3408121e-39
2.1907446 -0.22632504 -1.2299266 6.6431903e-39
2.2160537 -0.21516331 -1.2285995 9.5988342e-39
2.1922398 -0.19645092 -1.2276218 1.0332452e-38
2.2160537 -0.20619817 -1.2285995 1.0516483e-38
2.1879642 -0.16125026 -1.2218044 1.0243862e-38
2.1610072 -0.12707523 -1.2222251 6.9086411e-39
2.1947343 -0.13455465 -1.2237705 8.7633703e-39
2.1601458 -0.10801712 -1.2201184 1.1070748e-38
2.183825 -0.10313761 -1.2172287 1.1440604e-38
2.1635921 -0.074612841 -1.2285451 8.4961132e-39
2.1887388 -0.076355115 -1.2247167 1.1350222e-38
2.2181642 -0.077697866 -1.2198863 1.0702685e-38
2.1656585 -0.035111926 -1.2200137 1.1993809e-38
2.184988 -0.045073561 -1.225558 9.4087313e-39
2.1840165 -0.022124313 -1.2254648 1.3285247e-38
2.202729 -0.27598533 -1.2113976 1.0977398e-38
2.2454436 -0.27601102 -1.204964 1.134151e-38
2.2037768 -0.24037431 -1.2070713 8.7629961e-39
2.2202747 -0.25998899 -1.2111732 9.1353576e-39
2.2454438 -0.25338715 -1.204964 1.4764686e-38
2.2012045 -0.22230887 -1.2056565 9.6849552e-39
2.2223854 -0.22412844 -1.2024599 1.3200939e-38
2.2492404 -0.22651376 -1.2020323 1.5044157e-38
2.2770681 -0.21525139 -1.2018403 1.4860123e-38
2.1968415 -0.19407707 -1.1995974 1.0337882e-38
2.2234406 -0.2017156 -1.1981034 1.421727e-38
2.2495947 -0.19632293 -1.2005701 1.596251e-38
2.2770681 -0.20151193 -1.2018403 1.4952681e-38
2.1963177 -0.16743119 -1.2017604 9.1346513e-39
2.2223854 -0.16585505 -1.2024599 1.0889957e-38
2.2405827 -0.16120577 -1.1995469 1.107255e-38
2.3120978 -0.15795964 -1.2101439 8.5782083e-39
2.2045629 -0.13242845 -1.2038268 8.4928482e-39
2.2239683 -0.13671836 -1.1959251 8.7651219e-39
2.2421005 -0.13541286 -1.1932799 8.9502138e-39
2.2012045 -0.10669786 -1.2056565 7.9350179e-39
2.2444971 -0.10660306 -1.2088705 1.042678e-38
2.2770681 -0.11449541 -1.2018403 8.2126754e-39
2.202729 -0.071222022 -1.2113976 1.2923953e-38
2.2208023 -0.07396239 -1.2089949 7.7542196e-39
2.2481751 -0.067948624 -1.2064301 8.028989e-39
2.1975837 -0.044430584 -1.208568 6.0879047e-39
2.2202747 -0.049308255 -1.2111732 1.3014362e-38
2.2509072 -0.046862382 -1.207896 9.9622189e-39
2.2763493 -0.048851375 -1.2048076 8.3055717e-39
2.2606466 -0.27280733 -1.1931732 1.1700544e-38
2.2611818 -0.25462016 -1.1909636 1.633092e-38
2.2809494 -0.25280589 -1.1858163 1.4855769e-38
2.3164725 -0.26016882 -1.1920828 8.9592045e-39
2.2606466 -0.23188624 -1.1931732 1.4211893e-38
2.2909803 -0.22533578 -1.1890061 1.2913953e-38
2.3186598 -0.2137101 -1.1830522 9.040613e-39
2.2606466 -0.18641835 -1.1931732 1.4673223e-38
2.2866678 -0.19475231 -1.1927927 1.6145085e-38
2.3164725 -0.19512662 -1.1920828 9.0410081e-39
2.3425989 -0.19081469 -1.1918335 7.847483e-39
2.2606466 -0.1636844 -1.1931732 1.2366526e-38
2.2792244 -0.1694532 -1.1929381 1.6154794e-38
2.3150141 -0.17344587 -1.1981032 1.1904433e-38
2.3360589 -0.17786789 -1.1919297 8.0297022e-39
2.2637048 -0.1338055 -1.1805474 8.8587412e-39
2.2805181 -0.14105836 -1.1875968 8.9498663e-39
2.3186598 -0.12079266 -1.1830522 5.4485413e-39
2.2870092 -0.11018808 -1.1894715 8.3977729e-39
2.3164725 -0.10220919 -1.1920828 7.0151776e-39
2.3349571 -0.093614683 -1.1964788 6.5556526e-39
2.2624307 -0.06971743 -1.1858082 8.1201028e-39
2.292552 -0.075452477 -1.1837921 8.2130201e-39
2.3186598 -0.083625689 -1.1830522 3.7008306e-39
2.2606466 -0.045467887 -1.1931732 8.4892497e-39
2.2857864 -0.045908257 -1.1913333 8.3044955e-39
2.3170192 -0.048781652 -1.1898252 7.936429e-39
2.3360589 -0.042126607 -1.1919297 8.2119229e-39
2.292552 -0.020243669 -1.1837921 9.0413318e-39
2.3186598 -0.018583486 -1.1830522 8.4885252e-39
2.3545682 0 -1.1962241 9.3171971e-39
2.2939351 -0.25281468 -1.1704366 8.2137292e-39
2.3230348 -0.2462312 -1.1649909 7.6591289e-39
2.2964518 -0.23181358 -1.1676911 8.122244e-39
2.3219409 -0.22300184 -1.1695062 7.7531224e-39
2.34829 -0.22380604 -1.164494 6.9197716e-39
2.3906775 -0.21695322 -1.1703355 5.6304831e-39
2.3459103 -0.20018779 -1.1781634 8.122258e-39
2.3985631 -0.19308196 -1.1802578 8.0253933e-39
2.4165716 -0.20260184 -1.1908681 7.5647528e-39
2.3219409 -0.15795964 -1.1695062 2.8645609e-39
2.3531442 -0.16925944 -1.1698188 3.4152544e-39
2.3912408 -0.1573523 -1.1680093 1.0143368e-38
2.2706368 -0.13034128 -1.1519291 3.8736766e-39
2.2996845 -0.14044404 -1.1658144 4.9821822e-39
2.3235815 -0.13473028 -1.1627333 3.9673016e-39
2.3475876 -0.13834313 -1.1645117 3.9655037e-39
2.3993144 -0.12925321 -1.177156 7.2914225e-39
2.4188428 -0.14471559 -1.1814915 9.411199e-39
2.4395323 -0.14581652 -1.1810318 1.0055128e-38
2.2878494 -0.11907523 -1.1573292 2.8634651e-39
2.3448198 -0.10453264 -1.1788205 3.8747612e-39
2.3938754 -0.10391881 -1.1783717 7.6583988e-39
2.3021765 -0.069192663 -1.1746417 5.7219122e-39
2.3208473 -0.069688082 -1.1740216 3.9687253e-39
2.3474424 -0.077001102 -1.1772162 3.2304764e-39
2.3981874 -0.083775222 -1.1818086 7.1073998e-39
2.4188428 -0.077181652 -1.1814915 1.1805424e-38
2.3208473 -0.046458717 -1.1740216 7.4751033e-39
2.3485742 -0.046956751 -1.1748509 7.0134119e-39
2.3208473 -0.023229359 -1.1740216 7.6620001e-39
2.3524733 -0.018810093 -1.1746051 6.8279403e-39
2.3805492 -0.01266789 -1.1696712 6.5535282e-39
2.3601186 0 -1.1733087 6.5531442e-39
2.3851919 0.0031914373 -1.1788232 8.1190042e-39
2.3596876 -0.22315413 -1.1347343 3.6943609e-39
2.3842769 -0.22802202 -1.1542814 7.2935315e-39
2.3689995 -0.19805503 -1.1366442 5.8108736e-39
2.3884077 -0.1922268 -1.154218 7.6580302e-39
2.3656693 -0.16976146 -1.1503934 1.0605761e-38
2.4026952 -0.1627633 -1.1631982 1.1158569e-38
2.421114 -0.1543633 -1.172115 1.0700497e-38
2.4049492 -0.12925321 -1.153893 9.5022876e-39
2.421114 -0.12542018 -1.172115 8.9491418e-39
2.4018767 -0.10358715 -1.1524187 9.3172027e-39
2.4233851 -0.10934068 -1.1627384 8.025731e-39
2.4038222 -0.086168803 -1.1585456 1.217454e-38
2.4233851 -0.080397554 -1.1627384 9.5927218e-39
2.484843 -0.078972481 -1.1681304 4.2435704e-39
2.355109 -0.037538838 -1.1401857 7.4740047e-39
2.3561149 -0.019945413 -1.1393957 5.8166554e-39
2.3543742 0.0031204894 -1.1432184 8.3012178e-39
2.3398046 -0.2477798 -1.0957563 9.2278475e-39
2.354424 -0.24651867 -1.1161098 8.3919827e-39
2.3617406 -0.22522528 -1.1128078 4.799628e-39
2.3665843 -0.1986936 -1.1163489 4.7971225e-39
2.4698093 -0.076956749 -1.1409926 9.4126745e-39
2.4889097 -0.088844039 -1.1513406 1.125294e-38
2.336159 -0.046458714 -1.1108073 5.9009519e-39
2.356523 -0.045469988 -1.1074448 5.1677099e-39
2.4336054 -0.057886239 -1.1205438 8.6880827e-39
2.3558934 -0.018722937 -1.1100444 5.6293901e-39
2.3339715 0 -1.1198379 3.3248497e-39
2.3547912 0 -1.1145935 4.7103022e-39
2.3603008 -0.24339817 -1.0918475 6.6420706e-39
2.3688278 -0.22410642 -1.0869107 4.617036e-39
2.3752525 -0.19964844 -1.0946867 4.9851039e-39
2.3999333 -0.20902018 -1.0896441 5.3542535e-39
2.4415545 -0.096477062 -1.0877259 1.3090686e-38
2.4598999 -0.077825882 -1.1063839 1.4206815e-38
2.3603008 -0.042126607 -1.0918475 5.3503019e-39
2.45784 -0.058326606 -1.1054486 1.4029273e-38
2.3690906 -0.023473395 -1.0959136 5.7215955e-39
2.4438257 -0.096477062 -1.0783494 1.3458024e-38
2.4445829 -0.080397554 -1.0752238 1.2360765e-38
2.4624169 -0.068047702 -1.0865529 1.1903747e-38
