# .PCD v0.7 - Point Cloud Data file format
VERSION 0.7
FIELDS x y z rgb
SIZE 4 4 4 4
TYPE F F F F
COUNT 1 1 1 1
WIDTH 123
HEIGHT 1
VIEWPOINT 0 0 0 1 0 0 0
POINTS 123
DATA ascii
2.5192909 -0.21223487 -1.3490406 9.8329492e-39
2.5160878 -0.19176513 -1.3473325 9.4017822e-39
2.5196607 -0.16507156 -1.3473973 8.753543e-39
2.5418227 -0.16135474 -1.3536791 7.8333957e-39
2.5107911 -0.12586789 -1.3389862 6.7223973e-39
2.5414495 -0.13451889 -1.3553361 8.8432233e-39
2.5204003 -0.11117064 -1.3441107 6.4547689e-39
2.5420089 -0.10190826 -1.3528504 8.2846475e-39
2.5630867 -0.078748621 -1.3593926 1.0224698e-38
2.5638385 -0.041086238 -1.3560524 6.7223777e-39
2.5120032 -0.21452479 -1.3176584 1.0044655e-38
2.5481615 -0.22419816 -1.3255094 1.0049724e-38
2.4854159 -0.20394678 -1.3037125 1.1335368e-38
2.5217731 -0.1889143 -1.3243462 8.940465e-39
2.5259473 -0.17180917 -1.3194611 1.0409837e-38
2.5477142 -0.1569387 -1.3274978 8.9415482e-39
2.5033836 -0.1203523 -1.3240769 8.5637665e-39
2.5459242 -0.1222899 -1.3354516 7.9219774e-39
2.5677848 -0.14123395 -1.3385156 9.7680831e-39
2.5905902 -0.13462752 -1.3419371 8.6649627e-39
2.5226192 -0.11117064 -1.3342508 9.2242069e-39
2.547416 -0.098511308 -1.3288236 1.0412679e-38
2.5706036 -0.1027156 -1.3259895 9.6722805e-39
2.5905902 -0.1139156 -1.3419371 7.82657e-39
2.5492802 -0.081526607 -1.3205383 1.1151317e-38
2.5680263 -0.068966188 -1.337442 9.9520791e-39
2.5683486 -0.041086238 -1.3360105 9.1237618e-39
2.5683486 -0.01540734 -1.3360105 9.0297613e-39
2.5940006 -0.010355963 -1.3267821 9.022958e-39
2.5914431 0.0090614678 -1.3381484 9.2152442e-39
2.6174343 0.041761469 -1.3274101 1.0868977e-38
2.6348915 0.031585321 -1.3591511 9.0326438e-39
2.4919684 -0.22384405 -1.2745947 1.1703084e-38
2.5160484 -0.21897908 -1.2869279 9.0359032e-39
2.4897842 -0.20145962 -1.2843006 9.0312145e-39
2.5254242 -0.18983668 -1.2899021 9.768425e-39
2.5526361 -0.18343486 -1.305625 9.3099706e-39
2.5318642 -0.16338716 -1.2931682 1.0229774e-38
2.5526361 -0.16305321 -1.305625 9.58261e-39
2.5337131 -0.13138348 -1.2849516 1.0042536e-38
2.5541275 -0.13587767 -1.2989969 9.5876435e-39
2.5728586 -0.13353027 -1.3159685 9.127024e-39
2.5548735 -0.09783192 -1.2956828 9.3027539e-39
2.5728586 -0.10785138 -1.3159685 9.2138022e-39
2.5537548 -0.081526607 -1.3006539 8.019931e-39
2.5754359 -0.068966188 -1.304516 8.4794784e-39
2.5748317 -0.042370182 -1.3072002 9.397839e-39
2.5985477 -0.031067891 -1.3065755 9.1219808e-39
2.5739863 -0.020543119 -1.310958 9.2188399e-39
2.5990024 -0.014498348 -1.3045548 8.6609998e-39
2.5751138 0.020543119 -1.3059475 9.4925626e-39
2.5988727 0.0073971166 -1.3051323 9.5851015e-39
2.5751138 0.030814679 -1.3059475 9.1255611e-39
2.5962741 0.031067891 -1.3166789 9.4014235e-39
2.5261016 -0.21529102 -1.2613852 5.625011e-39
2.5608394 -0.23099206 -1.2691703 6.7317257e-39
2.5171454 -0.19306514 -1.2629226 7.3680792e-39
2.52774 -0.15770459 -1.2636696 6.9128632e-39
2.5338538 -0.13116941 -1.2630712 7.0029022e-39
2.537596 -0.10864403 -1.2676969 9.2116471e-39
2.5615852 -0.10190824 -1.2658561 1.0049314e-38
2.5818789 -0.092444032 -1.2758846 6.5405087e-39
2.563077 -0.071335778 -1.259228 3.9575653e-39
2.5805259 -0.073955223 -1.2818973 7.3745518e-39
2.5615854 -0.045858715 -1.2658563 9.2162797e-39
2.580977 -0.036977615 -1.279893 7.9263046e-39
2.5841339 -0.015407339 -1.2658637 4.7912777e-39
2.6030948 -0.015533945 -1.286369 1.0506305e-38
2.5830064 0.020543119 -1.2708741 9.8584332e-39
2.6049137 0.0041423854 -1.2782863 7.7386624e-39
2.5818789 0.030814679 -1.2758846 1.0043908e-38
2.5232005 -0.1203523 -1.2360148 5.7053559e-39
2.5425882 -0.11117064 -1.2455121 9.2055318e-39
2.5448072 -0.070744954 -1.2356523 1.3793429e-39
2.5660603 -0.081526607 -1.2459719 1.747031e-39
2.5436978 -0.045478895 -1.2405822 1.1981901e-39
2.5682976 -0.030572476 -1.2360296 2.394913e-39
2.588644 -0.030814679 -1.2458217 2.5782196e-39
2.5705349 -0.020381652 -1.2260875 2.4885379e-39
2.5881929 -0.014380182 -1.247826 2.9452015e-39
2.5889258 0.011555504 -1.2445692 2.4871086e-39
2.5875165 0.030814679 -1.2508322 3.4933978e-39
2.5738909 -0.030572476 -1.2111741 2.2094469e-39
2.5750093 -0.020381652 -1.206203 5.9040922e-39
2.5954092 -0.010271559 -1.2157589 6.3611383e-39
2.5772469 0.020381652 -1.1962608 1.0413822e-38
2.5951273 0.008987614 -1.2170116 4.0569791e-39
2.5397146 -0.15044038 -1.1626297 1.8478657e-39
2.5445039 -0.13355544 -1.1686767 2.6718642e-39
2.5839586 -0.071335778 -1.1664342 1.8417546e-39
2.5570104 -0.030319266 -1.1814232 3.4947739e-39
2.5839589 -0.050954126 -1.1664343 1.7524316e-39
2.6033018 -0.046222016 -1.1806855 2.0261501e-39
2.5794842 -0.015286239 -1.1863186 1.1942594e-39
2.5817215 0.015286239 -1.1763765 3.5948897e-39
2.5999193 0.0051357797 -1.195717 6.4465124e-39
2.5809755 0.033969417 -1.1796905 4.6994408e-39
2.5225465 -0.15917797 -1.138712 1.9321692e-39
2.5444853 -0.1537835 -1.1414297 2.6700887e-39
2.5236387 -0.12933211 -1.133859 2.1165815e-39
2.5461001 -0.13439339 -1.1342542 5.0639367e-39
2.5225468 -0.11109296 -1.138712 9.8627814e-39
2.5569537 -0.10074055 -1.1434155 1.0139014e-38
2.5884333 -0.095114373 -1.1465498 7.8359321e-39
2.6111946 -0.092444032 -1.1456121 6.7310153e-39
2.5873151 -0.071335778 -1.151521 2.7633508e-39
2.6111946 -0.077036694 -1.1456121 3.2271848e-39
2.6445258 -0.062388994 -1.15464 3.5927667e-39
2.6078119 -0.051357798 -1.1606436 1.7509939e-39
2.6363106 -0.044097248 -1.1649568 2.0279353e-39
2.549623 -0.1203523 -1.1185988 6.4540024e-39
2.5312831 -0.10943487 -1.0998884 1.0880183e-38
2.5518248 -0.1036367 -1.1088141 1.1152803e-38
2.6134496 -0.092444032 -1.1355911 6.824643e-39
2.6157045 -0.082172476 -1.1255702 2.3953418e-39
2.6349249 -0.077669725 -1.1449226 3.6859951e-39
2.4963682 -0.11753394 -1.0637374 1.2254469e-38
2.5160098 -0.10365137 -1.072107 1.1244647e-38
2.5334673 -0.10943487 -1.0901825 1.097202e-38
2.5356514 -0.089537613 -1.0804766 1.0228328e-38
2.444453 -0.11489175 -1.0211427 1.2164424e-38
2.4631915 -0.096477062 -1.0289706 1.0499219e-38
2.4992352 -0.10447461 -1.0509967 1.1061329e-38
