# .PCD v0.7 - Point Cloud Data file format
VERSION 0.7
FIELDS x y z rgb
SIZE 4 4 4 4
TYPE F F F F
COUNT 1 1 1 1
WIDTH 120
HEIGHT 1
VIEWPOINT 0 0 0 1 0 0 0
POINTS 120
DATA ascii
2.5204003 -0.21223487 -1.3441107 7.2798436e-39
2.5204003 -0.19202201 -1.3441107 9.5843896e-39
2.5204003 -0.17180917 -1.3441107 9.6769426e-39
2.5204003 -0.12127706 -1.3441107 5.8786474e-39
2.5204003 -0.11117064 -1.3441107 6.3561133e-39
2.5420089 -0.10190826 -1.3528504 8.2850146e-39
2.5237286 -0.21223487 -1.329321 1.0047872e-38
2.5472667 -0.22623634 -1.3294863 1.2529258e-38
2.5162792 -0.19135413 -1.319911 9.3078013e-39
2.5263171 -0.16844036 -1.3178178 9.5869092e-39
2.5476022 -0.15541008 -1.3279949 8.66532e-39
2.5226192 -0.12127706 -1.3342508 9.0311962e-39
2.5503988 -0.14267156 -1.3155673 8.9455152e-39
2.5675969 -0.13524221 -1.3393508 8.7560751e-39
2.5905902 -0.12427156 -1.3419371 6.6348526e-39
2.5226192 -0.11117064 -1.3342508 8.5784858e-39
2.5481617 -0.096812844 -1.3255094 1.0779672e-38
2.5683486 -0.11298716 -1.3360105 8.5705796e-39
2.5894535 -0.1139156 -1.3469888 7.2723186e-39
2.5476022 -0.078978896 -1.3279951 1.0783982e-38
2.5687995 -0.065737978 -1.3340062 9.7651852e-39
2.5689929 -0.039618872 -1.3331473 9.3067139e-39
2.5694761 -0.020543119 -1.3309999 8.4812693e-39
2.5917268 -0.010355963 -1.3368853 8.8428617e-39
2.5968614 0.0082847709 -1.3350234 8.8475463e-39
2.6348915 0.031585321 -1.3591511 8.7567758e-39
2.4919684 -0.21886973 -1.2745947 9.0427261e-39
2.5212839 -0.2139523 -1.2923585 8.019243e-39
2.4919684 -0.19897246 -1.2745947 9.6798293e-39
2.5178859 -0.1876899 -1.2915158 9.7687781e-39
2.5262911 -0.16422701 -1.2906034 1.0139011e-38
2.5526361 -0.15286238 -1.305625 8.9394112e-39
2.5337131 -0.14148991 -1.2849516 9.8642458e-39
2.5526361 -0.14267156 -1.305625 9.5933804e-39
2.5728586 -0.13353027 -1.3159685 9.2188735e-39
2.5548737 -0.098996595 -1.2956829 9.3049161e-39
2.5728586 -0.11298716 -1.3159685 9.1151368e-39
2.5751138 -0.071900912 -1.3059475 8.2035992e-39
2.5744693 -0.041086238 -1.3088107 8.9382986e-39
2.5985477 -0.041423853 -1.3065755 9.1165858e-39
2.5728586 -0.020543119 -1.3159685 8.6681717e-39
2.5985479 -0.015533946 -1.3065755 8.9386503e-39
2.5728586 0.020543119 -1.3159685 9.4017836e-39
2.6032584 0.010365341 -1.3089237 9.7680494e-39
2.5758655 0.034238532 -1.3026072 1.0042118e-38
2.5962741 0.031067891 -1.3166789 1.04091e-38
2.4941525 -0.21886973 -1.2648889 6.8142454e-39
2.4941525 -0.19399816 -1.2648889 9.9538812e-39
2.5165949 -0.18554312 -1.2653688 8.7488654e-39
2.5294864 -0.16126606 -1.2718507 1.0780744e-38
2.5306137 -0.12975413 -1.2628559 7.7390323e-39
2.5381508 -0.11117064 -1.2652318 9.3917209e-39
2.5615857 -0.10020978 -1.2658563 8.4765973e-39
2.5796239 -0.092444032 -1.2859056 1.0135377e-38
2.562145 -0.073883489 -1.2633706 4.9713655e-39
2.5796239 -0.071900912 -1.2859056 9.675474e-39
2.563823 -0.045858715 -1.255914 1.2882123e-39
2.5812347 -0.039618876 -1.2787478 8.4769435e-39
2.563823 -0.020381652 -1.255914 4.9742424e-39
2.5826306 -0.013695412 -1.2725444 9.1223115e-39
2.5830064 0.020543119 -1.2708741 9.9509735e-39
2.6049137 0.0062135779 -1.2782862 7.6479045e-39
2.5615854 0.030572476 -1.2658563 9.492187e-39
2.5818789 0.030814679 -1.2758846 9.9534945e-39
2.5425882 -0.12127706 -1.2455121 6.2606652e-39
2.5425882 -0.11117064 -1.2455121 9.3938383e-39
2.567179 -0.096812844 -1.2410008 7.5629017e-39
2.590899 -0.092444032 -1.2358007 5.5270645e-39
2.6121893 -0.10355963 -1.2459557 1.0604999e-38
2.5366049 -0.066486605 -1.2338403 1.9339404e-39
2.567179 -0.081526607 -1.2410008 1.5662467e-39
2.5668058 -0.047557186 -1.2426578 2.5778637e-39
2.5890951 -0.034923304 -1.2438176 2.3030789e-39
2.5682974 -0.020381652 -1.2360296 2.5782266e-39
2.588644 -0.010271559 -1.2458217 2.2105371e-39
2.588644 0.010271559 -1.2458217 2.2105385e-39
2.6110525 0.010355963 -1.2510073 2.3048809e-39
2.5863891 0.030814679 -1.2558427 4.3170054e-39
2.6099157 0.031067891 -1.2560591 3.0406579e-39
2.5745621 -0.034648806 -1.2081915 3.1267299e-39
2.5750093 -0.020381652 -1.206203 5.8104771e-39
2.5954092 -0.010271559 -1.2157589 6.2689511e-39
2.5772469 0.020381652 -1.1962608 1.0508923e-38
2.5951273 0.008987614 -1.2170116 4.2370697e-39
2.5408156 -0.10029358 -1.1577375 1.060572e-38
2.5839589 -0.091717429 -1.1664343 5.3530947e-39
2.5839589 -0.071335778 -1.1664343 2.8508857e-39
2.5817215 -0.0407633 -1.1763765 2.2080218e-39
2.6044295 -0.041086238 -1.175675 2.1172541e-39
2.649524 -0.031321101 -1.1848109 2.4874547e-39
2.5794842 -0.020381652 -1.1863186 1.0105562e-39
2.5999193 -0.010271559 -1.195717 1.8371275e-39
2.5817215 0.015286239 -1.1763765 3.9597289e-39
2.5999193 0.0051357797 -1.195717 8.6598858e-39
2.5669951 -0.12633027 -1.1370537 5.7139542e-39
2.5225463 -0.10943487 -1.1387119 1.2441384e-38
2.5517383 -0.10389358 -1.1410832 1.1153876e-38
2.5884333 -0.098511308 -1.1465498 8.8511406e-39
2.6089394 -0.092444032 -1.1556331 5.6235971e-39
2.6326513 -0.093203671 -1.1550258 5.9970417e-39
2.5647762 -0.060638532 -1.1469136 2.4839066e-39
2.5861962 -0.071335778 -1.156492 2.7644312e-39
2.6083758 -0.074468806 -1.1581383 2.30669e-39
2.6464424 -0.070741281 -1.1565999 2.5857908e-39
2.6788092 -0.084227525 -1.1639911 3.042453e-39
2.5861962 -0.050954126 -1.156492 2.1197806e-39
2.6100669 -0.051357798 -1.1506226 1.6595354e-39
2.650156 -0.041705202 -1.1645408 2.2105413e-39
2.6741862 -0.031585321 -1.1845342 1.3832806e-39
2.5861962 0.010190826 -1.156492 3.1270858e-39
2.5503571 -0.12369541 -1.1153373 5.8043562e-39
2.5641572 -0.10751926 -1.1177807 1.1336851e-38
2.5951455 -0.10190825 -1.1167233 1.0508487e-38
2.6157045 -0.092444032 -1.1255702 7.2856184e-39
2.6383355 -0.082847707 -1.1297677 5.438885e-39
2.4963682 -0.11753394 -1.0637374 1.2075108e-38
2.5170934 -0.10858716 -1.0672916 1.1613062e-38
2.5349233 -0.10943487 -1.0837119 1.0045002e-38
2.5996201 -0.081526607 -1.0968388 1.3358582e-38
2.4912996 -0.11219633 -1.0407124 1.07869e-38
