# .PCD v0.7 - Point Cloud Data file format
VERSION 0.7
FIELDS x y z rgb
SIZE 4 4 4 4
TYPE F F F F
COUNT 1 1 1 1
WIDTH 103
HEIGHT 1
VIEWPOINT 0 0 0 1 0 0 0
POINTS 103
DATA ascii
3.2419107 -0.36981651 -1.392953 1.1972789e-38
3.2404482 -0.34431192 -1.3991593 1.170669e-38
3.2389853 -0.30605504 -1.4053653 1.0223282e-38
3.2760406 -0.31557798 -1.4007143 1.1152443e-38
3.240448 -0.2869266 -1.3991592 1.0682855e-38
3.2775178 -0.27049541 -1.3944457 7.655131e-39
3.2419107 -0.26779816 -1.392953 8.7632568e-39
3.2745631 -0.25761467 -1.4069829 9.6657799e-39
3.3101385 -0.25158164 -1.4129696 1.1599703e-38
3.2419107 -0.21678898 -1.392953 1.5031821e-38
3.2760406 -0.2318532 -1.4007143 1.6129884e-38
3.2419107 -0.19766055 -1.392953 1.2255183e-38
3.2745631 -0.18033028 -1.4069829 1.2076914e-38
3.3096409 -0.16916697 -1.4150805 1.1707767e-38
3.3456829 -0.15778348 -1.4234469 1.1426855e-38
3.3111334 -0.13663486 -1.4087477 1.1707767e-38
3.3111334 -0.11711559 -1.4087477 1.2903445e-38
3.2462988 -0.36981651 -1.3743348 1.1423585e-38
3.2834275 -0.3735413 -1.3693712 9.6761859e-39
3.2121544 -0.35346788 -1.3666363 1.1789899e-38
3.2481272 -0.34271789 -1.3665773 1.0046821e-38
3.2819502 -0.31557798 -1.3756398 1.0325553e-38
3.2477615 -0.2869266 -1.3681287 1.0318379e-38
3.2804728 -0.28337616 -1.3819084 7.7451854e-39
3.2506869 -0.25504586 -1.3557165 1.0309706e-38
3.2814577 -0.24902751 -1.3777293 1.0686403e-38
3.2448361 -0.21678898 -1.3805408 1.4933535e-38
3.2819502 -0.22541285 -1.3756398 1.206791e-38
3.2471764 -0.19638532 -1.3706111 1.1795648e-38
3.2834275 -0.20609175 -1.3693712 1.1251463e-38
3.2477612 -0.17853208 -1.3681287 1.1157124e-38
3.2819502 -0.16744953 -1.3756398 9.9614594e-39
3.3156111 -0.15615413 -1.3897489 1.1331426e-38
3.3165066 -0.13793615 -1.3859493 1.1705979e-38
3.2804728 -0.1159266 -1.3819084 1.1794942e-38
3.3171036 -0.11711559 -1.3834161 1.2987377e-38
3.253612 -0.36981651 -1.3433043 1.1056982e-38
3.255075 -0.34431192 -1.3370981 1.0137189e-38
3.2922921 -0.34777981 -1.3317595 3.4995285e-39
3.2565374 -0.31243119 -1.330892 1.1985004e-38
3.2863824 -0.31557798 -1.3568339 1.0603593e-38
3.2227726 -0.28193271 -1.321583 1.1243897e-38
3.253612 -0.29330274 -1.3433043 1.0869045e-38
3.2215662 -0.26194498 -1.3267028 8.5745411e-39
3.2550747 -0.24866971 -1.3370981 1.1417509e-38
3.2863824 -0.24473393 -1.3568339 1.1615206e-38
3.2555621 -0.22103973 -1.3350294 1.2068254e-38
3.2863824 -0.2318532 -1.3568339 1.0502756e-38
3.2889152 -0.193211 -1.3460878 1.0599612e-38
3.3230741 -0.18217981 -1.3580844 1.1891094e-38
3.2893369 -0.15972109 -1.3442967 1.1151697e-38
3.3230741 -0.16916697 -1.3580844 1.1064923e-38
3.2903223 -0.13310091 -1.3401177 1.2255489e-38
3.3230741 -0.13663486 -1.3580844 1.1615202e-38
3.2893372 -0.1159266 -1.3442967 1.2901252e-38
3.357748 -0.11833761 -1.372255 1.2077294e-38
3.262876 -0.34643731 -1.3039989 3.5891556e-39
3.2952468 -0.34777981 -1.3192222 6.8228101e-39
3.2594628 -0.31243119 -1.3184798 1.4755266e-39
3.2594628 -0.2869266 -1.3184798 1.2860907e-39
3.2952468 -0.28337616 -1.3192222 2.2976825e-39
3.226634 -0.25247705 -1.3052002 1.1140875e-38
3.2619009 -0.25292048 -1.3081363 8.1207586e-39
3.2623885 -0.22316514 -1.3060676 3.4962299e-39
3.2623882 -0.19766055 -1.3060676 3.1310487e-39
3.2633631 -0.17428131 -1.3019301 1.4726077e-39
3.2972169 -0.15886238 -1.3108641 1.5676872e-39
3.2967243 -0.14168808 -1.3129537 2.2083651e-39
3.3305368 -0.13012843 -1.3264198 2.1165562e-39
3.2653136 -0.11477064 -1.2936554 4.0641369e-39
3.2711644 -0.36981651 -1.2688309 6.7266502e-39
3.2699943 -0.34686238 -1.2737958 4.1416007e-39
3.2692139 -0.22103973 -1.2771057 2.9434106e-39
3.2338738 -0.20198166 -1.2744821 2.6693447e-39
3.270189 -0.19553517 -1.2729683 2.7629794e-39
3.2699943 -0.1657798 -1.2737958 2.1172751e-39
3.3011568 -0.16744953 -1.2941477 3.1299837e-39
3.2711644 -0.14027523 -1.2688309 1.8412501e-40
3.302634 -0.13524771 -1.2878791 1.9339783e-39
3.3350146 -0.13012843 -1.3074211 3.5902037e-39
3.2711644 -0.11477064 -1.2688309 5.51474e-40
3.3011568 -0.1159266 -1.2941477 2.7651374e-39
3.2425616 -0.34715599 -1.2376206 3.8668046e-39
3.2411137 -0.32190827 -1.2437642 3.3158043e-39
3.2770152 -0.31880733 -1.2440065 1.1153803e-38
3.2430439 -0.21881346 -1.2355727 2.576426e-39
3.2740898 -0.22954127 -1.2564187 1.37861e-39
3.2430439 -0.19777371 -1.2355727 2.6715097e-39
3.2740898 -0.1912844 -1.2564187 2.3967178e-39
3.2755527 -0.16577981 -1.2502127 6.0795054e-39
3.2755525 -0.13389908 -1.2502126 1.0220424e-38
3.2770152 -0.11477064 -1.2440065 9.5857797e-39
3.3070664 -0.1159266 -1.2690734 1.3729955e-38
3.2129023 -0.3708061 -1.2152501 1.077969e-38
3.2478704 -0.34925994 -1.215094 3.5902206e-39
3.2818906 -0.33581039 -1.2233194 3.0402824e-39
3.2799406 -0.31880733 -1.2315943 1.3811338e-39
3.3159308 -0.32201836 -1.2314616 3.041339e-39
3.2469053 -0.21460551 -1.2191898 2.6725746e-39
3.2469053 -0.19566974 -1.2191898 2.1226337e-39
3.2820303 -0.16760157 -1.2227285 2.7647689e-39
3.2822809 -0.1351743 -1.2216645 2.1197722e-39
3.2526972 -0.15779817 -1.1946154 2.3963591e-39
