# .PCD v0.7 - Point Cloud Data file format
VERSION 0.7
FIELDS x y z rgb
SIZE 4 4 4 4
TYPE F F F F
COUNT 1 1 1 1
WIDTH 138
HEIGHT 1
VIEWPOINT 0 0 0 1 0 0 0
POINTS 138
DATA ascii
3.2775178 -0.27049541 -1.3944457 9.1158319e-39
3.2399602 -0.25504586 -1.4012278 7.5514167e-39
3.2760406 -0.2511743 -1.4007143 1.3370879e-38
3.240448 -0.22316512 -1.3991592 5.2562425e-39
3.240448 -0.19766055 -1.3991592 4.2388438e-39
3.2419107 -0.17853209 -1.392953 5.0675128e-39
3.2092586 -0.12623852 -1.3789234 7.9065337e-39
3.240448 -0.13389908 -1.3991592 6.4526053e-39
3.2092586 -0.10730276 -1.3789234 1.3364391e-38
3.2389853 -0.10839449 -1.4053653 1.0056515e-38
3.2404482 -0.07651376 -1.3991593 1.0502373e-38
3.2775178 -0.077284403 -1.3944457 1.0325197e-38
3.3466883 -0.043828744 -1.419181 8.1009709e-39
3.3466883 -0.021914372 -1.419181 9.9606733e-39
3.3842142 -0.013288073 -1.4256098 6.9103352e-39
3.2506869 -0.30605504 -1.3557165 3.7760397e-39
3.2819502 -0.31557798 -1.3756398 4.048675e-39
3.3141186 -0.32532111 -1.3960818 4.5978845e-39
3.2492242 -0.2869266 -1.3619225 2.3913397e-39
3.2492244 -0.25504586 -1.3619226 6.9056787e-39
3.2136023 -0.21460551 -1.3604926 2.2966063e-39
3.2477612 -0.22954126 -1.3681287 4.790989e-39
3.2136023 -0.19566974 -1.3604926 5.7107298e-39
3.2143264 -0.16726604 -1.3574208 5.7182758e-39
3.2448361 -0.15940367 -1.3805408 7.0047365e-39
3.2136023 -0.13255045 -1.3604926 5.2468566e-39
3.2136023 -0.10730276 -1.3604926 8.0260449e-39
3.2481794 -0.07651376 -1.3663555 8.2846405e-39
3.2804728 -0.077284403 -1.3819084 1.0046113e-38
3.3171036 -0.045544956 -1.3834161 7.9194649e-39
3.3532236 -0.026297247 -1.391452 8.2918375e-39
3.3887866 -0.013288073 -1.4062093 8.0159569e-39
3.4289701 0 -1.4013623 7.7415392e-39
3.2908146 -0.34133944 -1.3380282 1.1525136e-38
3.2555621 -0.3103058 -1.3350294 2.855175e-39
3.2863824 -0.32201836 -1.3568339 3.7695783e-39
3.223738 -0.27772477 -1.3174874 3.3122506e-39
3.2545869 -0.28905198 -1.3391668 3.594538e-39
3.2227726 -0.26089299 -1.321583 3.6813512e-39
3.253612 -0.24866971 -1.3433043 6.4450327e-39
3.2218077 -0.22302143 -1.3256789 8.845761e-39
3.2208424 -0.19566973 -1.3297746 8.9358183e-39
3.2208424 -0.16568808 -1.3297746 6.5437387e-39
3.189008 -0.14998899 -1.3166314 2.8480018e-39
3.220263 -0.13381283 -1.332232 4.423235e-39
3.1861408 -0.11249173 -1.3287972 4.7934161e-39
3.2198765 -0.10519878 -1.3338703 3.5949303e-39
3.2863824 -0.090165138 -1.3568339 2.029778e-39
3.223738 -0.082055047 -1.3174874 5.8968909e-39
3.2545869 -0.06801223 -1.3391668 4.5107699e-39
3.2863824 -0.051522937 -1.3568339 7.8369368e-39
3.3245666 -0.039038531 -1.3517514 7.8265308e-39
3.359256 -0.052594494 -1.3658561 5.4370058e-39
3.3260591 -0.026025688 -1.3454186 9.3063104e-39
3.3587534 -0.017531497 -1.3679891 8.6613165e-39
3.3964074 0 -1.373875 7.3763524e-39
3.2609255 -0.33793578 -1.3122737 1.2813347e-38
3.228806 -0.3124404 -1.2959847 4.6126542e-39
3.2594628 -0.31880733 -1.3184798 3.8750359e-39
3.2280819 -0.2840367 -1.2990565 3.9608093e-39
3.2280819 -0.258789 -1.2990565 3.0388685e-39
3.2280822 -0.22722936 -1.2990566 2.6697244e-39
3.2280819 -0.19566974 -1.2990565 2.8577086e-39
3.2280819 -0.17042202 -1.2990565 3.3176049e-39
3.1955619 -0.13570432 -1.2888241 4.2374187e-39
3.1947427 -0.1062422 -1.2923 5.4391778e-39
3.2280819 -0.082055047 -1.2990565 3.5009326e-39
3.2594628 -0.063761465 -1.3184798 4.3241969e-39
3.3637805 -0.052594494 -1.3466591 3.9572164e-39
3.3637805 -0.019722935 -1.3466591 8.4776063e-39
3.2338738 -0.34084404 -1.2744821 1.4833358e-38
3.2338741 -0.31559634 -1.2744823 4.4268322e-39
3.2711644 -0.31880733 -1.2688309 1.4751287e-39
3.2338738 -0.2840367 -1.2744821 2.761906e-39
3.2338738 -0.258789 -1.2744821 3.4069195e-39
3.2338741 -0.22722936 -1.2744823 2.6736845e-39
3.201911 -0.18748623 -1.2618855 2.3988856e-39
3.2338738 -0.20198166 -1.2744821 2.5818364e-39
3.201911 -0.16873762 -1.2618855 3.1357346e-39
3.201911 -0.14998899 -1.2618855 3.5945464e-39
3.2338738 -0.13255045 -1.2744821 4.3296115e-39
3.2338738 -0.10730276 -1.2744821 4.6947983e-39
3.2333908 -0.084159017 -1.27653 4.1473838e-39
3.2411134 -0.34084404 -1.2437642 1.5298302e-38
3.2415276 -0.31559634 -1.2420089 4.6090808e-39
3.2740898 -0.31880733 -1.2564187 8.2688661e-40
3.2411139 -0.2840367 -1.2437643 2.5789707e-39
3.2411139 -0.258789 -1.2437642 2.5793266e-39
3.2407517 -0.22880733 -1.2453002 2.4878625e-39
3.2770152 -0.21678898 -1.2440065 2.6740362e-39
3.2062118 -0.18748623 -1.2436368 2.0301059e-39
3.2401481 -0.19777371 -1.2478598 2.9481148e-39
3.2770152 -0.19766055 -1.2440065 2.9502574e-39
3.2076454 -0.16873762 -1.237554 3.4101607e-39
3.2391827 -0.16411009 -1.2519555 3.6849539e-39
3.2090793 -0.14998899 -1.2314712 1.8457175e-39
3.2396655 -0.13255045 -1.2499077 5.3441292e-39
3.2770152 -0.13389908 -1.2440065 1.5489859e-38
3.2382176 -0.10730276 -1.2560514 7.2748984e-39
3.2740898 -0.10839449 -1.2564187 1.7330243e-38
3.3114986 -0.1159266 -1.2502675 1.4013743e-38
3.3439701 -0.10410275 -1.2694236 1.4104872e-38
3.2382176 -0.08836697 -1.2560514 1.1078586e-38
3.2480638 -0.31307158 -1.2142749 2.7611998e-39
3.2469053 -0.2840367 -1.2191898 2.7640822e-39
3.2843287 -0.2869266 -1.212976 3.9575794e-39
3.3188858 -0.27049541 -1.2189244 3.31008e-39
3.2811108 -0.25504586 -1.2266294 3.2225507e-39
3.3179009 -0.25332108 -1.2231034 3.4073105e-39
3.2799406 -0.22316512 -1.2315943 3.8650264e-39
3.3174083 -0.2318532 -1.225193 2.1201618e-39
3.3909273 -0.21037798 -1.2314773 2.852322e-39
3.3909273 -0.18408072 -1.2314773 2.5775232e-39
3.4268901 -0.16610092 -1.2445378 2.4881848e-39
3.2799406 -0.12752293 -1.2315943 1.2900834e-38
3.3159308 -0.12880734 -1.2314616 3.7677735e-39
3.4268901 -0.14616881 -1.2445378 3.1310501e-39
3.3499403 -0.11711559 -1.244092 1.0044596e-38
3.2584891 -0.27772477 -1.170041 2.0326367e-39
3.2887168 -0.2869266 -1.1943576 7.2837602e-39
3.2584891 -0.258789 -1.170041 5.5259939e-39
3.289448 -0.25185779 -1.1912546 6.4526095e-39
3.3247955 -0.2318532 -1.1938499 3.2193095e-39
3.3588958 -0.22121835 -1.2060945 3.2221583e-39
3.3954518 -0.21037798 -1.2122803 3.1361214e-39
3.3954518 -0.18408072 -1.2122803 1.6587955e-39
3.4314628 -0.19932111 -1.2251374 2.5796714e-39
3.39696 -0.1709321 -1.2058814 1.7506478e-39
3.4299386 -0.16610092 -1.2316042 1.8446259e-39
3.2628329 -0.25247705 -1.1516101 5.538649e-39
3.2960303 -0.24229357 -1.1633271 4.6915655e-39
3.2960303 -0.22954127 -1.1633271 3.5920422e-39
3.3292277 -0.21897247 -1.1750441 3.5005501e-39
3.3999763 -0.21037798 -1.1930833 2.0279563e-39
3.3999763 -0.19065504 -1.1930833 1.9368257e-39
3.2686248 -0.25247705 -1.1270357 1.1453093e-38
3.2671769 -0.2398532 -1.1331793 5.6985372e-39
3.3004184 -0.22954127 -1.1447088 3.9629884e-39
