# .PCD v0.7 - Point Cloud Data file format
VERSION 0.7
FIELDS x y z rgb
SIZE 4 4 4 4
TYPE F F F F
COUNT 1 1 1 1
WIDTH 117
HEIGHT 1
VIEWPOINT 0 0 0 1 0 0 0
POINTS 117
DATA ascii
2.8306577 -0.2819266 -1.38548 1.2436656e-38
2.7777395 -0.25758439 -1.3746133 1.3355011e-38
2.8037357 -0.22579522 -1.3820111 1.2249015e-38
2.8057871 -0.20120366 -1.3733071 1.2243635e-38
2.8045049 -0.15649174 -1.378747 1.3632675e-38
2.8032229 -0.14531375 -1.384187 1.3909261e-38
2.829623 -0.13306937 -1.3898706 1.4000004e-38
2.829623 -0.10374899 -1.3898706 1.344685e-38
2.8569717 -0.075106792 -1.3958888 1.3725943e-38
2.856776 -0.04409679 -1.3967196 1.4366639e-38
2.8581901 -0.018966362 -1.3907199 1.4922325e-38
2.8096335 -0.27944955 -1.3569871 9.9484694e-39
2.7834578 -0.25481468 -1.3503505 1.0774615e-38
2.7840931 -0.22711745 -1.3476546 1.0771009e-38
2.8092062 -0.21983363 -1.3588005 1.0863219e-38
2.7834578 -0.1772624 -1.3503505 1.3722346e-38
2.8096335 -0.16208073 -1.3569871 1.2892952e-38
2.8384187 -0.15787889 -1.3525511 1.0130312e-38
2.8096335 -0.13413578 -1.3569871 1.1409926e-38
2.8358316 -0.13720429 -1.3635274 1.1417466e-38
2.8355083 -0.10149357 -1.3648995 1.2247227e-38
2.8384187 -0.073300913 -1.3525511 1.0592033e-38
2.8634112 -0.072072171 -1.3685672 1.0408726e-38
2.8373837 -0.042852845 -1.3569416 1.3817055e-38
2.8642814 -0.056899082 -1.3648751 1.021897e-38
2.8642814 -0.017069725 -1.3648751 1.4462052e-38
2.7885408 -0.27697247 -1.3287836 4.8780881e-39
2.8461795 -0.27064955 -1.319622 1.0876234e-38
2.872113 -0.28449541 -1.3316461 1.1156047e-38
2.7657855 -0.26360369 -1.3119946 4.8812971e-39
2.792099 -0.25481468 -1.3136867 3.5862997e-39
2.8147619 -0.24591561 -1.3352275 7.1761167e-39
2.7919295 -0.22157799 -1.3144057 9.6589513e-39
2.8141208 -0.22076513 -1.3379474 1.0398288e-38
2.7936239 -0.19942018 -1.3072166 1.1951555e-38
2.762006 -0.17573579 -1.3280305 1.2711785e-38
2.8160443 -0.16394372 -1.3297875 1.1412423e-38
2.8410056 -0.15787889 -1.3415748 1.1230189e-38
2.816685 -0.1257523 -1.3270675 1.0585931e-38
2.8429458 -0.14378256 -1.3333424 1.1959152e-38
2.8160443 -0.10432782 -1.3297875 8.9343371e-39
2.8430753 -0.096982747 -1.3327937 5.0646542e-39
2.84411 -0.074428625 -1.3284031 7.095095e-39
2.8435926 -0.045108259 -1.3305985 9.3931124e-39
2.872113 -0.034139451 -1.3316461 1.0129577e-38
2.872113 -0.017069725 -1.3316461 1.1140868e-38
2.85006 -0.27628809 -1.3031576 1.2625789e-38
2.8747234 -0.28449541 -1.3205696 1.3080638e-38
2.7974362 -0.24373579 -1.2910415 1.1435159e-38
2.8243778 -0.25988808 -1.2944279 1.1430127e-38
2.7695649 -0.22516146 -1.2959588 7.6360761e-39
2.7974362 -0.22157799 -1.2910415 1.1154957e-38
2.7695649 -0.18671927 -1.2959588 1.2314619e-38
2.8237367 -0.15649174 -1.2971479 1.472472e-38
2.798707 -0.13294679 -1.2856498 1.4013391e-38
2.8237364 -0.13227279 -1.2971478 1.3543435e-38
2.8237364 -0.10619082 -1.2971478 9.7738522e-39
2.8247623 -0.08048147 -1.2927958 1.2351719e-38
2.8513534 -0.067662388 -1.2976694 1.4659845e-38
2.85006 -0.050746787 -1.3031576 1.1704546e-38
2.8760288 -0.034139451 -1.3150315 1.0127054e-38
2.8513534 -0.011277064 -1.2976694 1.0039554e-38
2.8755937 -0.018966362 -1.3168775 1.0588766e-38
2.8050606 -0.27697247 -1.2586911 1.1966048e-38
2.8591144 -0.27064955 -1.2647405 1.0700862e-38
2.8037899 -0.25481468 -1.2640829 1.1808626e-38
2.8288651 -0.26268256 -1.275388 1.1613809e-38
2.8591144 -0.25937247 -1.2647405 1.2070474e-38
2.8063314 -0.21049908 -1.2532995 7.9184335e-39
2.8050606 -0.15510459 -1.2586911 1.4638625e-38
2.8037899 -0.13294679 -1.2640829 1.4008711e-38
2.8314292 -0.13599877 -1.264508 1.3642825e-38
2.8591144 -0.12404771 -1.2647405 1.4279213e-38
2.8301473 -0.10619082 -1.2699481 1.3089301e-38
2.8591144 -0.10149357 -1.2647405 1.3461651e-38
2.8297203 -0.08569786 -1.2717614 1.3369817e-38
2.8570447 -0.072173208 -1.2735215 1.391294e-38
2.8565273 -0.045108255 -1.2757169 1.1610521e-38
2.7821629 -0.010983487 -1.2425058 1.0773879e-38
2.8339937 -0.016766973 -1.2536283 1.0408342e-38
2.8548028 -0.018795107 -1.2830343 1.0866073e-38
2.8088729 -0.27697247 -1.2425159 1.2070443e-38
2.8877761 -0.27311561 -1.265188 1.4190598e-38
2.813956 -0.24373579 -1.2209491 1.0872917e-38
2.8365579 -0.24591561 -1.2427484 1.4753453e-38
2.8629949 -0.25937247 -1.248276 1.2349167e-38
2.7859423 -0.22516146 -1.22647 1.2732386e-38
2.8114145 -0.21880825 -1.2317325 1.0969862e-38
2.7872021 -0.19770275 -1.2211246 1.1969915e-38
2.8101437 -0.15510459 -1.2371242 1.3812841e-38
2.8114145 -0.14402568 -1.2317325 1.3646416e-38
2.8378401 -0.12854679 -1.2373084 1.4655504e-38
2.8378401 -0.10060183 -1.2373084 1.3823595e-38
2.863771 -0.099238165 -1.2449831 1.2909178e-38
2.8642883 -0.073300913 -1.2427878 1.2810511e-38
2.8391221 -0.033533946 -1.2318685 1.1420337e-38
2.8642883 -0.04651789 -1.2427878 1.2161529e-38
2.8378401 -0.022355964 -1.2373084 1.178984e-38
2.8668752 -0.022554127 -1.2318115 1.2434856e-38
2.793921 -0.24529786 -1.1926165 4.7938056e-39
2.8164973 -0.25481468 -1.2101656 6.8257164e-39
2.7927454 -0.22406311 -1.1976055 3.5048857e-39
2.7654874 -0.18509725 -1.1999191 1.3460206e-38
2.7925563 -0.1990757 -1.1984072 1.0042478e-38
2.7947609 -0.17573579 -1.1890529 5.3269016e-39
2.8177681 -0.099710092 -1.2047739 5.0617563e-39
2.8416862 -0.11177981 -1.2209886 6.2499047e-39
2.8707557 -0.095855042 -1.2153471 2.4867653e-39
2.9001763 -0.099573396 -1.2125753 3.2250478e-39
2.8707557 -0.073300913 -1.2153471 3.9597205e-39
2.8969131 -0.073968813 -1.2264208 2.9452239e-39
2.8703246 -0.041349236 -1.2171764 9.6739873e-39
2.8969131 -0.056899082 -1.2264208 5.2454245e-39
2.8694623 -0.022554127 -1.2208352 1.1978182e-38
2.8215804 -0.1772624 -1.1885988 5.6945953e-39
2.877223 -0.09021651 -1.1879061 9.2352575e-41
2.9034393 -0.10810825 -1.19873 7.3732542e-40
