# .PCD v0.7 - Point Cloud Data file format
VERSION 0.7
FIELDS x y z rgb
SIZE 4 4 4 4
TYPE F F F F
COUNT 1 1 1 1
WIDTH 134
HEIGHT 1
VIEWPOINT 0 0 0 1 0 0 0
POINTS 134
DATA ascii
1.7489265 -0.036752291 -1.3108673 8.7550059e-39
1.7489265 -0.025726605 -1.3108673 9.0308655e-39
1.7489265 0.014700917 -1.3108673 9.1245031e-39
1.7489265 0.05880367 -1.3108673 1.0688914e-38
1.7489265 0.073504589 -1.3108673 1.0595642e-38
1.7602526 0.088733949 -1.3151221 1.1062043e-38
1.7710186 0.10910826 -1.3217521 9.0290565e-39
1.7803211 0.13752955 -1.3241301 8.5709608e-39
1.790838 0.1354789 -1.342281 9.0290214e-39
1.7832209 0.15962814 -1.3222892 8.1992874e-39
1.7918249 0.16558532 -1.3380949 8.7556996e-39
1.7944789 0.18978937 -1.3320647 8.6617061e-39
1.8161621 0.20569541 -1.3438119 9.1216108e-39
1.711283 -0.064667888 -1.2744232 1.4371717e-38
1.7173809 -0.054786056 -1.2773203 1.3174612e-38
1.7354805 -0.041627262 -1.2900754 9.1273702e-39
1.7439532 -0.016778843 -1.2894031 9.2166889e-39
1.7475101 0.014642202 -1.2907215 9.7669956e-39
1.716139 0.043206114 -1.2698029 7.5514279e-39
1.7386855 0.047411796 -1.2876865 8.38405e-39
1.7520258 0.076396331 -1.2913243 9.1197975e-39
1.7675951 0.10737117 -1.2951764 8.9368538e-39
1.7830001 0.13880882 -1.2988145 8.4787652e-39
1.786508 0.16748038 -1.3013666 8.4769631e-39
1.7889423 0.19454679 -1.2980124 9.2148756e-39
1.7994713 0.19694619 -1.3056515 9.1205332e-39
1.7977444 0.21074496 -1.3129774 9.5800582e-39
1.7291847 -0.065031193 -1.2464179 1.5387612e-38
1.7251519 -0.047751024 -1.2561516 8.9372364e-39
1.7399563 -0.038752291 -1.2486663 3.7778698e-39
1.7481123 -0.019080311 -1.261341 7.6450472e-39
1.756503 0.014662568 -1.2619381 7.5557242e-39
1.7504478 0.047804527 -1.2622738 8.0141801e-39
1.7588751 0.074974678 -1.268656 8.9386475e-39
1.7724901 0.082395807 -1.2631987 7.0025323e-39
1.7604489 0.1041315 -1.2619786 8.939365e-39
1.7714906 0.10629588 -1.26744 7.9255816e-39
1.7846262 0.13768992 -1.2672853 7.2812926e-39
1.7949501 0.16835782 -1.2725219 8.2014412e-39
1.7940918 0.19828807 -1.2761633 9.4900262e-39
1.8089676 0.19569175 -1.2653593 5.0692995e-39
1.8089674 0.21074496 -1.2653592 8.4668779e-39
1.7316711 -0.054192662 -1.2358683 4.5111329e-39
1.7456543 -0.041834861 -1.2375674 5.3408697e-39
1.7325 -0.021677064 -1.2323519 7.4718075e-39
1.746931 -0.017481102 -1.2343298 5.7164752e-39
1.7374727 0.021677064 -1.2112529 2.6697118e-39
1.747941 0.017206339 -1.2290535 2.2108916e-39
1.7508044 0.047405504 -1.2287937 6.3543112e-39
1.7602712 0.076181531 -1.2304754 4.2380997e-39
1.7667521 0.10815676 -1.2352346 2.3034516e-39
1.7778753 0.10845261 -1.2403501 2.2087364e-39
1.79263 0.13674837 -1.2412648 2.1176226e-39
1.7984158 0.16914365 -1.2428719 2.2098056e-39
1.803318 0.19641742 -1.237017 3.7731755e-39
1.8121328 0.20070948 -1.2519284 3.4058321e-39
1.8115573 0.21074496 -1.2543703 6.8955711e-39
1.7414509 0.02456734 -1.1943738 1.9335901e-39
1.7310628 0.035926603 -1.1904987 2.3899159e-39
1.7588891 0.082117438 -1.2075685 3.0345244e-39
1.7714508 0.10529378 -1.2099707 2.1172527e-39
1.7831526 0.11831193 -1.2179586 2.9430659e-39
1.7747014 0.14070877 -1.2015066 2.3009251e-39
1.7837181 0.1306361 -1.2155595 2.3931305e-39
1.7747816 0.15680979 -1.2011658 1.5662425e-39
1.787203 0.16748057 -1.205528 3.1299795e-39
1.7998995 0.19768834 -1.2112849 3.4036909e-39
1.7507333 -0.0072256881 -1.154989 1.2875102e-39
1.7268012 0.028579816 -1.1606293 2.3934836e-39
1.7379856 0.021555962 -1.1611252 1.842821e-39
1.7139469 0.040522672 -1.1535176 6.8185306e-39
1.7843368 0.11760734 -1.160624 2.6689775e-39
1.7786297 0.13897796 -1.1745639 3.4108586e-39
1.7826506 0.16538532 -1.1677785 1.1056217e-39
1.7912571 0.16760857 -1.1835715 9.4918044e-39
1.7993703 0.19436111 -1.1770465 5.6196118e-39
1.7792771 -0.065779813 -1.1326877 6.35753e-39
1.7334667 -0.041440737 -1.1323479 3.3136421e-39
1.7484658 -0.048325032 -1.1303588 4.3328387e-39
1.7769163 -0.055489171 -1.1328242 4.4178232e-39
1.7348598 -0.019648623 -1.1264367 2.9462903e-39
1.7449086 -0.014370641 -1.1317517 2.7633522e-39
1.7344502 0.01428991 -1.1281753 1.752782e-39
1.7453994 0.014807554 -1.1381308 2.3027229e-39
1.7737916 0.016381651 -1.1312605 2.1215701e-39
1.7260554 0.044227783 -1.1329687 8.7517493e-39
1.7513509 0.048853006 -1.1310573 9.0276103e-39
1.7560376 0.067921475 -1.1324834 7.6493352e-39
1.771866 0.082524776 -1.1307124 1.8428252e-39
1.7800866 0.11218899 -1.1386974 1.9350152e-39
1.7838355 0.13703623 -1.1417725 1.8421077e-39
1.7857183 0.16396512 -1.144106 1.7509869e-39
1.7984194 0.1774679 -1.1531829 1.8417532e-39
1.8023269 0.19594413 -1.1486744 3.4955026e-39
1.7927678 -0.06615413 -1.1248519 5.1604329e-39
1.8052045 -0.066550463 -1.1243937 4.6065459e-39
1.7557696 -0.043192659 -1.1016529 2.3084935e-39
1.7851621 -0.054910094 -1.1200687 2.8562667e-39
1.755492 -0.013203363 -1.1068268 3.5920226e-39
1.7532835 0.010808256 -1.1201929 2.0293801e-39
1.7844188 0.025610397 -1.1195902 4.3339093e-39
1.8147244 0.026725873 -1.1153877 3.4980249e-39
1.7355354 0.049826298 -1.091603 1.0874417e-38
1.7513045 0.04622018 -1.1114645 8.1957141e-39
1.7849993 0.036541283 -1.1076825 3.5834032e-39
1.7606788 0.066837616 -1.1127911 8.757482e-39
1.7836331 0.078033842 -1.1200175 3.8714906e-39
1.8176665 0.079953216 -1.1238282 3.5963414e-39
1.8417729 0.079029366 -1.1261674 3.7810774e-39
1.8713658 0.084044039 -1.1357415 1.9322e-39
1.7590212 0.09393394 -1.1198241 2.6690055e-39
1.7863518 0.10720599 -1.1215606 2.487124e-39
1.8242666 0.10955352 -1.1306984 2.2127007e-39
1.8458928 0.1023111 -1.1319352 2.946663e-39
1.8664072 0.10094312 -1.1306254 3.5009214e-39
1.891094 0.092521101 -1.1348602 8.4902978e-39
1.7911285 0.13464403 -1.1238159 1.9343188e-39
1.8194785 0.13257322 -1.1266025 1.9346677e-39
1.8487616 0.12990679 -1.1279016 2.3967262e-39
1.8665528 0.12824221 -1.1300074 3.3154511e-39
1.7927678 0.16416025 -1.1248518 2.395636e-39
1.7927678 0.19111192 -1.1248518 2.7647815e-39
1.7401766 -0.035623852 -1.0799025 2.3981668e-39
1.7459235 -0.0071449541 -1.0794944 1.3850854e-39
1.7590755 -0.021596329 -1.0876261 2.3041579e-39
1.7771822 -0.021798166 -1.0907186 2.9437848e-39
1.7317907 0.049611006 -1.0723271 1.0230123e-38
1.7475625 0.06430459 -1.07254 1.0507775e-38
1.7656515 0.065031193 -1.091692 1.014114e-38
1.8335717 0.14216881 -1.1086538 3.0370678e-39
1.7184286 0.051890641 -1.0374794 1.096445e-38
1.7294366 0.049449541 -1.053545 1.078328e-38
1.7187233 0.066573083 -1.0314342 9.1255807e-39
1.7294366 0.06357798 -1.053545 1.0411999e-38
