# .PCD v0.7 - Point Cloud Data file format
VERSION 0.7
FIELDS x y z rgb
SIZE 4 4 4 4
TYPE F F F F
COUNT 1 1 1 1
WIDTH 173
HEIGHT 1
VIEWPOINT 0 0 0 1 0 0 0
POINTS 173
DATA ascii
3.1181738 0.067433029 -1.3614684 8.9379412e-39
3.1503038 0.078393884 -1.3644452 7.8326685e-39
3.1507568 0.10521284 -1.3624325 6.9121625e-39
3.150485 0.13368221 -1.3636401 8.5659245e-39
3.1829548 0.14998899 -1.3696649 9.580728e-39
3.1802106 0.16248807 -1.3818591 8.0984906e-39
3.2152824 0.17168441 -1.3808743 1.0692535e-38
3.2161138 0.19566974 -1.3771795 1.0597109e-38
3.1811254 0.2208171 -1.3777943 1.1241379e-38
3.2147281 0.23354128 -1.3833374 1.1423258e-38
3.2147281 0.258789 -1.3833375 1.1048358e-38
3.215421 0.28719267 -1.3802584 9.3981697e-39
3.2147279 0.3029725 -1.3833374 8.4694059e-39
3.1561918 0.080456875 -1.3382806 8.2032811e-39
3.1870708 0.062495407 -1.3513737 7.0889713e-39
3.1561918 0.10521284 -1.3382806 8.4813099e-39
3.1561918 0.12996881 -1.3382806 9.3081741e-39
3.1870708 0.14998899 -1.3513737 1.0034946e-38
3.1884429 0.16248807 -1.3452766 1.0603635e-38
3.2216568 0.17673394 -1.3525478 1.1151371e-38
3.1884429 0.19998531 -1.3452766 9.8595752e-39
3.2202711 0.1893578 -1.3587058 1.0044331e-38
3.187345 0.22248363 -1.3501542 1.0412735e-38
3.2211947 0.26089296 -1.3546004 1.0598903e-38
3.2216568 0.2840367 -1.3525478 1.0687492e-38
3.2216568 0.30928442 -1.3525478 1.0319075e-38
3.2558351 0.33155963 -1.3600886 1.1513657e-38
3.1329782 0.073563308 -1.2956806 8.3887107e-39
3.1616268 0.077362381 -1.3141285 8.6613599e-39
3.1911869 0.062495407 -1.3330824 3.1227908e-39
3.1602681 0.10521284 -1.3201666 9.4929465e-39
3.1948457 0.10832537 -1.3168236 1.032412e-38
3.1939311 0.13748991 -1.3208883 1.1057014e-38
3.194617 0.16561285 -1.3178397 1.1430826e-38
3.2258141 0.17673394 -1.334074 1.0047194e-38
3.1939311 0.19373576 -1.3208883 1.1065292e-38
3.1935391 0.22141229 -1.3226304 1.198114e-38
3.2271998 0.2398532 -1.3279161 1.2712214e-38
3.1911869 0.24998163 -1.3330824 1.1317453e-38
3.2271998 0.258789 -1.3279161 1.2720511e-38
3.2271998 0.2840367 -1.3279161 1.179711e-38
3.2267377 0.30718043 -1.3299687 1.0964484e-38
3.2614346 0.31880733 -1.3352063 1.1058479e-38
3.1069696 0.072858714 -1.2655003 4.8849503e-39
3.1370158 0.073563308 -1.2777385 5.3358405e-39
3.1684206 0.10314984 -1.2839385 4.4192778e-39
3.1994193 0.11249173 -1.2965001 1.1949587e-39
3.2007914 0.13748991 -1.290403 2.8577128e-39
3.2007914 0.16873762 -1.290403 1.8399637e-39
3.2007914 0.19373578 -1.290403 4.1405329e-39
3.2012486 0.21665074 -1.2883706 5.0653745e-39
3.2322807 0.23564525 -1.305337 6.2603037e-39
3.2335742 0.25752661 -1.2995896 6.1752911e-39
3.2341287 0.2840367 -1.2971265 6.0812934e-39
3.2341282 0.3029725 -1.2971264 7.8283637e-39
3.1109686 0.078930274 -1.2477301 3.7814501e-39
3.1437452 0.073563308 -1.2478349 3.6853253e-39
3.176573 0.086645864 -1.2477106 3.5852137e-39
3.1423993 0.098084405 -1.2538157 2.5768211e-39
3.1756673 0.10727584 -1.2517359 3.0359776e-39
3.2103956 0.10624219 -1.2477235 1.3794004e-39
3.2076516 0.1374899 -1.2599176 3.1310697e-39
3.2076514 0.16873761 -1.2599176 2.3037949e-39
3.2062795 0.19373578 -1.2660147 3.1314088e-39
3.2424428 0.19566974 -1.2601788 3.8700388e-39
3.2782326 0.19766055 -1.2605592 2.1191655e-39
3.2068675 0.22676904 -1.2634016 2.9463029e-39
3.2424428 0.22091743 -1.2601788 3.7728224e-39
3.2782326 0.21678898 -1.2605592 7.3513519e-40
3.2049074 0.26248074 -1.2721118 2.6718614e-39
3.2410572 0.258789 -1.2663367 2.3041733e-39
3.274873 0.28565139 -1.2754886 3.1346416e-39
3.3112507 0.2962569 -1.2732555 3.8682452e-39
3.2726333 0.30605504 -1.2854415 4.1444649e-39
3.3084228 0.30913761 -1.2858219 2.6740236e-39
3.3452122 0.31230825 -1.2863145 3.4054762e-39
3.182008 0.074267887 -1.2235585 5.4341766e-39
3.2140543 0.079160847 -1.2314646 1.1808609e-38
3.2145116 0.10624219 -1.2294322 1.429506e-38
3.214237 0.1349901 -1.2306516 1.1981947e-38
3.2468774 0.16663487 -1.2404734 1.0699061e-38
3.2838318 0.17853209 -1.2356769 1.267666e-38
3.2810323 0.19766055 -1.248118 1.5314207e-38
3.3169065 0.19965139 -1.2481225 1.7804527e-38
3.3537829 0.20169908 -1.2482284 1.6667698e-38
3.2466002 0.23354128 -1.2417051 7.4693398e-39
3.2828984 0.22103973 -1.2398238 1.520012e-38
3.3537829 0.23423119 -1.2482284 9.1976873e-39
3.2466002 0.258789 -1.2417051 4.0544469e-39
3.2838318 0.24229357 -1.2356769 1.4697379e-39
3.3887773 0.24982384 -1.2612528 1.7495478e-39
3.2810323 0.28055045 -1.248118 6.5616459e-39
3.3140786 0.2962569 -1.260689 3.0349042e-39
3.3537829 0.27326974 -1.2482284 3.2257498e-39
3.3931072 -0.013148624 -1.2420111 1.115457e-38
3.4334695 -0.013288073 -1.2357376 1.2352389e-38
3.3931072 0.0065743118 -1.2420111 3.8657607e-39
3.4320109 0 -1.2422194 5.8919177e-39
3.1888018 0.074267887 -1.1933686 2.130509e-38
3.2199998 0.087493576 -1.2050439 2.2218777e-38
3.187443 0.099023849 -1.1994066 2.0466024e-38
3.2199998 0.10624219 -1.2050439 2.0467074e-38
3.2553763 0.10940673 -1.2027047 1.3723127e-38
3.2195425 0.13332355 -1.2070763 1.9455116e-38
3.2535288 0.12623852 -1.2109153 1.8051723e-38
3.2894313 0.13389908 -1.2107944 1.5389427e-38
3.2524202 0.16158533 -1.2158417 1.7415319e-38
3.2894313 0.1657798 -1.2107944 1.5589696e-38
3.323976 0.16744953 -1.2167063 1.0854648e-38
3.3253901 0.18033028 -1.2104231 1.7807453e-38
3.3580682 0.20169909 -1.2291853 1.7050819e-38
3.3197343 0.21897247 -1.235556 1.882376e-38
3.3585446 0.22555596 -1.2270695 8.211169e-39
3.3916638 0.23667522 -1.248425 4.5003317e-39
3.2521431 0.25247705 -1.2170733 2.304895e-39
3.3594966 0.24724403 -1.2228377 3.0381496e-39
3.392626 0.2585896 -1.244149 2.7655144e-39
3.3594966 0.27977616 -1.2228377 3.0399292e-39
3.3916638 0.27612111 -1.248425 3.2250394e-39
3.2590718 0.025247708 -1.1862836 4.6983814e-39
3.2950306 0.025504587 -1.1859121 5.0621206e-39
3.3310459 0.025761468 -1.1852901 4.2352494e-39
3.3652103 0.013012844 -1.1974469 2.9484693e-39
3.3974373 0.013148624 -1.2227693 3.5894877e-39
3.2618432 0.044183489 -1.1739677 4.0497778e-39
3.3310459 0.045082569 -1.1852901 2.3009447e-39
3.22686 0.081244037 -1.1745586 9.6629464e-39
3.2590718 0.082055047 -1.1862836 4.4174967e-39
3.2936308 0.063761465 -1.1921327 4.0458219e-39
3.3310459 0.064403668 -1.1852901 3.122802e-39
3.2604575 0.10730276 -1.1801257 6.543387e-39
3.2943308 0.130711 -1.1890224 2.8476599e-39
3.3296318 0.14168808 -1.1915734 7.8344972e-39
3.2922308 0.15302752 -1.1983533 1.1942622e-39
3.3296318 0.16100916 -1.1915734 1.585587e-38
3.3301032 0.18891744 -1.1894789 1.6310017e-38
3.363306 0.19953029 -1.2059106 1.5770538e-38
3.2978303 0.21678898 -1.173471 1.1342932e-38
3.3296318 0.22541285 -1.1915734 1.0031356e-38
3.3623536 0.23423119 -1.2101424 9.214154e-39
3.3296318 0.24473393 -1.1915734 8.3012122e-39
3.3637819 0.26025686 -1.2037946 4.1384085e-39
3.3974373 0.27612111 -1.2227693 3.133557e-39
3.2673862 0.018935781 -1.149336 3.2265093e-39
3.2692337 0.046287466 -1.1411253 6.2725623e-39
3.3006301 0.03825688 -1.1610298 4.4146311e-39
3.2350924 0.087493576 -1.1379762 1.7142255e-38
3.2666934 0.075743124 -1.152415 1.2711823e-38
3.3006301 0.063761465 -1.1610298 9.3963424e-39
3.2350924 0.099992655 -1.1379762 1.6312843e-38
3.2655385 0.10940673 -1.1575465 1.4286704e-38
3.2701578 0.12623852 -1.1370201 1.1334328e-38
3.3020298 0.13389908 -1.1548092 9.7702144e-39
3.3680673 0.14314128 -1.1847516 9.0308291e-39
3.3680673 0.15615413 -1.1847516 1.2891524e-38
3.3006301 0.2040367 -1.1610298 7.0717242e-39
3.3352876 0.19965139 -1.1664404 8.4741086e-39
3.3680673 0.18217981 -1.1847516 1.9559879e-38
3.301563 0.22103973 -1.1568828 1.4009409e-38
3.3367016 0.2318532 -1.1601572 1.4741576e-38
3.3006301 0.24229357 -1.1610298 1.1808933e-38
3.3352876 0.2511743 -1.1664404 9.6841215e-39
3.3709242 0.26025686 -1.1720562 7.096963e-39
3.2743149 0.044183489 -1.1185464 6.3582671e-39
3.2405806 0.077077672 -1.113588 1.3636651e-38
3.2729292 0.063119262 -1.1247042 6.7962709e-39
3.2392085 0.10624219 -1.1196851 1.4736884e-38
3.2729292 0.12623852 -1.1247042 1.2810158e-38
3.3071623 0.22529049 -1.1320003 1.4925601e-38
3.340472 0.24902751 -1.1434019 1.3450468e-38
3.3766379 0.26025686 -1.1466656 1.2625028e-38
3.2119005 0.086645864 -1.0907227 1.6857691e-38
3.2119005 0.099023849 -1.0907227 1.5938286e-38
