# .PCD v0.7 - Point Cloud Data file format
VERSION 0.7
FIELDS x y z rgb
SIZE 4 4 4 4
TYPE F F F F
COUNT 1 1 1 1
WIDTH 164
HEIGHT 1
VIEWPOINT 0 0 0 1 0 0 0
POINTS 164
DATA ascii
3.0896411 0.048572477 -1.3425049 8.7542464e-39
3.116828 0.049042203 -1.3674492 5.9729716e-39
3.1490581 0.072720639 -1.36998 8.3851192e-39
3.1829548 0.087493576 -1.3696649 8.3876457e-39
3.1815827 0.10624219 -1.375762 6.9071403e-39
3.1493981 0.14853577 -1.3684705 8.931435e-39
3.1818569 0.1349901 -1.3745425 7.5568075e-39
3.2163911 0.16663487 -1.375948 1.0964478e-38
3.1811254 0.19581896 -1.3777943 1.0316195e-38
3.2165756 0.19356577 -1.3751268 9.6784056e-39
3.181308 0.22248366 -1.3769813 1.1699477e-38
3.2165756 0.23564525 -1.3751268 1.1149552e-38
3.1548331 0.086645864 -1.3443185 9.218484e-39
3.187345 0.072494678 -1.3501542 7.6396718e-39
3.2230425 0.063119262 -1.3463899 3.3064758e-39
3.1870708 0.10624219 -1.3513737 9.4878892e-39
3.187345 0.1349901 -1.3501542 9.5854883e-39
3.2216568 0.17042202 -1.3525479 1.0414907e-38
3.1884429 0.19998531 -1.3452766 1.0779361e-38
3.2202711 0.1893578 -1.3587058 1.0878416e-38
3.1870708 0.21248439 -1.3513737 1.1151378e-38
3.2216568 0.23354128 -1.3525478 1.0963754e-38
3.2216568 0.258789 -1.3525478 1.0047537e-38
3.2211947 0.28193271 -1.3546004 1.0230486e-38
3.2558351 0.29330274 -1.3600886 1.0780432e-38
3.2230425 0.3029725 -1.3463899 1.022691e-38
3.2539685 0.31455657 -1.3683827 9.7677173e-39
3.2900417 0.33489907 -1.3675041 1.1516193e-38
3.1329782 0.085823856 -1.2956806 1.1789173e-38
3.1616268 0.080456875 -1.3141285 9.4918339e-39
3.192559 0.06874495 -1.3269854 6.2638896e-39
3.1329782 0.10421468 -1.2956806 1.1798507e-38
3.1602681 0.10521284 -1.3201666 1.0132547e-38
3.1939311 0.13748991 -1.3208884 1.059819e-38
3.1953032 0.16873762 -1.3147912 1.1337544e-38
3.1939311 0.19373578 -1.3208883 1.1705615e-38
3.194617 0.21560916 -1.3178397 1.2257713e-38
3.2267377 0.23564525 -1.3299687 1.2257707e-38
3.2271998 0.258789 -1.3279161 1.3182584e-38
3.2271998 0.2840367 -1.3279161 1.2444646e-38
3.2267377 0.30718043 -1.3299687 1.1153887e-38
3.2628343 0.31880733 -1.3289857 1.2807662e-38
3.2614346 0.33155963 -1.3352063 1.1517622e-38
3.1083026 0.072858714 -1.2595769 3.9579689e-39
3.1356699 0.079693586 -1.2837192 5.1615119e-39
3.1657031 0.061889905 -1.2960145 6.444332e-39
3.1370158 0.098084405 -1.2777385 4.2377592e-39
3.1684206 0.10521284 -1.2839385 5.2450896e-39
3.2007914 0.11249173 -1.290403 1.4726133e-39
3.2007914 0.13748991 -1.290403 3.3176077e-39
3.2007914 0.16873762 -1.290403 1.1067203e-39
3.2007914 0.19373578 -1.290403 2.2995e-39
3.2014773 0.2218587 -1.2873545 3.8657523e-39
3.2313571 0.23354128 -1.3094423 6.7187805e-39
3.2341287 0.258789 -1.2971265 4.9731578e-39
3.2341285 0.28529909 -1.2971265 7.0018106e-39
3.2670338 0.28055045 -1.3103238 9.219563e-41
3.2327428 0.3029725 -1.3032844 8.4743987e-39
3.2689002 0.31455657 -1.3020297 3.0449837e-39
3.1118572 0.068811007 -1.2437811 5.8054604e-39
3.144418 0.082758725 -1.2448446 2.8537555e-39
3.2071025 0.1074921 -1.2623564 2.4849898e-39
3.2076516 0.13748991 -1.2599176 3.0385364e-39
3.2071025 0.16998753 -1.2623564 2.3942011e-39
3.2424428 0.16411009 -1.2601788 3.4944544e-39
3.2071025 0.19498567 -1.2623564 2.4857003e-39
3.2424428 0.1893578 -1.2601788 2.3041593e-39
3.176573 0.21042567 -1.2477106 2.673358e-39
3.2065537 0.22248366 -1.2647952 3.4062104e-39
3.241519 0.23564525 -1.264284 2.6689943e-39
3.2410572 0.258789 -1.2663367 2.1197848e-39
3.2782323 0.25504586 -1.2605591 2.3070894e-39
3.2410572 0.2840367 -1.2663367 3.0413712e-39
3.2782326 0.2869266 -1.2605592 3.5070521e-39
3.2424428 0.3029725 -1.2601788 4.139828e-39
3.2747331 0.31243119 -1.2761106 2.6725915e-39
3.1811023 0.082519867 -1.2275839 7.8395559e-39
3.214237 0.072494678 -1.2306516 7.0980097e-39
3.1806493 0.099023849 -1.2295966 7.3807651e-39
3.2149692 0.10832537 -1.2273999 1.7613365e-38
3.2140543 0.12915719 -1.2314646 1.4203217e-38
3.2479858 0.13886239 -1.2355471 2.1111028e-38
3.2466004 0.16411011 -1.2417051 1.0518642e-38
3.2838318 0.17853209 -1.2356769 1.2214646e-38
3.2149692 0.19581895 -1.2273999 1.3088968e-38
3.2452145 0.1893578 -1.2478629 4.2259378e-39
3.2838318 0.2040367 -1.2356769 1.7809549e-38
3.3169065 0.19321102 -1.2481225 1.7526556e-38
3.2466002 0.22091743 -1.2417051 1.0688646e-38
3.2838318 0.22316512 -1.2356769 1.538917e-38
3.2821522 0.25249541 -1.2431415 5.0650101e-39
3.2810323 0.28055045 -1.248118 5.8169357e-39
3.3161995 0.28659636 -1.2512641 3.8668032e-39
3.3537829 0.27977616 -1.2482284 3.5026983e-39
3.3253901 0.025761468 -1.2104231 4.8816838e-39
3.3945506 0.0065743118 -1.2355971 3.9622709e-39
3.4334695 0.0066440366 -1.2357376 4.5122007e-39
3.187443 0.086645864 -1.1994066 2.24075e-38
3.2199998 0.07499449 -1.2050439 1.7974506e-38
3.2563002 0.075743116 -1.1985995 3.3064912e-39
3.2195425 0.10415902 -1.2070763 2.0186901e-38
3.2549145 0.10730276 -1.2047575 1.2163002e-38
3.2894313 0.11477064 -1.2107944 6.5207911e-39
3.2186279 0.12499081 -1.211141 1.9552333e-38
3.2526047 0.13465442 -1.2150205 1.9172403e-38
3.2894313 0.13389908 -1.2107944 1.197211e-38
3.2516811 0.1556942 -1.2191259 2.0010437e-38
3.2875645 0.16577981 -1.2190886 1.307672e-38
3.323976 0.16744953 -1.2167063 9.5675054e-39
3.320677 0.19321102 -1.2313672 1.6863933e-38
3.3583539 0.19779523 -1.2279159 1.741676e-38
3.2866316 0.22316512 -1.2232356 1.429823e-38
3.323976 0.22541285 -1.2167063 7.8517443e-39
3.3580682 0.22772476 -1.2291853 6.9982177e-39
3.2866316 0.24866971 -1.2232356 2.9445092e-39
3.3235049 0.24902751 -1.2188007 3.0385125e-39
3.3594966 0.26025686 -1.2228377 3.4984103e-39
3.3580682 0.27326974 -1.2291853 3.1339368e-39
3.3623536 0.026025688 -1.2101424 4.2366872e-39
3.4003239 0.026297247 -1.2099415 5.2454399e-39
3.4363868 0.0066440366 -1.2227737 5.6185272e-39
3.2922308 0.03825688 -1.1983533 3.9611765e-39
3.3310459 0.051522937 -1.1852901 3.3086226e-39
3.363306 0.043376148 -1.2059106 2.8551961e-39
3.2296042 0.074994497 -1.1623645 6.4321379e-39
3.2601805 0.075743124 -1.1813573 5.8068729e-39
3.2978303 0.063761465 -1.173471 3.1228273e-39
3.2609193 0.10519878 -1.178073 1.041594e-38
3.2922308 0.11477064 -1.1983533 4.8917606e-39
3.2943308 0.130711 -1.1890224 3.6817506e-39
3.328218 0.14168808 -1.1978565 5.4259384e-39
3.3652103 0.14314128 -1.1974469 8.3887373e-39
3.2922308 0.15302752 -1.1983533 3.6778479e-40
3.328218 0.15456881 -1.1978565 1.2906661e-38
3.3642583 0.16482936 -1.2016789 1.6407238e-38
3.3637819 0.19519265 -1.2037946 1.5948815e-38
3.3296318 0.22541283 -1.1915734 1.1786284e-38
3.3301032 0.24902751 -1.1894789 8.0213897e-39
3.3623536 0.26025686 -1.2101424 3.9572346e-39
3.2701578 0.044183489 -1.1370201 8.2129921e-39
3.3006301 0.051009174 -1.1610298 4.3350289e-39
3.3338737 0.038642202 -1.1727237 3.5831104e-39
3.2350924 0.074994497 -1.1379762 1.363269e-38
3.2673864 0.075743116 -1.1493361 1.1883151e-38
3.2350924 0.099992655 -1.1379762 1.5943003e-38
3.2673862 0.10856514 -1.149336 1.5021756e-38
3.2701578 0.12623852 -1.1370201 1.170022e-38
3.3006301 0.12752293 -1.1610298 1.2070063e-38
3.3367016 0.14168808 -1.1601572 8.8486239e-39
3.3680673 0.14314128 -1.1847516 9.0272488e-39
3.3690197 0.16482936 -1.1805198 1.3355756e-38
3.3701079 0.19705163 -1.1756834 9.9470723e-39
3.3352876 0.22541283 -1.1664404 1.428276e-38
3.3352876 0.2511743 -1.1664404 1.115494e-38
3.2743149 0.037871562 -1.1185464 6.6406147e-39
3.3076291 0.051009174 -1.1299269 5.1629679e-39
3.2392085 0.087493576 -1.1196851 1.7233344e-38
3.2743149 0.075743124 -1.1185464 1.1146648e-38
3.3076291 0.063761465 -1.1299269 4.053061e-39
3.2729292 0.10730276 -1.1247042 1.4276993e-38
3.2729292 0.12623852 -1.1247042 1.2250881e-38
3.3062294 0.22316512 -1.1361475 1.4282743e-38
3.3423574 0.2318532 -1.1350242 1.5948367e-38
3.340472 0.24902751 -1.1434019 1.3174945e-38
