# .PCD v0.7 - Point Cloud Data file format
VERSION 0.7
FIELDS x y z rgb
SIZE 4 4 4 4
TYPE F F F F
COUNT 1 1 1 1
WIDTH 181
HEIGHT 1
VIEWPOINT 0 0 0 1 0 0 0
POINTS 181
DATA ascii
2.7707503 0.76222825 -1.4042678 5.8032954e-39
2.7713857 0.8004505 -1.4015719 7.0003911e-39
2.7431087 0.83474493 -1.4082098 6.8153258e-39
2.770242 0.82427007 -1.4064244 9.3914028e-39
2.7084422 0.85651094 -1.3874683 1.4748053e-38
2.7437387 0.85122019 -1.4055372 8.8421387e-39
2.7190297 0.88411152 -1.3970366 1.0602154e-38
2.7452085 0.91345996 -1.3993009 9.1183962e-39
2.7436488 0.94301075 -1.405919 1.1416058e-38
2.7707503 0.95278537 -1.4042678 9.8616772e-39
2.7431087 0.96654683 -1.4082098 1.4098377e-38
2.7980943 0.96130645 -1.4059467 9.766564e-39
2.8293643 0.65406972 -1.3909682 8.9440621e-39
2.8551445 0.64864951 -1.4036423 1.3815629e-38
2.8300111 0.67380464 -1.3882241 3.5001955e-39
2.8057871 0.70980185 -1.3733071 1.0505259e-38
2.8306577 0.69917798 -1.38548 4.0444248e-39
2.8538392 0.71123856 -1.4091804 1.0041032e-38
2.7771041 0.74228626 -1.3773092 5.4341934e-39
2.8032229 0.73215783 -1.384187 9.6740952e-39
2.8280709 0.72173208 -1.3964565 1.0685709e-38
2.7280216 0.77305323 -1.3588848 6.5530812e-39
2.7500377 0.76884401 -1.3788108 6.9107248e-39
2.7771041 0.76167428 -1.3773092 5.2472602e-39
2.8045049 0.77128077 -1.378747 9.5797934e-39
2.7280216 0.78394127 -1.3588848 6.4328666e-39
2.723026 0.83838165 -1.3800802 9.4874899e-39
2.754447 0.812778 -1.3601022 1.1346221e-38
2.7783749 0.83091748 -1.3719174 6.8196544e-39
2.8006585 0.81599271 -1.3950669 6.255657e-39
2.7025585 0.85291004 -1.3579432 8.2043251e-39
2.7225969 0.8808592 -1.3663328 7.3698967e-39
2.7280216 0.90371007 -1.3588848 8.2929221e-39
2.7512975 0.91986704 -1.3734654 9.7666117e-39
2.7519274 0.93359631 -1.3707927 1.0588783e-38
2.8848755 0.98750097 -1.3995517 1.2521263e-38
2.8848755 0.99898344 -1.3995517 1.4453078e-38
2.9106913 1.0156466 -1.4120758 1.3995694e-38
2.8109157 0.64832294 -1.3515472 9.6740475e-39
2.8332448 0.64843118 -1.3745037 1.2165109e-38
2.7847285 0.67027342 -1.3449588 4.5111315e-39
2.8332448 0.67098534 -1.3745037 4.4174589e-39
2.7834578 0.70351017 -1.3503505 7.1901857e-39
2.8083513 0.69303489 -1.3624271 6.1742163e-39
2.7594862 0.73589355 -1.338721 1.437173e-38
2.7828224 0.72843766 -1.3530464 7.2766501e-39
2.7336414 0.76760918 -1.33504 1.446752e-38
2.7594862 0.76884401 -1.338721 1.6040195e-38
2.7809165 0.76444405 -1.3611339 1.364395e-38
2.7333293 0.79346836 -1.3363646 1.0688244e-38
2.6832769 0.8242532 -1.3307753 5.3419683e-39
2.7304409 0.82803982 -1.3330512 5.6164014e-39
2.6845045 0.85636693 -1.3255657 3.8582455e-39
2.7135992 0.85218203 -1.3328935 6.2667861e-39
2.7087502 0.87990087 -1.3316722 7.4678446e-39
2.7321844 0.90733951 -1.341222 5.1568554e-39
2.7569666 0.93359631 -1.3494116 1.169368e-38
2.8092062 0.94267648 -1.3588005 7.0853756e-39
2.8358316 0.95855045 -1.3635274 4.8784637e-39
2.8384187 0.97546601 -1.3525511 6.4414636e-39
2.8875096 0.98750097 -1.3883753 7.4426717e-39
2.8655865 1.001424 -1.3593369 1.3442878e-38
2.8875096 0.99898344 -1.3883753 1.224971e-38
2.7657855 0.65900922 -1.3119946 6.4479698e-39
2.7923532 0.64811563 -1.3126084 7.4566959e-39
2.8134797 0.65391195 -1.3406674 7.0029134e-39
2.7640216 0.67438608 -1.319478 5.5303225e-39
2.7929885 0.67858261 -1.3099126 5.8919247e-39
2.7417591 0.71861285 -1.3005974 3.6874833e-39
2.7648406 0.70157021 -1.3160036 4.1459349e-39
2.7405102 0.73385608 -1.3058963 2.8595457e-39
2.7632658 0.73589361 -1.3226852 3.5934912e-39
2.7405102 0.76216513 -1.3058963 2.8566548e-39
2.7360864 0.79753762 -1.3048509 4.329257e-39
2.7215457 0.82405651 -1.2991773 4.6958899e-39
2.7149417 0.85291004 -1.3054011 4.5143769e-39
2.6894159 0.87777615 -1.3047276 5.8065324e-39
2.7149417 0.8837567 -1.3054011 4.7916826e-39
2.7405102 0.90371007 -1.3058963 4.8835476e-39
2.7670453 0.92261291 -1.3066493 3.9622317e-39
2.7893879 0.93801349 -1.3251891 4.3292345e-39
2.8186083 0.96130645 -1.3189076 6.628003e-39
2.8418679 0.97734553 -1.337916 5.8893618e-39
2.8435926 0.99238169 -1.3305985 7.1639198e-39
2.7720845 0.65900922 -1.2852682 6.3809205e-39
2.7974362 0.64811563 -1.2910415 6.3554336e-39
2.8263009 0.65391195 -1.2862679 7.008314e-39
2.7733443 0.67548442 -1.2799228 3.6860329e-39
2.798707 0.66473395 -1.2856498 5.2563098e-39
2.7471709 0.71498346 -1.2776357 4.0512323e-39
2.7712445 0.70111251 -1.2888316 4.1466411e-39
2.7467546 0.73494494 -1.279402 4.2374173e-39
2.7467546 0.76216513 -1.279402 4.1459293e-39
2.7403169 0.79598743 -1.2755775 4.329257e-39
2.7256768 0.82458866 -1.2754223 4.6966031e-39
2.6973968 0.85369086 -1.2708653 4.6984066e-39
2.7231975 0.85111064 -1.270373 4.5132881e-39
2.7256796 0.88637382 -1.2754095 6.2607003e-39
2.7471709 0.91096884 -1.2776357 1.0046445e-38
2.7708247 0.93359631 -1.2906134 6.267114e-39
2.7974362 0.95278537 -1.2910415 7.0004051e-39
2.8237364 0.97807342 -1.2971478 5.4283948e-39
2.8050606 0.65365505 -1.2586911 3.6842421e-39
2.830575 0.64459693 -1.2681347 1.0138635e-38
2.7536232 0.68322659 -1.2502582 3.7782272e-39
2.7796433 0.67438608 -1.2531964 3.5916905e-39
2.8037899 0.66473395 -1.2640829 4.1441468e-39
2.753356 0.71083564 -1.2513938 4.1448587e-39
2.7771237 0.70294315 -1.2638869 3.3183616e-39
2.7529988 0.73494488 -1.2529076 4.0533959e-39
2.7529988 0.76216513 -1.2529076 3.9622485e-39
2.7452681 0.79798746 -1.2493811 4.3296171e-39
2.7298019 0.82591921 -1.2423506 5.9851784e-39
2.7414079 0.85112047 -1.2475995 1.2347398e-38
2.7821629 0.86769545 -1.2425058 1.9066171e-38
2.75175 0.88193387 -1.2582066 1.9079077e-38
2.7796433 0.88417065 -1.2531964 1.9254142e-38
2.8063314 0.88631189 -1.2532995 1.9996351e-38
2.8339937 0.88306057 -1.2536283 2.0922937e-38
2.7521663 0.91278344 -1.2564403 1.815712e-38
2.7796433 0.90064585 -1.2531964 2.100875e-38
2.7783835 0.93359631 -1.2585417 1.4746965e-38
2.8012483 0.95278537 -1.2748663 6.7162456e-39
2.8327115 0.94453943 -1.2590683 5.9844399e-39
2.8288651 0.96689546 -1.275388 7.8279727e-39
2.882555 0.97866428 -1.2873406 7.5578626e-39
2.8539405 0.99238169 -1.2866931 6.071602e-39
2.9085824 0.99898344 -1.2989645 7.6428948e-39
2.7872021 0.6260587 -1.2211246 1.2078694e-38
2.7859423 0.65900922 -1.22647 3.8704382e-39
2.8105671 0.64626914 -1.235327 5.6199916e-39
2.7604921 0.68594861 -1.2211145 4.0552022e-39
2.7859423 0.67548442 -1.22647 3.413053e-39
2.813956 0.6758129 -1.2209491 4.606913e-39
2.7604921 0.70772469 -1.2211145 4.3281766e-39
2.7566154 0.73392051 -1.2193998 4.1459363e-39
2.7589934 0.75998753 -1.2274731 3.9619066e-39
2.7863622 0.76884407 -1.2246882 3.5974485e-39
2.813956 0.75890464 -1.2209491 4.2374116e-39
2.7579944 0.78938532 -1.2317122 3.9644149e-39
2.7846825 0.7963028 -1.2318152 5.8039989e-39
2.8114145 0.7976808 -1.2317325 6.4464998e-39
2.8384809 0.79643118 -1.2345885 6.1713535e-39
2.8668752 0.79503304 -1.2318115 6.6305169e-39
2.8384809 0.82717067 -1.2345885 6.7234553e-39
2.8668752 0.8119486 -1.2318115 5.9883761e-39
2.7579944 0.84926969 -1.2317122 1.8061329e-38
2.7846825 0.85671192 -1.2318152 1.3264578e-38
2.8658404 0.85931224 -1.236202 7.2758962e-39
2.8365579 0.87188256 -1.2427484 6.8141725e-39
2.8629949 0.8852495 -1.248276 9.7640851e-39
2.8903866 0.89900553 -1.2541116 6.90422e-39
2.8365579 0.93895048 -1.2427484 8.288609e-39
2.7609057 0.71167797 -1.1921149 3.3147631e-39
2.7897217 0.69745135 -1.2104341 5.8029563e-39
2.7679853 0.72950089 -1.1893214 7.0036617e-39
2.7922413 0.73589361 -1.1997435 5.0650451e-39
2.8190389 0.75336516 -1.1993822 7.6468143e-39
2.8425412 0.76755476 -1.2173619 6.1742149e-39
2.8703246 0.79315352 -1.2171764 5.8958358e-39
2.8416862 0.82158166 -1.2209886 6.6330126e-39
2.8694623 0.81758714 -1.2208352 6.5383227e-39
2.9243872 0.82100368 -1.2319064 5.5292e-39
2.9532139 0.82835048 -1.2316538 5.1550239e-39
2.8694623 0.85705686 -1.2208352 7.1861934e-39
2.8956077 0.84779632 -1.231959 6.9989309e-39
2.9532139 0.84572846 -1.2316538 6.0787767e-39
2.9830244 0.84180552 -1.2315878 3.7785663e-39
2.7287061 0.7065028 -1.1380216 7.8395194e-39
2.7483773 0.71255779 -1.1635375 9.0247559e-39
2.7625365 0.7264275 -1.1579504 8.2187388e-39
2.7998002 0.74687707 -1.1676718 4.6847103e-39
2.8023198 0.7578606 -1.1569812 7.8301335e-39
2.8224275 0.76075107 -1.1850044 5.3397865e-39
2.877223 0.78939456 -1.1879063 6.0838186e-39
2.9572005 0.82255787 -1.2147393 3.132478e-39
2.7311618 0.7065028 -1.1276025 8.4834945e-39
2.7700088 0.71558535 -1.1262467 1.7136145e-38
2.7765727 0.7339204 -1.1347222 6.7302908e-39
2.8060992 0.7578606 -1.1409453 9.0247096e-39
2.8823969 0.7893945 -1.1659535 7.0060859e-39
