# .PCD v0.7 - Point Cloud Data file format
VERSION 0.7
FIELDS x y z rgb
SIZE 4 4 4 4
TYPE F F F F
COUNT 1 1 1 1
WIDTH 136
HEIGHT 1
VIEWPOINT 0 0 0 1 0 0 0
POINTS 136
DATA ascii
2.5112541 -0.19271696 -1.3488853 8.1088966e-39
2.5204003 -0.17180917 -1.3441107 1.0046431e-38
2.5421951 -0.13587767 -1.3520219 8.5677294e-39
2.5425682 -0.10190826 -1.3503648 7.7368757e-39
2.5237286 -0.21223487 -1.329321 1.0780755e-38
2.5487208 -0.22419818 -1.3230238 9.8671072e-39
2.5660934 -0.2311101 -1.3460314 1.5748162e-38
2.5141423 -0.19119142 -1.3187805 9.0330095e-39
2.5252817 -0.1677666 -1.322419 9.8602577e-39
2.5481613 -0.15286238 -1.3255093 8.3890947e-39
2.5226192 -0.12127706 -1.3342508 9.1172976e-39
2.5503988 -0.14267156 -1.3155673 7.8456417e-39
2.5675969 -0.13524221 -1.3393508 9.1230626e-39
2.5226192 -0.11117064 -1.3342508 9.7712934e-39
2.5478423 -0.098996587 -1.3269298 1.0594556e-38
2.5694761 -0.11298716 -1.3309999 7.7346981e-39
2.5481613 -0.081526607 -1.3255093 1.1242078e-38
2.5683486 -0.066765137 -1.3360105 9.6762069e-39
2.5683486 -0.041086238 -1.3360105 9.3070713e-39
2.5912724 -0.014498348 -1.338906 8.9379244e-39
2.5706036 0.020543119 -1.3259895 9.3070755e-39
2.5944228 0.0074091745 -1.3398737 9.3077817e-39
2.6139963 0.031321101 -1.3426884 9.1237534e-39
2.5292757 -0.21223487 -1.3046714 7.0004163e-39
2.4919684 -0.20394678 -1.2745947 7.7448029e-39
2.5146716 -0.18744588 -1.2898579 9.768062e-39
2.5318112 -0.16459031 -1.2934029 1.0321604e-38
2.5548735 -0.15286238 -1.2956828 9.7705662e-39
2.5548735 -0.13451889 -1.2956828 9.7713144e-39
2.5728586 -0.13353027 -1.3159685 9.0355459e-39
2.5337131 -0.11117064 -1.2849516 8.9303574e-39
2.5543141 -0.10190826 -1.2981683 9.3081433e-39
2.5739863 -0.092444032 -1.310958 9.2127218e-39
2.5526361 -0.081526607 -1.305625 7.5593172e-39
2.5753956 -0.070616975 -1.304695 8.2961619e-39
2.5751138 -0.041086242 -1.3059475 8.6638725e-39
2.5751138 -0.020543119 -1.3059475 8.850056e-39
2.5991161 -0.012944954 -1.3040497 8.6595691e-39
2.5751138 0.020543119 -1.3059475 9.9520791e-39
2.5985479 0.0051779817 -1.3065755 9.3095936e-39
2.5773687 0.03595046 -1.2959266 1.050201e-38
2.5962741 0.031067891 -1.3166789 9.5836512e-39
2.4941523 -0.19897246 -1.2648888 8.9418873e-39
2.5165949 -0.18554312 -1.2653688 8.1085155e-39
2.528471 -0.16442935 -1.2604206 6.1742303e-39
2.5593481 -0.15286238 -1.2757984 3.5952512e-39
2.5287511 -0.12963854 -1.2591755 6.3550217e-39
2.4963367 -0.10943487 -1.2551829 8.8338752e-39
2.5347204 -0.10493724 -1.2613454 9.6744245e-39
2.562145 -0.094265133 -1.2633706 8.0195568e-39
2.5632637 -0.073883489 -1.2583996 1.8388819e-39
2.5805259 -0.069846608 -1.2818973 8.3851052e-39
2.563823 -0.040763304 -1.255914 1.1946139e-39
2.5815971 -0.041086238 -1.2771373 7.830858e-39
2.6053686 -0.015533946 -1.2762657 6.2631736e-39
2.5615854 0.020381652 -1.2658563 1.0228302e-38
2.5818789 0.020543119 -1.2758846 9.6754656e-39
2.6053686 0.0051779817 -1.2762656 6.3596796e-39
2.5615852 0.030572476 -1.2658561 9.8598681e-39
2.5796239 0.041086238 -1.2859056 1.13271e-38
2.500705 -0.15917797 -1.2357711 5.2601619e-39
2.5232005 -0.15044038 -1.2360148 2.7590362e-39
2.5028892 -0.13430642 -1.2260652 2.2098211e-39
2.5232005 -0.1203523 -1.2360148 5.0686115e-39
2.5425882 -0.11117064 -1.2455121 9.208773e-39
2.5660601 -0.10190826 -1.2459718 8.7546023e-39
2.5660603 -0.081526607 -1.2459719 2.4809961e-39
2.5863891 -0.061629359 -1.2558427 2.9444938e-39
2.5878923 -0.037662383 -1.2491621 2.761899e-39
2.590899 -0.015407339 -1.2358007 2.2119622e-39
2.6099157 -0.015533945 -1.2560591 3.4947879e-39
2.5892079 0.015407339 -1.2433165 2.6715013e-39
2.6116209 0.0077669723 -1.2484815 2.7629696e-39
2.588644 0.030814679 -1.2458217 3.5884395e-39
2.6110525 0.041423853 -1.2510073 8.2835334e-39
2.5331089 -0.18052843 -1.1919838 2.7676766e-39
2.5331089 -0.1654844 -1.1919838 3.9687435e-39
2.5772469 -0.061144952 -1.1962608 3.2182094e-39
2.5772469 -0.035667889 -1.1962608 3.4944376e-39
2.5946574 -0.034238532 -1.2190992 1.9346649e-39
2.5761282 -0.020381652 -1.201232 7.1087437e-39
2.5948453 -0.01283945 -1.2182641 5.621774e-39
2.595691 0.010271559 -1.2145063 5.7136277e-39
2.5948453 0.033382569 -1.2182641 4.2413619e-39
2.5162673 -0.19772889 -1.1666166 3.0395859e-39
2.5364118 -0.18052843 -1.1773068 6.619357e-39
2.5165401 -0.17161375 -1.1654032 4.7916644e-39
2.5386136 -0.16046973 -1.1675222 4.1495082e-39
2.5408156 -0.095278896 -1.1577375 8.2064845e-39
2.5839589 -0.091717429 -1.1664343 6.1760492e-39
2.5603387 -0.080851376 -1.1666334 2.1140185e-39
2.5809755 -0.067938834 -1.1796905 2.3020139e-39
2.5999193 -0.061629359 -1.195717 2.3009489e-39
2.5813489 -0.039064828 -1.1780336 1.9364529e-39
2.6021743 -0.041086238 -1.185696 2.3027257e-39
2.5603387 -0.010106422 -1.1666334 2.5785854e-39
2.5832129 -0.01698471 -1.1697483 2.2112602e-39
2.5999193 -0.015407339 -1.195717 7.3508194e-40
2.5603387 0.010106422 -1.1666334 9.2123883e-40
2.5817215 0.010190826 -1.1763765 6.6337525e-39
2.5999193 0.0051357797 -1.195717 5.8918981e-39
2.5603387 0.035372477 -1.1666334 2.8476249e-39
2.5817215 0.050954126 -1.1763765 1.11531e-38
2.4813159 -0.1860954 -1.1306261 2.762269e-39
2.5008392 -0.17768808 -1.139522 2.8534038e-39
2.5203624 -0.1691266 -1.1484179 2.6718782e-39
2.521673 -0.13928074 -1.1425943 2.4839052e-39
2.5521109 -0.12735963 -1.1394274 4.8827684e-39
2.5203624 -0.11440918 -1.1484179 8.8532776e-39
2.5565133 -0.10678899 -1.1453724 1.1523382e-38
2.5873148 -0.096812844 -1.151521 8.4794938e-39
2.6100669 -0.097579814 -1.1506226 8.937958e-39
2.6552541 -0.093963303 -1.1593468 6.8217802e-39
2.5582271 -0.068102755 -1.1521033 1.7499275e-39
2.5869417 -0.071335778 -1.153178 2.6693685e-39
2.6100669 -0.066765137 -1.1506226 3.594196e-39
2.6315145 -0.077669725 -1.1600776 3.0413698e-39
2.6780388 -0.08071804 -1.167415 3.1349919e-39
2.5625575 -0.050532106 -1.1567736 2.21017e-39
2.5873148 -0.050954126 -1.151521 1.8439154e-39
2.6083758 -0.041086238 -1.1581383 2.0261459e-39
2.6326513 -0.041423853 -1.1550258 1.9339642e-39
2.5647762 -0.010106422 -1.1469136 2.4863953e-39
2.6066844 -0.020543119 -1.1656541 3.1281844e-39
2.5636668 0.015159633 -1.1518435 2.7600955e-39
2.5861962 0 -1.156492 2.4838842e-39
2.5625575 0.035372477 -1.1567736 3.5844724e-39
2.5692139 -0.12127706 -1.1271939 6.4514927e-39
2.5312831 -0.11938348 -1.0998884 7.0007092e-39
2.5605195 -0.11074679 -1.1180041 1.1616652e-38
2.6349249 -0.10355963 -1.1449226 1.1517967e-38
2.4589553 -0.11577248 -1.0477952 1.2354904e-38
2.4963682 -0.10773945 -1.0637374 1.1522346e-38
2.5334673 -0.10943487 -1.0901825 1.1159287e-38
2.4610734 -0.11577248 -1.0383829 1.2440648e-38
2.486619 -0.10956421 -1.0387375 1.1709209e-38
