# .PCD v0.7 - Point Cloud Data file format
VERSION 0.7
FIELDS x y z rgb
SIZE 4 4 4 4
TYPE F F F F
COUNT 1 1 1 1
WIDTH 129
HEIGHT 1
VIEWPOINT 0 0 0 1 0 0 0
POINTS 129
DATA ascii
2.1094165 -0.12119632 -1.3332016 1.3676554e-38
2.1389251 -0.12289174 -1.3518517 1.2917821e-38
2.1581826 -0.12376513 -1.3442501 1.2984773e-38
2.1080925 -0.10388257 -1.3388189 1.1690517e-38
2.1211176 -0.10245137 -1.3576611 1.1794918e-38
2.1094165 -0.086568803 -1.3332016 1.1062388e-38
2.1315727 -0.071715228 -1.3481734 1.124463e-38
2.1391768 -0.044987157 -1.3507837 1.0600708e-38
2.1389251 -0.026333945 -1.3518517 8.8320479e-39
2.1544166 -0.015154915 -1.3602302 8.4755225e-39
2.1409388 0.026333945 -1.3433079 1.2269895e-38
2.1569836 0.0096553797 -1.3560749 1.077895e-38
2.1577468 0.045500394 -1.3566859 1.0131073e-38
2.1665096 0.074595965 -1.3533838 9.2148784e-39
2.1734126 0.097930282 -1.3537364 9.5804394e-39
2.1421928 -0.12261773 -1.3147383 1.0961919e-38
2.0827608 -0.10247339 -1.3068049 1.1617733e-38
2.1015821 -0.10332151 -1.3121951 1.0594233e-38
2.1286182 -0.11335045 -1.3258358 1.3174609e-38
2.1133883 -0.086568803 -1.3163496 1.0510658e-38
2.1369936 -0.069949843 -1.3212981 1.0601061e-38
2.1417854 -0.043011844 -1.3206939 1.1243572e-38
2.1429167 -0.021292793 -1.3249527 8.1146714e-39
2.1602106 -0.0088403672 -1.3356456 1.0039582e-38
2.1465771 0.024578348 -1.3193851 1.0326254e-38
2.1619852 0.0077353213 -1.3281165 1.0871482e-38
2.145973 0.041695412 -1.3219482 1.0227235e-38
2.1612244 0.053042199 -1.3313432 1.0130725e-38
2.1747019 0.075564221 -1.3297396 9.9517358e-39
2.1800501 0.10015597 -1.3255742 9.8631317e-39
2.1944013 0.11296074 -1.3387897 1.0410919e-38
2.195498 0.1314887 -1.3341359 1.0505624e-38
2.2100854 0.14444037 -1.3463484 1.0966234e-38
2.1233177 -0.12119632 -1.2742195 8.9339742e-39
2.1366191 -0.12206972 -1.2918888 9.9524505e-39
2.1202285 -0.10195883 -1.2873267 1.0412707e-38
2.134619 -0.10899082 -1.3003755 1.0602137e-38
2.1201403 -0.083106056 -1.2877011 1.1244986e-38
2.1404877 -0.07082732 -1.290974 1.0969489e-38
2.1475537 -0.043772478 -1.2919927 1.1795285e-38
2.1525173 0.013166972 -1.2941804 9.8598667e-39
2.1696744 0.014733945 -1.2954907 9.2080247e-39
2.1507525 0.041913148 -1.2939196 9.9510212e-39
2.1718714 0.046411928 -1.2861691 1.0413415e-38
2.1689022 0.075143114 -1.2987688 1.0045721e-38
2.1822617 0.10668053 -1.2997241 9.7691438e-39
2.1856666 0.13099766 -1.3017446 1.1149545e-38
2.1989257 0.14344221 -1.3195924 1.1516546e-38
2.1166844 -0.1249474 -1.2558665 7.825456e-39
2.1167965 -0.1042433 -1.2530658 4.6079864e-39
2.1286135 -0.080797553 -1.2517501 8.3004695e-39
2.1428418 -0.069754124 -1.2654855 5.9894888e-39
2.1292753 -0.051941283 -1.2489414 3.5851829e-39
2.1429529 -0.043596327 -1.2650141 3.0406495e-39
2.1610754 -0.0087779816 -1.257869 1.0223996e-38
2.1272895 0 -1.2573674 1.124674e-38
2.1555746 0.013149358 -1.267259 7.5564347e-39
2.1769414 0.015470643 -1.2646575 1.936111e-39
2.1605721 0.041695412 -1.260005 2.3920459e-39
2.1744063 0.048622016 -1.2754133 3.4119488e-39
2.1593494 0.072731845 -1.2651923 5.9891132e-39
2.1759274 0.081773393 -1.2689599 5.3422892e-39
2.1798444 0.10624383 -1.2688088 6.080576e-39
2.1911387 0.13427123 -1.2717904 6.9067339e-39
2.1250198 -0.12078531 -1.232124 5.246865e-39
2.1219921 -0.10333456 -1.2255961 3.2239646e-39
2.1329162 -0.077911921 -1.2334937 2.3020237e-39
2.1240335 -0.047466055 -1.2363085 1.7513554e-39
2.1242585 -0.014349845 -1.2237285 7.0929384e-39
2.137219 0.025970642 -1.2152373 2.6722061e-39
2.1614821 0.021900916 -1.2387062 1.8417378e-39
2.1570525 0.043733332 -1.2361892 2.6679139e-39
2.1650724 0.073568389 -1.2355466 2.9444952e-39
2.1804903 0.088403665 -1.2495995 2.6686174e-39
2.1686268 0.10314128 -1.2258294 2.6700607e-39
2.1813016 0.10785247 -1.2461576 2.4863813e-39
2.1691301 0.12289174 -1.2236934 2.6689985e-39
2.1828566 0.13260551 -1.2395607 4.0465268e-39
2.1111658 -0.098203674 -1.186285 2.8558953e-39
2.1239066 -0.10661723 -1.2019736 4.0522917e-39
2.126668 -0.073084399 -1.1902572 4.793814e-39
2.12695 -0.040534206 -1.1890616 2.3038145e-39
2.1092067 -0.017078899 -1.1945966 6.4479726e-39
2.1286404 -0.025794495 -1.1818883 4.1358525e-39
2.1556211 0.052315596 -1.2112647 2.3023572e-39
2.1690233 0.07451009 -1.2067095 4.4228707e-39
2.1715407 0.10525096 -1.2057152 8.2032601e-39
2.1692684 0.13035965 -1.2056702 7.0025393e-39
2.1170425 -0.10247339 -1.1613498 3.5923772e-39
2.1155734 -0.083259627 -1.1675836 5.2493691e-39
2.1342392 -0.070546046 -1.1651094 3.3197475e-39
2.1422899 -0.043186542 -1.1704742 2.3938522e-39
2.1345577 -0.017196329 -1.1567818 8.5655448e-39
2.142839 0.0043284404 -1.1565185 8.9433222e-39
2.1749239 0.017497247 -1.1642369 1.7502708e-39
2.1832259 0.043889906 -1.1638861 3.3096932e-39
2.1501272 0.064926602 -1.1604682 2.3009391e-39
2.174484 0.081005499 -1.174822 2.3005761e-39
2.1694791 0.104853 -1.175714 2.0239809e-39
2.173775 0.13220111 -1.1760882 2.4838786e-39
2.1385026 -0.12037431 -1.140044 5.6185202e-39
2.1810384 -0.12846972 -1.1499183 5.5252456e-39
2.1227236 -0.10930494 -1.1372459 4.7934441e-39
2.1365302 -0.094579816 -1.1484129 1.57129e-39
2.1219399 -0.072585315 -1.1405705 2.7640766e-39
2.1229193 -0.059776142 -1.1364148 3.1303326e-39
2.1423843 -0.043078896 -1.1468235 2.6718656e-39
2.1706226 -0.034877062 -1.1476142 4.1477356e-39
2.1365302 -0.017196329 -1.1484129 8.0148905e-39
2.1696224 -0.026157798 -1.1518576 4.5946475e-39
2.1427131 0.0028856269 -1.1454287 9.7680396e-39
2.177748 0.014989252 -1.1472727 6.0816522e-39
2.2089732 0.016614679 -1.1472758 4.424663e-39
2.2556455 0.02708257 -1.1530393 3.3193832e-39
2.1774623 0.04495937 -1.1484851 2.8541073e-39
2.2131164 0.042147707 -1.1482227 3.5920128e-39
2.2380013 0.049308255 -1.1537973 3.1313976e-39
2.2556455 0.045137614 -1.1530393 3.4097894e-39
2.1424475 0.085981645 -1.1233063 2.5768674e-39
2.1764734 0.072563671 -1.1506882 2.3916998e-39
2.2126057 0.066552296 -1.150389 2.3009237e-39
2.1529241 0.10370642 -1.131166 3.0374167e-39
2.1694224 0.10463119 -1.1527063 2.300209e-39
2.1727459 0.12923303 -1.1525545 2.853401e-39
2.1042523 -0.012644037 -1.0848433 9.7716564e-39
2.0988541 -0.014677981 -1.0728747 9.3052804e-39
2.1238325 -0.0084844036 -1.0671532 1.133576e-38
2.1071527 0 -1.0725365 1.2161508e-38
2.1317015 0 -1.0664592 1.1509348e-38
