# .PCD v0.7 - Point Cloud Data file format
VERSION 0.7
FIELDS x y z rgb
SIZE 4 4 4 4
TYPE F F F F
COUNT 1 1 1 1
WIDTH 116
HEIGHT 1
VIEWPOINT 0 0 0 1 0 0 0
POINTS 116
DATA ascii
2.5187364 -0.22486788 -1.3515056 1.3832912e-38
2.5156691 -0.19171375 -1.3460048 9.0337186e-39
2.5192909 -0.17180917 -1.3490406 7.6500723e-39
2.5418971 -0.15897688 -1.3533475 8.5691657e-39
2.5192909 -0.12127706 -1.3490406 7.5478153e-39
2.5425682 -0.13757613 -1.3503648 8.2947298e-39
2.5192909 -0.11117064 -1.3490406 7.1797377e-39
2.5420089 -0.099360555 -1.3528504 8.0073613e-39
2.5632746 -0.074468806 -1.3585576 9.395667e-39
2.5178936 -0.22043258 -1.3193809 1.188137e-38
2.5184207 -0.19150825 -1.3210247 9.2152442e-39
2.5253928 -0.16928256 -1.321926 9.4007285e-39
2.5476022 -0.1554101 -1.3279951 8.6628103e-39
2.5226192 -0.12127706 -1.3342508 9.5822106e-39
2.5503988 -0.14267156 -1.3155673 9.4057759e-39
2.5677042 -0.13353027 -1.3388736 8.2936606e-39
2.591727 -0.12427156 -1.3368855 8.2000315e-39
2.5226192 -0.11117064 -1.3342508 8.2994018e-39
2.5478423 -0.098996587 -1.3269298 1.0593837e-38
2.5694761 -0.11298716 -1.3309999 8.3811857e-39
2.5481613 -0.081526607 -1.3255093 1.1428269e-38
2.5683486 -0.066765137 -1.3360105 9.6744119e-39
2.5683486 -0.041086238 -1.3360105 9.2145197e-39
2.5660934 -0.010271559 -1.3460314 7.3666611e-39
2.5917273 -0.015533946 -1.3368856 8.9379314e-39
2.604228 0.0092240572 -1.3395344 9.1234003e-39
2.6174343 0.031321101 -1.3274101 9.8580941e-39
2.5186312 -0.2161835 -1.2882042 8.3876541e-39
2.5571108 -0.21400735 -1.2857406 7.9284206e-39
2.4919684 -0.19399816 -1.2745947 8.6638921e-39
2.5177016 -0.18953237 -1.2877806 1.0043936e-38
2.5290513 -0.16440316 -1.2920032 1.0137224e-38
2.5548735 -0.15286238 -1.2956828 1.0506335e-38
2.5337131 -0.13138348 -1.2849516 9.4972527e-39
2.5548732 -0.14267156 -1.2956828 1.0510675e-38
2.5728586 -0.1283945 -1.3159685 8.386229e-39
2.5563648 -0.10530519 -1.2890548 9.9538784e-39
2.5742116 -0.098606966 -1.3099558 9.5782477e-39
2.5751138 -0.071900919 -1.3059475 8.4791071e-39
2.574362 -0.044510093 -1.3092879 9.0308543e-39
2.5985477 -0.036245871 -1.3065755 8.8428842e-39
2.5985479 -0.015533946 -1.3065755 8.7553548e-39
2.5773687 0.020543119 -1.2959266 9.858457e-39
2.5985479 0.0086299693 -1.3065755 9.7676963e-39
2.5773687 0.030814679 -1.2959266 9.675865e-39
2.6008213 0.031067891 -1.2964722 9.492194e-39
2.5359321 -0.22234128 -1.2750918 7.3666779e-39
2.5165949 -0.19055779 -1.2653688 9.2137924e-39
2.4985209 -0.1691266 -1.245477 1.7539394e-39
2.5284739 -0.15938897 -1.260408 6.4515417e-39
2.5269823 -0.13482496 -1.2574713 5.8972805e-39
2.4985209 -0.11440918 -1.245477 9.4849703e-39
2.5403695 -0.10106421 -1.255372 1.0236927e-38
2.5610261 -0.094265133 -1.2683418 7.5560872e-39
2.5627043 -0.081526607 -1.2608851 3.1306899e-39
2.5815568 -0.068966188 -1.2773162 6.7266628e-39
2.563823 -0.035667889 -1.255914 2.7558076e-39
2.5815029 -0.042798165 -1.2775548 8.2039369e-39
2.5830064 -0.01540734 -1.2708741 8.2032292e-39
2.5818789 0.020543119 -1.2758846 1.0136818e-38
2.6053686 0.0051779817 -1.2762657 7.0014645e-39
2.5615854 0.030572476 -1.2658563 9.5850973e-39
2.500705 -0.11440918 -1.2357711 8.0955745e-39
2.5345502 -0.10318623 -1.2334062 1.0420945e-38
2.567179 -0.091717429 -1.2410008 5.5223883e-39
2.5660603 -0.071335778 -1.2459719 2.3934822e-39
2.5863891 -0.071900919 -1.2558427 2.7618976e-39
2.5674026 -0.038725134 -1.2400064 2.667558e-39
2.588644 -0.030814679 -1.2458217 3.5866192e-39
2.588644 -0.016434494 -1.2458217 2.576077e-39
2.6099157 -0.010355963 -1.2560591 3.3136281e-39
2.588644 0.020543119 -1.2458217 2.8573316e-39
2.61637 0.0051990827 -1.2535666 3.496583e-39
2.588644 0.030814679 -1.2458217 3.9525599e-39
2.6133261 0.036245871 -1.2409041 5.9887012e-39
2.5750093 -0.030572476 -1.206203 3.2192786e-39
2.5761282 -0.015286239 -1.201232 7.3774679e-39
2.5931542 -0.015407339 -1.2257799 2.6711369e-39
2.5755689 0.012738532 -1.2037175 6.2635799e-39
2.5942817 0.0051357797 -1.2207694 1.9339698e-39
2.5750093 0.030572476 -1.206203 3.317654e-39
2.4975884 -0.13820183 -1.1539682 2.2112532e-39
2.5174501 -0.13596453 -1.1613591 2.2998475e-39
2.5839589 -0.14267156 -1.1664343 2.8530325e-39
2.5408156 -0.10029358 -1.1577375 1.0055799e-38
2.5839589 -0.061144952 -1.1664343 2.758676e-39
2.5794842 -0.030572476 -1.1863186 8.2832434e-40
2.5794842 -0.015286239 -1.1863186 2.5718059e-39
2.55812 0.020212844 -1.1764932 7.3749189e-39
2.581274 0.0061144955 -1.1783649 4.516846e-39
2.6044295 0 -1.175675 1.933974e-39
2.55812 0.030319266 -1.1764932 6.0182308e-39
2.5636668 -0.15159634 -1.1518435 3.0374027e-39
2.5203621 -0.13928074 -1.1484178 2.0254158e-39
2.5642216 -0.12380367 -1.1493787 6.0823822e-39
2.5869417 -0.13587767 -1.153178 3.9579535e-39
2.5620565 -0.10222156 -1.1470436 9.7720249e-39
2.5895522 -0.096812844 -1.1415788 8.3905324e-39
2.6326513 -0.093203671 -1.1550258 5.9998948e-39
2.5647762 -0.060638532 -1.1469136 2.4849716e-39
2.5884335 -0.061144952 -1.1465498 2.6690027e-39
2.6100669 -0.066765137 -1.1506226 3.7767656e-39
2.6477201 -0.076365747 -1.1579065 3.0417215e-39
2.6788092 -0.084227525 -1.1639911 2.4899771e-39
2.5647762 -0.050532106 -1.1469136 2.2998545e-39
2.5873148 -0.045858715 -1.151521 2.0254214e-39
2.6100669 -0.046222016 -1.1506226 1.7520715e-39
2.648484 -0.04512905 -1.1545113 2.0268731e-39
2.56107 -0.12334128 -1.1155579 6.2649938e-39
2.5567226 -0.10802752 -1.110963 1.115461e-38
2.6349249 -0.093203671 -1.1449226 6.2764873e-39
2.6349249 -0.062135782 -1.1449226 3.134636e-39
2.4963682 -0.12732844 -1.0637374 1.1704491e-38
2.5170934 -0.11352293 -1.0672916 1.1706351e-38
2.4797959 -0.1263743 -1.0462824 1.3541212e-38
2.5203443 -0.11352294 -1.0528456 1.152267e-38
