# .PCD v0.7 - Point Cloud Data file format
VERSION 0.7
FIELDS x y z rgb
SIZE 4 4 4 4
TYPE F F F F
COUNT 1 1 1 1
WIDTH 150
HEIGHT 1
VIEWPOINT 0 0 0 1 0 0 0
POINTS 150
DATA ascii
2.7732918 0.80322021 -1.3934844 8.3801123e-39
2.8254838 0.7893945 -1.4074327 1.5505722e-38
2.7732918 0.81983852 -1.3934844 1.1815424e-38
2.7968123 0.83275962 -1.4113867 1.1054097e-38
2.7732918 0.84199631 -1.3934844 1.1693033e-38
2.9133487 0.56768078 -1.4007994 6.9803385e-39
2.8590603 0.6258899 -1.3870277 9.9448947e-39
2.910691 0.62560731 -1.4120758 1.0411984e-38
2.8571024 0.64011467 -1.3953351 1.0694016e-38
2.8822415 0.64302385 -1.4107281 1.0972373e-38
2.8557971 0.67709911 -1.4008732 5.5223953e-39
2.8835585 0.67173028 -1.4051398 3.3151148e-39
2.8297954 0.70293695 -1.3891388 6.3503567e-39
2.8547094 0.70175534 -1.4054884 8.1034862e-39
2.7783749 0.74228626 -1.3719174 7.468869e-39
2.8045049 0.73495227 -1.378747 9.5941259e-39
2.8306577 0.72173208 -1.38548 6.6125397e-39
2.8538392 0.72830826 -1.4091804 1.0285969e-38
2.8040779 0.76382875 -1.3805603 7.2762759e-39
2.7531872 0.7963028 -1.3654475 6.3456806e-39
2.7766805 0.7976808 -1.3791064 7.1844404e-39
2.8032229 0.78245872 -1.384187 1.0471173e-38
2.7771041 0.81983852 -1.3773092 1.1997647e-38
2.8032229 0.83275962 -1.384187 1.1520496e-38
2.8006585 0.84952658 -1.3950669 9.8592025e-39
2.8293643 0.85141838 -1.3909682 9.5746688e-39
2.8590603 0.85917616 -1.3870277 1.0312558e-38
2.8822415 0.88415778 -1.4107281 1.197604e-38
2.9387698 0.90026426 -1.4193569 1.4919078e-38
2.8636286 0.56045598 -1.3676441 6.5412038e-39
2.8384187 0.59768438 -1.3525511 7.8261566e-39
2.8634112 0.5841639 -1.3685671 4.0472568e-39
2.8875096 0.59709358 -1.3883753 3.7663554e-39
2.836694 0.61272049 -1.3598686 1.1788443e-38
2.8616707 0.60313028 -1.3759514 1.0963295e-38
2.8371251 0.64561194 -1.3580393 1.0688617e-38
2.8616707 0.64864951 -1.3759514 8.0999647e-39
2.8109155 0.67626786 -1.3515472 1.0214786e-38
2.8341069 0.67662388 -1.370845 6.9950675e-39
2.7594862 0.71392661 -1.338721 1.2097761e-38
2.8096333 0.7042129 -1.3569871 1.14287e-38
2.7594862 0.72491008 -1.338721 8.4493043e-39
2.7834578 0.73120737 -1.3503505 6.7188057e-39
2.7569666 0.77982754 -1.3494116 6.6355294e-39
2.7828226 0.76444405 -1.3530463 6.5426723e-39
2.7569666 0.7963028 -1.3494116 6.7201972e-39
2.7847285 0.79768074 -1.3449588 4.6076795e-39
2.810061 0.81971866 -1.3551739 5.6999413e-39
2.8332448 0.8345027 -1.3745037 1.0789035e-38
2.8358316 0.84577984 -1.3635274 1.1887387e-38
2.8616707 0.86486602 -1.3759514 1.4278769e-38
2.8901436 0.87267518 -1.3771991 1.4001448e-38
2.918664 0.8804844 -1.3782467 1.2430501e-38
2.8173261 0.53654313 -1.3243475 1.2992336e-38
2.8173261 0.54772109 -1.3243475 6.9950815e-39
2.842299 0.5638532 -1.3360866 1.6641961e-39
2.8435926 0.5864073 -1.3305985 5.1640539e-39
2.8163643 0.61618626 -1.3284276 4.7888002e-39
2.7919295 0.63888317 -1.3144057 5.2443917e-39
2.816685 0.65391195 -1.3270675 9.4954366e-39
2.7923532 0.6758129 -1.3126085 2.3938816e-39
2.8134797 0.67626786 -1.3406674 2.0374089e-38
2.7670453 0.70294315 -1.3066493 1.5662845e-39
2.7910824 0.70904958 -1.3180002 6.2700525e-39
2.8134797 0.6986239 -1.3406674 1.5665292e-38
2.7645257 0.73589367 -1.3173399 4.6994772e-39
2.7910824 0.72012848 -1.3180002 3.9565438e-39
2.7421753 0.75490648 -1.2988311 4.3270891e-39
2.7635176 0.77104074 -1.3216162 4.7913099e-39
2.7662053 0.79447222 -1.3102129 7.0039896e-39
2.7885408 0.7976808 -1.3287836 1.0504889e-38
2.7670453 0.812778 -1.3066493 6.5311242e-39
2.7885408 0.81983852 -1.3287836 7.1772237e-39
2.8134797 0.83834863 -1.3406674 1.0679202e-38
2.8237364 0.5533101 -1.2971478 5.8051199e-39
2.8250186 0.58125502 -1.2917079 4.6980353e-39
2.823416 0.61339176 -1.2985078 4.327808e-39
2.7970126 0.64626914 -1.2928388 4.42144e-39
2.8237367 0.64552844 -1.2971478 4.4214484e-39
2.7746041 0.67548442 -1.2745776 4.7888058e-39
2.7968009 0.67304313 -1.2937373 4.6966045e-39
2.7728043 0.70137405 -1.2822137 4.4214596e-39
2.7455056 0.74038899 -1.2847009 4.3306905e-39
2.7710767 0.73369694 -1.2895443 4.5136524e-39
2.7470043 0.75998747 -1.2783422 4.1477285e-39
2.7695649 0.77982754 -1.2959588 4.515774e-39
2.7467546 0.79482937 -1.279402 5.6138721e-39
2.7746041 0.7963028 -1.2745776 7.736147e-39
2.8237367 0.82717061 -1.2971478 5.7024846e-39
2.8339937 0.53654313 -1.2536283 1.1429363e-38
2.830575 0.55144709 -1.2681347 6.9060444e-39
2.8573897 0.56009418 -1.272058 6.8224584e-39
2.8314292 0.58125502 -1.264508 4.3260326e-39
2.8037899 0.62041837 -1.2640829 4.6040572e-39
2.8314292 0.6092 -1.264508 4.4203596e-39
2.8041077 0.64257616 -1.2627349 3.8693578e-39
2.7791393 0.67438608 -1.2553345 4.1459405e-39
2.8044252 0.67027336 -1.261387 4.5136356e-39
2.7529988 0.71861285 -1.2529076 4.4203764e-39
2.7796433 0.70294309 -1.2531964 4.1455846e-39
2.7524993 0.73385608 -1.2550272 4.5140041e-39
2.7796433 0.74687707 -1.2531964 4.7880701e-39
2.7515001 0.75998753 -1.2592663 4.422526e-39
2.7788033 0.76884407 -1.2567599 2.0247558e-39
2.8063314 0.76444405 -1.2532995 8.8425436e-39
2.8339937 0.76569176 -1.2536283 1.8901113e-38
2.8031545 0.79491103 -1.2667787 1.0594968e-38
2.8324552 0.79810786 -1.2601562 1.9630468e-38
2.8314297 0.81599265 -1.2645081 1.9261329e-38
2.8365579 0.53654313 -1.2427484 1.2075816e-38
2.8378401 0.5533101 -1.2373084 3.4984243e-39
2.8378398 0.58125502 -1.2373084 4.0530274e-39
2.8088729 0.62041837 -1.2425159 4.4203876e-39
2.8378398 0.61478901 -1.2373084 4.4207365e-39
2.8095083 0.64534593 -1.2398201 4.2377788e-39
2.8380964 0.64608735 -1.2362205 3.5935024e-39
2.8101437 0.6758129 -1.2371243 4.1455916e-39
2.8391221 0.67626786 -1.2318685 4.2367124e-39
2.7579944 0.71861285 -1.2317122 4.4221799e-39
2.7846825 0.71392661 -1.2318152 4.6969563e-39
2.8101437 0.70351017 -1.2371243 4.4218099e-39
2.7579944 0.72950089 -1.2317122 2.8530731e-39
2.7846825 0.72491008 -1.2318152 3.0378259e-39
2.8088729 0.74228626 -1.2425159 6.3525624e-39
2.8375835 0.73551118 -1.2383964 6.1724283e-39
2.8668752 0.7386477 -1.2318115 6.078076e-39
2.8365579 0.77128077 -1.2427484 1.8700584e-38
2.8650274 0.7668404 -1.2396517 1.2712179e-38
2.8365579 0.78804773 -1.2427484 1.916267e-38
2.8642883 0.7893945 -1.2427878 2.0364774e-38
2.8929973 0.80227709 -1.2430353 1.0314402e-38
2.8181918 0.55394489 -1.2029767 5.0650115e-39
2.8429685 0.5533101 -1.2155486 5.0582012e-39
2.8442504 0.58265227 -1.2101086 4.5129364e-39
2.8435178 0.61319214 -1.2132171 4.2374495e-39
2.8720491 0.62023848 -1.2098588 2.944938e-39
2.8416865 0.64832294 -1.2209886 4.7870037e-39
2.8694623 0.6653468 -1.2208352 4.8781231e-39
2.8694623 0.77247894 -1.2208352 4.2345558e-39
2.8969131 0.76813763 -1.2264208 6.077367e-39
2.9532139 0.77621651 -1.2316538 5.8944205e-39
2.8969131 0.79089725 -1.2264208 5.5227359e-39
2.9257042 0.80377978 -1.2263182 6.1716702e-39
2.9532139 0.79359454 -1.2316538 5.4366611e-39
2.9830244 0.79503858 -1.2315878 6.3550161e-39
2.9230702 0.81526238 -1.2374946 6.1727702e-39
2.8493791 0.58125502 -1.188349 6.3640278e-39
2.8759296 0.59204584 -1.1933944 9.405022e-39
2.8493791 0.60361099 -1.188349 9.6762406e-39
2.9558716 0.77621651 -1.2203776 6.1695766e-39
