# .PCD v0.7 - Point Cloud Data file format
VERSION 0.7
FIELDS x y z rgb
SIZE 4 4 4 4
TYPE F F F F
COUNT 1 1 1 1
WIDTH 103
HEIGHT 1
VIEWPOINT 0 0 0 1 0 0 0
POINTS 103
DATA ascii
3.2012947 -0.34400001 -1.4127133 9.9592706e-39
3.2005711 -0.31559634 -1.4157851 8.0170779e-39
3.2020187 -0.2840367 -1.4096414 1.0692536e-38
3.168937 -0.25623119 -1.4017918 1.1228787e-38
3.202019 -0.22722936 -1.4096415 1.0768176e-38
3.2034667 -0.19566974 -1.4034978 1.4103424e-38
3.2419107 -0.36981651 -1.392953 1.2621404e-38
3.1746716 -0.34372476 -1.3774602 1.0133937e-38
3.207521 -0.31307158 -1.3862958 1.0502754e-38
3.2078104 -0.2840367 -1.3850671 1.0323416e-38
3.17276 -0.25831437 -1.3855708 1.0049691e-38
3.208293 -0.25668502 -1.3830191 8.4744758e-39
3.2081001 -0.22975412 -1.3838383 1.0777503e-38
3.2389853 -0.21678898 -1.4053653 1.4279108e-38
3.208293 -0.19777371 -1.3830191 1.4292841e-38
3.2389853 -0.1912844 -1.4053653 1.3171735e-38
3.2404482 -0.16577981 -1.3991593 1.1796007e-38
3.240448 -0.13389908 -1.3991592 1.1524105e-38
3.2409353 -0.11051986 -1.3970904 1.1980787e-38
3.2760406 -0.090165138 -1.4007143 1.1795647e-38
3.1495919 -0.34658346 -1.3400185 8.1092512e-39
3.1784947 -0.34164158 -1.3612392 9.4893129e-39
3.1804061 -0.32080978 -1.3531288 9.7738298e-39
3.2131195 -0.30718043 -1.3625405 1.0317311e-38
3.1832736 -0.27497983 -1.340963 1.1243928e-38
3.2131195 -0.28614068 -1.3625405 9.8667513e-39
3.1818399 -0.25623119 -1.3470459 9.577264e-39
3.2121544 -0.25247705 -1.3666363 8.2011231e-39
3.2136025 -0.22722936 -1.3604927 9.9491995e-39
3.2136023 -0.19566974 -1.3604926 1.0420637e-38
3.2136023 -0.17042202 -1.3604926 1.1333951e-38
3.2462988 -0.15302752 -1.3743348 1.1606947e-38
3.2150502 -0.12623852 -1.354349 1.0422443e-38
3.24703 -0.13389908 -1.3712317 1.1155341e-38
3.2150502 -0.11361468 -1.354349 1.1517628e-38
3.24703 -0.10839449 -1.3712317 1.1521603e-38
3.2834275 -0.09660551 -1.3693712 1.2076558e-38
3.2477615 -0.089266047 -1.3681287 1.1522663e-38
3.0940096 -0.34000733 -1.2968638 6.9038584e-39
3.122524 -0.33103487 -1.3153721 9.214154e-39
3.1552708 -0.33420548 -1.3159227 7.8333411e-39
3.189008 -0.33747521 -1.3166314 2.6675678e-39
3.1524315 -0.3218275 -1.3279706 1.0602132e-38
3.1875744 -0.3187266 -1.3227143 6.4464928e-39
3.2193942 -0.3029725 -1.3359182 6.9114521e-39
3.1552708 -0.27231559 -1.3159227 1.2168684e-38
3.189008 -0.28122938 -1.3166314 1.1957308e-39
3.2179463 -0.29034865 -1.3420618 1.1979649e-38
3.1524315 -0.25993761 -1.3279706 1.1708853e-38
3.1861408 -0.24998163 -1.3287972 9.6805327e-39
3.1861408 -0.23748255 -1.3287972 9.5775415e-39
3.2212043 -0.22565138 -1.3282387 9.6733301e-39
3.2208424 -0.19566973 -1.3297746 7.4649579e-39
3.2208424 -0.16411009 -1.3297746 7.8333845e-39
3.253612 -0.16577981 -1.3433043 1.2721472e-38
3.2214212 -0.13381283 -1.3273171 8.6627851e-39
3.2550747 -0.10839449 -1.3370981 9.7669676e-39
3.2922921 -0.090165138 -1.3317595 3.8574958e-39
3.1281493 -0.34329543 -1.291505 3.311145e-39
3.1609499 -0.33420548 -1.291827 3.7814235e-39
3.1918755 -0.3187266 -1.3044658 6.9131939e-39
3.1637895 -0.28469357 -1.2797792 2.3952661e-39
3.1925921 -0.28435415 -1.3014243 3.7803655e-39
3.2614129 -0.24654432 -1.3102049 8.1009709e-39
3.1947427 -0.21873394 -1.2923 7.5575137e-39
3.2295299 -0.22091743 -1.292913 7.8344467e-39
3.2280819 -0.19566974 -1.2990565 2.3020181e-39
3.1976099 -0.16873762 -1.2801341 3.3118666e-39
3.2273579 -0.16095413 -1.3021283 2.7615627e-39
3.2280819 -0.13255045 -1.2990565 3.2203702e-39
3.2623885 -0.1083945 -1.3060676 3.1263767e-39
3.2643383 -0.085015289 -1.2977927 4.882044e-39
3.1093307 -0.28536332 -1.2318578 2.4881806e-39
3.1365869 -0.28199267 -1.2557042 3.1306689e-39
3.2033446 -0.231233 -1.2558026 1.0509572e-38
3.2331498 -0.2240734 -1.2775539 7.7325667e-39
3.2338738 -0.19566974 -1.2744821 2.0272235e-39
3.2033446 -0.16873762 -1.2558026 2.211256e-39
3.2331498 -0.16095413 -1.2775539 3.3154357e-39
3.2338738 -0.13255045 -1.2744821 5.1673021e-39
3.2353218 -0.11361468 -1.2683386 6.2729378e-39
3.268239 -0.10201835 -1.2812431 4.0534744e-39
3.2697017 -0.089266047 -1.2750371 6.7375117e-39
3.1422122 -0.29425323 -1.231837 1.8392617e-39
3.2062118 -0.231233 -1.2436368 9.5872623e-39
3.2396655 -0.21460551 -1.2499077 4.6875648e-39
3.2755525 -0.22316512 -1.2502126 5.5288511e-39
3.3129761 -0.21897247 -1.2439989 4.7794339e-39
3.2405343 -0.19440736 -1.2462217 1.4772713e-39
3.2770152 -0.2040367 -1.2440065 2.3045236e-39
3.3469553 -0.20820551 -1.2567577 1.2907668e-39
3.2396657 -0.16411011 -1.2499079 3.0377614e-39
3.2090793 -0.13748991 -1.2314712 3.6771193e-40
3.2391827 -0.13044648 -1.2519555 9.1230219e-39
3.2396655 -0.10730276 -1.2499077 7.3745406e-39
3.2425616 -0.08836697 -1.2376206 1.1956733e-39
3.2814033 -0.1912844 -1.2253882 3.0413628e-39
3.2119465 -0.16873762 -1.2193054 2.6718488e-39
3.2478704 -0.16831803 -1.215094 2.4889079e-39
3.282866 -0.17853209 -1.219182 3.7774901e-39
3.185559 -0.1320318 -1.187412 2.4874799e-39
3.2138579 -0.13957308 -1.2111949 2.3956276e-39
3.2142401 -0.1074921 -1.2095727 2.4867541e-39
