# .PCD v0.7 - Point Cloud Data file format
VERSION 0.7
FIELDS x y z rgb
SIZE 4 4 4 4
TYPE F F F F
COUNT 1 1 1 1
WIDTH 183
HEIGHT 1
VIEWPOINT 0 0 0 1 0 0 0
POINTS 183
DATA ascii
3.2005708 0.050495416 -1.4157851 8.4675758e-39
3.1677899 0.077494308 -1.4066581 1.1057741e-38
3.1675034 0.10624219 -1.4078747 1.1144549e-38
3.1353943 0.14853577 -1.4002579 7.0717942e-39
3.1682203 0.13748991 -1.4048332 1.1608754e-38
3.2005708 0.13255045 -1.4157851 1.0036385e-38
3.2015357 0.16411009 -1.4116892 1.2533204e-38
3.2360599 0.17215595 -1.4177775 1.1610188e-38
3.2350845 0.19978593 -1.4219149 1.2438842e-38
3.168937 0.21248439 -1.4017918 1.2899817e-38
3.2012947 0.22091743 -1.4127133 1.2805832e-38
3.2345972 0.24866971 -1.4239837 9.670456e-39
3.173238 0.049996328 -1.3835431 8.0051543e-39
3.1429663 0.078393877 -1.3681302 1.1979325e-38
3.17276 0.070828132 -1.3855708 1.07833e-38
3.173238 0.10624219 -1.3835431 1.0968064e-38
3.173238 0.12499081 -1.3835431 9.7673894e-39
3.2078104 0.13886239 -1.385067 1.0948615e-38
3.2081001 0.16158533 -1.3838383 1.1615949e-38
3.2389853 0.17853209 -1.4053653 1.1147783e-38
3.2078104 0.19566974 -1.385067 1.1243194e-38
3.2078104 0.22091743 -1.385067 1.1243179e-38
3.2063625 0.25247705 -1.3912107 1.1606564e-38
3.2407405 0.25504586 -1.397918 1.151511e-38
3.2063625 0.27772477 -1.3912107 1.161016e-38
3.2419107 0.28055045 -1.392953 1.1519775e-38
3.2745631 0.2962569 -1.4069829 1.1611259e-38
3.2775178 0.30913761 -1.3944457 1.1519799e-38
3.1467524 0.086645864 -1.3520664 1.1339732e-38
3.1804061 0.078119271 -1.3531288 1.1339341e-38
3.2150502 0.08836697 -1.354349 9.0215133e-39
3.1775389 0.10624219 -1.3652945 1.0683198e-38
3.2136023 0.10730276 -1.3604926 1.0779713e-38
3.1804061 0.13124037 -1.3531288 1.1801404e-38
3.2150502 0.12623852 -1.354349 1.1888567e-38
3.2136025 0.16411011 -1.3604927 1.2622905e-38
3.2136023 0.19566974 -1.3604926 1.2623624e-38
3.2150502 0.22091743 -1.354349 1.2714742e-38
3.2448361 0.22316512 -1.3805408 1.2164795e-38
3.2121544 0.26510093 -1.3666363 1.1796028e-38
3.2477617 0.25292048 -1.3681288 1.2624703e-38
3.2819502 0.25761467 -1.3756398 1.2992778e-38
3.2121544 0.27772477 -1.3666363 1.1884973e-38
3.2477615 0.2869266 -1.3681287 1.20683e-38
3.2834275 0.2962569 -1.3693712 1.1423342e-38
3.2804728 0.30913761 -1.3819084 1.1242503e-38
3.3185964 0.31230825 -1.3770831 1.1610533e-38
3.1566906 0.074267887 -1.3098989 4.6047186e-39
3.189008 0.087493576 -1.3166314 2.9441911e-39
3.2179463 0.08836697 -1.3420618 8.4769687e-39
3.2193942 0.10730276 -1.3359182 8.2864762e-39
3.1861408 0.13748991 -1.3287972 1.2810795e-38
3.2214212 0.13128807 -1.3273171 4.3292289e-39
3.220015 0.16591349 -1.3332852 7.0925671e-39
3.2208424 0.19566973 -1.3297746 8.2021572e-39
3.2208424 0.22091742 -1.3297746 1.0595645e-38
3.2553673 0.25504586 -1.3358569 8.0134472e-39
3.2863824 0.25761467 -1.3568339 1.5951933e-38
3.2887461 0.29110461 -1.3468041 9.3056041e-39
3.2922921 0.30913761 -1.3317595 4.3198598e-39
3.3230741 0.31230825 -1.3580844 9.1068173e-39
3.1609499 0.049511924 -1.291827 5.9920041e-39
3.2280819 0.050495416 -1.2990565 4.3277996e-39
3.1281493 0.061302751 -1.291505 4.4157073e-39
3.1623697 0.068078898 -1.2858031 2.9491699e-39
3.1954596 0.081244037 -1.2892585 3.4069237e-39
3.1947424 0.10499229 -1.2922999 3.6874721e-39
3.226634 0.11361468 -1.3052002 3.0384985e-39
3.1953158 0.14498937 -1.2898667 3.1288907e-39
3.2280819 0.12623852 -1.2990565 3.5880471e-39
3.1953158 0.16748771 -1.2898667 3.0388629e-39
3.1947427 0.18748623 -1.2923 4.0501351e-39
3.2285643 0.19777371 -1.2970086 3.5902079e-39
3.2280822 0.22722936 -1.2990566 3.1285291e-39
3.2285643 0.25668502 -1.2970086 4.8834649e-39
3.2594628 0.26779816 -1.3184798 2.9462889e-39
3.2623882 0.28055045 -1.3060676 2.5789483e-39
3.296232 0.29196331 -1.3150432 3.0384775e-39
3.2952468 0.30913761 -1.3192222 4.8708784e-39
3.2333908 0.046287466 -1.27653 4.4153163e-39
3.1666291 0.074267887 -1.2677312 2.8562611e-39
3.2016239 0.072494671 -1.2631021 3.875864e-39
3.2353218 0.08836697 -1.2683386 6.0903977e-39
3.2004774 0.099992655 -1.2679684 2.4853472e-39
3.2343562 0.10940673 -1.2724342 4.5194538e-39
3.201194 0.14061469 -1.2649269 2.9459652e-39
3.2353218 0.13255045 -1.2683386 2.5855652e-39
3.201911 0.16873762 -1.2618855 2.5750106e-39
3.2338738 0.19566974 -1.2744821 2.9480769e-39
3.2711644 0.19766055 -1.2688309 2.1208484e-39
3.2338741 0.22722936 -1.2744823 2.8523066e-39
3.2711644 0.22954127 -1.2688309 2.0243746e-39
3.3041115 0.21897247 -1.2816105 2.4856751e-39
3.3409848 0.22772476 -1.2820895 3.2214408e-39
3.2324259 0.258789 -1.2806257 3.7771299e-39
3.2697017 0.25504586 -1.2750371 4.5175634e-39
3.3409848 0.25375044 -1.2820895 2.762269e-39
3.302634 0.27693579 -1.2878791 3.8714864e-39
3.3387461 0.28628257 -1.2915888 2.9470091e-39
3.3818784 -0.013148624 -1.2698712 3.3193846e-39
3.2755525 0.025504587 -1.2502126 2.2155664e-39
3.3114986 0.019321101 -1.2502675 3.7764097e-39
3.3469553 0.0065064221 -1.2567577 4.695143e-39
3.2090793 0.049996328 -1.2314712 1.2352433e-38
3.2411134 0.046287466 -1.2437642 9.7655089e-39
3.2770152 0.03825688 -1.2440065 8.5421375e-39
3.2062118 0.062495407 -1.2436368 1.6603141e-38
3.2406311 0.075743124 -1.2458121 1.9548712e-38
3.2770152 0.0828899 -1.2440065 1.7506717e-38
3.3129761 0.077284403 -1.2439989 8.541853e-39
3.2396655 0.10730276 -1.2499077 1.8624983e-38
3.2770152 0.10839449 -1.2440065 1.7606142e-38
3.3129761 0.10948624 -1.2439989 1.3550164e-38
3.3469553 0.091089904 -1.2567577 1.0043185e-38
3.2391827 0.13044648 -1.2519555 1.9179589e-38
3.2760398 0.13602446 -1.2481438 1.7801332e-38
3.3129761 0.12880734 -1.2439989 1.4101938e-38
3.2382174 0.16411009 -1.2560513 7.097658e-39
3.2740898 0.15940367 -1.2564187 5.4474679e-39
3.3114986 0.16100916 -1.2502675 3.0352601e-39
3.3070664 0.19321102 -1.2690734 2.6711593e-39
3.3454623 0.19519265 -1.2630907 2.6689971e-39
3.3454626 0.22121835 -1.2630907 2.8519605e-39
3.3803701 0.23667522 -1.2762702 2.3027299e-39
3.3439701 0.26025686 -1.2694236 2.3041649e-39
3.380873 0.25420669 -1.2741371 1.9364656e-39
3.3848946 -0.013148624 -1.2570732 2.578612e-39
3.351433 0.019519266 -1.2377591 3.4987438e-39
3.3879111 0.0065743118 -1.2442752 3.6820785e-39
3.2799406 0.044633027 -1.2315943 6.2480858e-39
3.3159308 0.051522937 -1.2314616 1.4701078e-39
3.3519306 0.043376148 -1.2356482 2.4846031e-39
3.2799406 0.063761465 -1.2315943 8.360347e-39
3.3159308 0.064403668 -1.2314616 1.0130785e-39
3.351433 0.071570635 -1.2377591 1.3847309e-39
3.3894191 0.078891739 -1.2378762 2.4864037e-39
3.3159308 0.1159266 -1.2314616 9.2209643e-41
3.3509357 0.10410275 -1.2398701 1.2893053e-39
3.3894191 0.10190183 -1.2378762 2.94667e-39
3.2799406 0.14027523 -1.2315943 6.6205285e-39
3.3159308 0.12880734 -1.2314616 9.2201235e-41
3.3519306 0.13880366 -1.2356482 2.7633353e-39
3.3509357 0.16049173 -1.2398701 2.5800301e-39
3.3899219 0.16654922 -1.2357433 2.3945612e-39
3.5028758 0.17641835 -1.257794 1.2939828e-39
3.3499403 0.18217981 -1.244092 1.5694795e-39
3.3869057 0.19284648 -1.2485412 2.0279311e-39
3.4268901 0.19267707 -1.2445378 1.6584451e-39
3.5028758 0.1967743 -1.257794 8.3192988e-40
3.3875339 0.22517018 -1.245875 2.3020139e-39
3.4268901 0.21260917 -1.2445378 2.5757071e-39
3.3529255 0.24724403 -1.2314262 2.1208358e-39
3.3848946 0.25639814 -1.2570732 2.2105315e-39
3.3247955 0.025761468 -1.1938499 3.4080181e-39
3.3588958 0.019519266 -1.2060945 5.1625727e-39
3.3939435 0.013148624 -1.2186793 3.5935136e-39
3.3582988 0.046846237 -1.2086277 3.4069321e-39
3.3574033 0.065064214 -1.2124275 2.8516087e-39
3.4299386 0.079728439 -1.2316042 3.4987774e-39
3.3559108 0.13663486 -1.2187604 2.6729446e-39
3.4659333 0.14770275 -1.244529 2.669723e-39
3.4659333 0.16113028 -1.244529 2.2108888e-39
3.5070264 0.1718948 -1.2401824 3.2236339e-39
3.5059888 0.1967743 -1.2445853 2.763006e-39
3.3588958 0.22121835 -1.2060945 1.9314363e-39
3.4659333 0.21484037 -1.244529 1.1971041e-39
3.3312957 0.020609174 -1.166268 4.8845761e-39
3.364866 0 -1.1807629 6.4461453e-39
3.3292277 0.045082569 -1.1750441 4.7016156e-39
3.3668566 0.043376148 -1.1723191 4.5165349e-39
3.4029925 0.19722936 -1.1802853 3.0435586e-39
3.4360352 0.19932111 -1.2057368 3.7778838e-39
3.4720941 0.18798532 -1.2183901 3.7836278e-39
3.3678513 0.22121835 -1.168097 5.0560278e-39
3.4014843 0.21037798 -1.1866844 3.6863636e-39
3.3023684 0.0042507644 -1.136434 5.3466291e-39
3.3366148 0.025761468 -1.143701 5.9877063e-39
3.3708365 0.045544952 -1.1554313 5.3444949e-39
3.4060087 0.19722936 -1.1674874 3.870434e-39
3.4070141 0.21476085 -1.1632214 4.9749893e-39
3.4451799 0.23032661 -1.1669356 4.6054921e-39
3.4813349 0.2416954 -1.1791818 4.240992e-39
3.4120414 0.21037798 -1.1418914 5.2440246e-39
