# .PCD v0.7 - Point Cloud Data file format
VERSION 0.7
FIELDS x y z rgb
SIZE 4 4 4 4
TYPE F F F F
COUNT 1 1 1 1
WIDTH 181
HEIGHT 1
VIEWPOINT 0 0 0 1 0 0 0
POINTS 181
DATA ascii
3.1679811 0.020831803 -1.4058471 1.0872596e-38
3.2005708 0.006311927 -1.4157851 8.6584607e-39
3.1675034 0.081244037 -1.4078747 1.1882819e-38
3.2012947 0.066275224 -1.4127132 1.189001e-38
3.1382339 0.099023849 -1.3882101 1.6218504e-38
3.1675034 0.10624219 -1.4078747 1.1702385e-38
3.2015357 0.10940673 -1.4116892 9.3921231e-39
3.1339746 0.14853577 -1.4062819 1.3913982e-38
3.168937 0.14998899 -1.4017918 1.4189837e-38
3.2005711 0.13255045 -1.4157851 1.1885699e-38
3.1325548 0.16091375 -1.4123058 1.4096572e-38
3.1660697 0.16873762 -1.4139575 1.3636672e-38
3.2023082 0.16663487 -1.4084127 1.2348824e-38
3.2005711 0.19566973 -1.4157851 1.1694801e-38
3.200933 0.22880733 -1.4142492 1.0221845e-38
3.2020187 0.258789 -1.4096414 1.0879087e-38
3.1429663 0.016503975 -1.3681302 1.0127816e-38
3.1718044 0.024998164 -1.389626 1.1797839e-38
3.173238 0.043746788 -1.3835431 1.2618966e-38
3.1737158 0.074994497 -1.3815155 9.6698086e-39
3.2063625 0.08836697 -1.3912107 1.0329878e-38
3.2073276 0.10519878 -1.3871148 1.1230618e-38
3.1746716 0.12499081 -1.3774602 1.1339736e-38
3.2078104 0.13886239 -1.385067 1.2536834e-38
3.2078106 0.16411011 -1.3850671 1.124574e-38
3.2078104 0.19566974 -1.385067 1.1882805e-38
3.2078106 0.22722936 -1.3850671 1.2167327e-38
3.2078104 0.258789 -1.385067 1.2617516e-38
3.2078104 0.27772477 -1.385067 1.1713185e-38
3.1481721 0.024755962 -1.3460425 1.0878036e-38
3.1197114 0.042911928 -1.3273058 1.0783304e-38
3.1467524 0.043322936 -1.3520664 1.2353498e-38
3.1495919 0.061889905 -1.3400185 9.2970744e-39
3.1799283 0.077077679 -1.3551564 1.1982206e-38
3.2121544 0.08836697 -1.3666363 1.2258424e-38
3.1804061 0.11249173 -1.3531288 1.190118e-38
3.2136023 0.10099083 -1.3604926 1.2800836e-38
3.1804061 0.12499081 -1.3531288 1.2810898e-38
3.2136023 0.13886239 -1.3604926 1.2632273e-38
3.2136025 0.16411011 -1.3604927 1.2721591e-38
3.2136023 0.19566974 -1.3604926 1.2990262e-38
3.2128785 0.2240734 -1.3635644 1.1523794e-38
3.2477615 0.22954127 -1.3681287 1.1059963e-38
3.2121544 0.258789 -1.3666363 1.2440299e-38
3.2492242 0.25504586 -1.3619225 1.4655516e-38
3.1804061 0.27497983 -1.3531288 1.1803217e-38
3.2804728 0.27049541 -1.3819084 1.2065091e-38
3.1239305 0.024521101 -1.3094053 9.950612e-39
3.1552708 0.012377981 -1.3159227 6.5297061e-39
3.0954025 0.036429357 -1.2909542 7.9248249e-39
3.1234617 0.044955354 -1.3113943 1.041342e-38
3.1253366 0.061302751 -1.3034385 1.1336818e-38
3.1552708 0.070141889 -1.3159227 9.2145197e-39
3.1875744 0.087493576 -1.3227143 6.6348385e-39
3.1875744 0.10624219 -1.3227143 6.1745821e-39
3.1875744 0.13748991 -1.3227143 7.650424e-39
3.189008 0.16873762 -1.3166314 3.8578545e-39
3.2179463 0.17042202 -1.3420618 1.3921118e-38
3.2208424 0.19566973 -1.3297746 9.2091247e-39
3.2208424 0.22722936 -1.3297746 9.4885787e-39
3.2218072 0.26089299 -1.3256788 7.3652205e-39
3.2565374 0.25504586 -1.330892 1.0116478e-39
3.129087 0.016347401 -1.2875272 4.5111063e-39
3.1623697 0.015472476 -1.2858031 5.072926e-39
3.1966543 0.012499082 -1.2841895 5.6275165e-39
3.2295299 0 -1.292913 5.7860272e-39
3.0981879 0.036429357 -1.279135 1.2918038e-39
3.1281493 0.049042203 -1.291505 2.5815281e-39
3.1623697 0.043322936 -1.2858031 2.8566422e-39
3.1976099 0.043746788 -1.2801341 3.3133072e-39
3.1309619 0.067433029 -1.2795714 4.2367334e-39
3.1623697 0.071173392 -1.2858031 4.1513145e-39
3.1961763 0.078119263 -1.2862171 3.5916849e-39
3.1947427 0.10624219 -1.2923 3.2228884e-39
3.1637895 0.14853577 -1.2797792 4.5179698e-39
3.1947427 0.13592753 -1.2923 4.1430454e-39
3.1637895 0.16091375 -1.2797792 2.303481e-39
3.1940258 0.17186238 -1.2953414 2.3931347e-39
3.2275991 0.19356577 -1.3011044 2.9466588e-39
3.2638509 0.2040367 -1.2998614 2.5778861e-39
3.2273579 0.23038532 -1.3021283 4.4217819e-39
3.2638509 0.22316512 -1.2998614 3.4969768e-39
3.2275991 0.26089296 -1.3011044 2.3041663e-39
3.2645824 0.25504586 -1.2967584 2.857703e-39
3.201911 0.018748622 -1.2618855 5.6213971e-39
3.201911 0.043746788 -1.2618855 3.9623227e-39
3.201911 0.06874495 -1.2618855 4.6991801e-39
3.2338738 0.08836697 -1.2744821 6.0749119e-39
3.2004774 0.099992655 -1.2679684 4.0591469e-39
3.2343562 0.10940673 -1.2724342 2.4814894e-39
3.2014329 0.14582263 -1.2639132 3.5887982e-39
3.2343562 0.13044648 -1.2724342 1.7502932e-39
3.1666291 0.16091375 -1.2677312 3.4022728e-39
3.2014329 0.16665444 -1.2639132 3.1263753e-39
3.2353218 0.17673394 -1.2683386 1.6577067e-39
3.2338738 0.1893578 -1.2744821 2.8512164e-39
3.270189 0.19978593 -1.2729683 3.3136337e-39
3.2697017 0.22316512 -1.2750371 5.5353181e-39
3.2697017 0.24866971 -1.2750371 3.2211003e-39
3.3818784 -0.013148624 -1.2698712 5.3419445e-39
3.2062118 0.018748622 -1.2436368 1.012855e-38
3.2411137 0.018935781 -1.2437642 1.307918e-38
3.2770152 0.01912844 -1.2440065 1.5199656e-38
3.3129761 0.019321101 -1.2439989 1.0035623e-38
3.3469553 0 -1.2567577 4.4253874e-39
3.2071676 0.045829967 -1.2395816 1.9914639e-38
3.2425616 0.044183489 -1.2376206 1.8896168e-38
3.2770152 0.03825688 -1.2440065 2.0380566e-38
3.3129761 0.045082569 -1.2439989 1.1697651e-38
3.2062118 0.06874495 -1.2436368 2.0562146e-38
3.2415965 0.075743116 -1.2417164 1.8715014e-38
3.2770152 0.089266047 -1.2440065 1.9363236e-38
3.3129761 0.070844039 -1.2439989 1.2073965e-38
3.2382176 0.10730276 -1.2560514 2.0105493e-38
3.3104434 0.10672609 -1.2547451 1.5121876e-38
3.2382176 0.13255045 -1.2560514 5.5400111e-39
3.2740898 0.14027523 -1.2564187 1.2882417e-39
3.3090363 0.13310091 -1.2607151 4.319197e-39
3.3469553 0.13663486 -1.2567577 1.7509897e-39
3.2389417 0.16726604 -1.2529795 2.6718614e-39
3.2740898 0.15940367 -1.2564187 3.4951621e-39
3.3100212 0.16100916 -1.2565361 2.6697146e-39
3.3469553 0.16266054 -1.2567577 2.3945682e-39
3.2740898 0.19766055 -1.2564187 2.5782196e-39
3.3100212 0.18677065 -1.2565361 3.2210779e-39
3.3462088 0.19844589 -1.2599243 2.6697118e-39
3.3070664 0.22541285 -1.2690734 3.0359804e-39
3.3454626 0.22772476 -1.2630907 1.9357523e-39
3.3070664 0.24473393 -1.2690734 3.0374349e-39
3.3439701 0.24724403 -1.2694236 2.3970822e-39
3.3803701 0.25639814 -1.2762702 2.3963535e-39
3.3499403 -0.013012844 -1.244092 4.4235994e-39
3.3879111 -0.013148624 -1.2442752 4.5161383e-39
3.3159308 0.025761468 -1.2314616 1.8404094e-40
3.351433 0.013012844 -1.2377591 2.577519e-39
3.3894191 0 -1.2378762 3.9568689e-39
3.3159308 0.045082569 -1.2314616 1.8404374e-40
3.3529255 0.045544952 -1.2314262 2.3002202e-39
3.3159308 0.064403668 -1.2314616 2.7587923e-40
3.3519306 0.073739447 -1.2356482 2.3927578e-39
3.3181469 0.099825688 -1.2220587 2.578228e-39
3.3499403 0.11060917 -1.244092 8.2832434e-40
3.3188858 0.12880734 -1.2189244 3.4051188e-39
3.3509357 0.13880366 -1.2398701 3.4040426e-39
3.3909273 0.14463486 -1.2314773 3.1299823e-39
3.3509357 0.16482936 -1.2398701 3.0381328e-39
3.3899219 0.16216634 -1.2357433 3.220366e-39
3.3514328 0.19519265 -1.2377591 2.1197624e-39
3.3909273 0.18408072 -1.2314773 2.3956192e-39
3.351433 0.22772476 -1.2377591 2.4864037e-39
3.3909273 0.2301009 -1.2314773 2.3002132e-39
3.3499403 0.24724403 -1.244092 2.487096e-39
3.3879111 0.25420669 -1.2442752 1.3822128e-39
3.3593221 0.013012843 -1.2042851 4.6969409e-39
3.3939435 0.026297247 -1.2186793 3.8643061e-39
3.3579011 0.04771376 -1.2103165 3.4069153e-39
3.394949 0.043828744 -1.2144133 4.3306709e-39
3.3559108 0.071570635 -1.2187604 2.6722131e-39
3.3218405 0.10304587 -1.2063872 2.6707908e-39
3.3218405 0.12880734 -1.2063872 2.9462903e-39
3.394949 0.16654922 -1.2144133 3.2239842e-39
3.3581495 0.2049523 -1.2092609 2.303446e-39
3.3954518 0.19065504 -1.2122803 2.5818406e-39
3.361881 0.23423119 -1.1934288 3.4127111e-39
3.394949 0.22790946 -1.2144133 3.3140148e-39
3.3321826 -0.012880734 -1.1625068 7.1959381e-39
3.3336599 0 -1.1562382 5.1521737e-39
3.3660603 0.015615413 -1.1756966 4.8863908e-39
3.4014843 0.03944587 -1.1866844 4.1491817e-39
3.3668566 0.18651743 -1.1723191 4.7038044e-39
3.3999763 0.19722936 -1.1930833 3.5945898e-39
3.4014843 0.21695229 -1.1866844 4.2349201e-39
3.3033438 -0.012752294 -1.1322966 7.4674382e-39
3.3366148 0 -1.143701 5.4338235e-39
3.3708365 0.019519266 -1.1554313 5.5281785e-39
3.3708365 0.039038531 -1.1554313 5.8050919e-39
3.3366148 0.18033028 -1.143701 4.610157e-39
3.3718317 0.19953029 -1.1512094 5.5295896e-39
3.407517 0.2235266 -1.1610883 5.5263512e-39
3.4482284 0.22589725 -1.154002 2.9392165e-39
3.3768067 0.20820551 -1.1300997 2.2963568e-39
