# .PCD v0.7 - Point Cloud Data file format
VERSION 0.7
FIELDS x y z rgb
SIZE 4 4 4 4
TYPE F F F F
COUNT 1 1 1 1
WIDTH 131
HEIGHT 1
VIEWPOINT 0 0 0 1 0 0 0
POINTS 131
DATA ascii
3.3486991 -0.013148624 -1.4106489 1.1530945e-38
3.3096409 0.071570635 -1.4150805 8.7556982e-39
3.3486991 0.078891739 -1.4106489 1.2623573e-38
3.3096409 0.097596332 -1.4150805 6.9121359e-39
3.3476937 0.11395473 -1.414915 4.0483401e-39
3.3471909 0.13148624 -1.4170479 3.9626142e-39
3.3486991 0.19065504 -1.4106489 6.9931996e-39
3.3486991 0.21037798 -1.4106489 1.0247327e-38
3.3842142 0.25247338 -1.4256098 2.3074033e-39
3.5040526 -0.077732116 -1.427168 9.7640809e-39
3.3903108 -0.03986422 -1.3997424 1.2988055e-38
3.4274299 -0.053710092 -1.407897 1.1046182e-38
3.3532236 -0.019722935 -1.391452 1.2357121e-38
3.3872623 -0.026576146 -1.4126761 1.337378e-38
3.2506869 0.025504587 -1.3557165 6.9078017e-39
3.2834275 0.0064403671 -1.3693712 7.1869473e-39
3.3141186 0.026025688 -1.3960818 8.4711743e-39
3.2506869 0.03825688 -1.3557165 6.5451316e-39
3.2819502 0.051522937 -1.3756398 6.3550048e-39
3.3141186 0.039038531 -1.3960818 7.5549718e-39
3.2834275 0.064403668 -1.3693712 4.3184838e-39
3.3171039 0.073739447 -1.3834161 5.8976364e-39
3.317601 0.10410275 -1.3813051 5.8018297e-39
3.3532236 0.13806054 -1.391452 5.8868366e-39
3.3532236 0.16435778 -1.391452 8.5745565e-39
3.3537264 0.19284648 -1.3893189 4.6983618e-39
3.3872623 0.18603303 -1.4126761 5.7982816e-39
3.3535249 0.22089688 -1.3901721 8.5763446e-39
3.3872623 0.23918532 -1.4126761 5.261922e-39
3.3547318 0.24982384 -1.3850529 1.0163225e-39
3.3882785 0.26133212 -1.4083649 5.7996969e-39
3.4686315 -0.067853205 -1.4030902 1.1228434e-38
3.3964074 -0.046508256 -1.373875 1.3462384e-38
3.2893372 -0.012880734 -1.3442967 1.0886311e-38
3.3230741 -0.013012844 -1.3580844 1.2354248e-38
3.359256 -0.026297247 -1.3658561 1.3369464e-38
3.2550747 0.01912844 -1.3370981 3.4965844e-39
3.2893372 0 -1.3442967 5.8044137e-39
3.2565374 0.03825688 -1.330892 4.052984e-39
3.2893369 0.046370644 -1.3442967 3.9572122e-39
3.289928 0.069555961 -1.3417892 3.7753433e-39
3.2898297 0.10304587 -1.3422072 9.6726238e-39
3.3245666 0.13663486 -1.3517514 1.1510798e-38
3.3260591 0.15615413 -1.3454186 1.678558e-38
3.3587534 0.16654922 -1.3679891 8.1176141e-39
3.3260591 0.20820551 -1.3454186 2.4831611e-39
3.359256 0.19065505 -1.3658561 3.1278033e-39
3.3245666 0.22121835 -1.3517514 4.5107545e-39
3.3587534 0.22790946 -1.3679891 4.0551616e-39
3.2967243 -0.012880734 -1.3129537 7.8254952e-39
3.3290443 -0.026025688 -1.3327527 1.2998894e-38
3.3698132 -0.019722935 -1.321063 5.8068827e-39
3.2594628 0.01912844 -1.3184798 2.9448932e-39
3.2964287 0.01545688 -1.3142073 4.4243028e-39
3.3320293 0 -1.3200868 5.6196006e-39
3.2633631 0.04675841 -1.3019301 3.4991067e-39
3.2982018 0.038642202 -1.306685 3.0338196e-39
3.2623882 0.07651376 -1.3060676 3.4054537e-39
3.2982018 0.064403668 -1.306685 2.6675594e-39
3.2967243 0.10304587 -1.3129536 1.4726119e-39
3.3305368 0.13663486 -1.3264198 8.2976627e-40
3.3305368 0.16266054 -1.3264198 1.3807905e-39
3.3305366 0.19519265 -1.3264198 2.8566072e-39
3.3661933 0.23141575 -1.3364205 4.6026012e-39
3.3409848 -0.019519266 -1.2820895 6.5390304e-39
3.3728294 -0.019722935 -1.3082651 3.5895199e-39
3.302634 0.019321101 -1.2878791 3.0395887e-39
3.3380001 0 -1.2947553 4.9807402e-39
3.270189 0.04675841 -1.2729683 2.3005874e-39
3.3011568 0.038642202 -1.2941477 2.4867527e-39
3.2692139 0.06801223 -1.2771057 1.8421147e-39
3.302634 0.09660551 -1.2878792 2.4863897e-39
3.3380001 0.11711559 -1.2947553 2.2094399e-39
3.3041115 0.14168808 -1.2816105 1.8413861e-39
3.3372536 0.13338165 -1.2979217 2.5768057e-39
3.3041115 0.16100916 -1.2816105 1.9339488e-39
3.3370049 0.16482936 -1.2989773 2.0261515e-39
3.3041115 0.18033028 -1.2816105 2.2083735e-39
3.3375731 0.19519266 -1.2965646 2.3012838e-39
3.3350146 0.22121835 -1.3074211 3.2185808e-39
3.374639 0.22615632 -1.3005862 2.5782336e-39
3.4177454 -0.066440366 -1.283339 1.1703821e-38
3.4566927 -0.067137614 -1.2837373 1.2614939e-38
3.3469553 -0.039038531 -1.2567577 7.662712e-39
3.3803701 -0.04602018 -1.2762702 9.9614847e-39
3.4207935 -0.053152293 -1.2704053 1.2914253e-38
3.2770152 -0.012752294 -1.2440065 8.9440327e-39
3.3114986 -0.025761468 -1.2502675 3.9518032e-39
3.2770152 0.01912844 -1.2440065 1.7499079e-39
3.3092825 0.0096605504 -1.2596704 2.9423512e-39
3.2430439 0.046287466 -1.2355727 2.7597438e-39
3.2740898 0.03825688 -1.2564187 3.2185682e-39
3.2416928 0.070693582 -1.2413068 2.3016425e-39
3.2755525 0.089266047 -1.2502126 1.9332286e-39
3.3100212 0.10948624 -1.2565361 1.4751133e-39
3.3100212 0.13310091 -1.2565361 1.9343006e-39
3.3454626 0.14314128 -1.2630907 1.3843638e-39
3.3070664 0.15456881 -1.2690734 3.1270872e-39
3.3454626 0.16266054 -1.2630907 1.4740651e-39
3.4207935 0.15945688 -1.2704053 2.3970878e-39
3.3439701 0.18217981 -1.2694236 1.3840022e-39
3.3788621 0.19722936 -1.2826692 2.3041453e-39
3.3788621 0.21037798 -1.2826692 2.8533702e-39
3.4146972 0.22589725 -1.2962728 2.3913326e-39
3.4258742 -0.070869721 -1.2488492 1.0856088e-38
3.4597728 -0.08056514 -1.2706679 1.1342201e-38
3.3879111 -0.03944587 -1.2442752 7.8402859e-39
3.4253662 -0.053152293 -1.2510047 1.365435e-38
3.2814033 -0.012752294 -1.2253882 4.0573364e-39
3.3179009 -0.021467889 -1.2231034 3.7753321e-39
3.2814033 0.01912844 -1.2253882 1.6591542e-39
3.3174083 0 -1.225193 3.1346486e-39
3.2469053 0.044183489 -1.2191898 1.5665998e-39
3.2843287 0.051009174 -1.212976 2.5804098e-39
3.3174083 0.038642202 -1.225193 2.57644e-39
3.2486429 0.073218353 -1.2118175 1.9346677e-39
3.282866 0.089266047 -1.219182 1.6602514e-39
3.2814033 0.10201835 -1.2253882 1.8424707e-39
3.3159308 0.1159266 -1.2314616 2.0257703e-39
3.3499403 0.13012843 -1.244092 2.2101728e-39
3.3848946 0.14463486 -1.2570732 2.0268675e-39
3.4299386 -0.093016513 -1.2316042 1.4012934e-38
3.4314628 -0.073084399 -1.2251374 1.1233115e-38
3.3954518 -0.03944587 -1.2122803 6.8275913e-39
3.4314628 -0.053152293 -1.2251374 1.4300448e-38
3.3238106 -0.017174313 -1.198029 3.4998256e-39
3.3559108 -0.026025688 -1.2187604 3.2275421e-39
3.2901795 0 -1.1881515 3.4026203e-39
3.2544348 0.073218353 -1.1872431 2.5814762e-39
3.3277502 -0.019321101 -1.1813127 2.8537653e-39
3.2945676 0 -1.1695333 2.9463239e-39
