# .PCD v0.7 - Point Cloud Data file format
VERSION 0.7
FIELDS x y z
SIZE 4 4 4
TYPE F F F
COUNT 1 1 1
WIDTH 130
HEIGHT 1
VIEWPOINT 0 0 0 1 0 0 0
POINTS 130
DATA ascii
2.0012517 -0.037231807 -1.3271824
1.9877688 -0.0082091745 -1.3089838
2.0020473 -0.017580735 -1.3288784
1.9877688 0.020522937 -1.3089838
2.0025258 0.010753763 -1.329891
1.9991825 0.033056881 -1.3258004
2.0027301 0.07687863 -1.3281696
2.0070224 0.094571747 -1.3291379
2.0258965 0.11300366 -1.3388019
2.0125742 0.13720736 -1.3299979
2.0145013 0.16631192 -1.3219087
2.0249267 0.16741283 -1.3428733
2.0154648 0.19125873 -1.3178641
2.0286438 0.20001788 -1.3359008
2.0154648 0.21620551 -1.3178641
2.027513 0.21763669 -1.3320161
1.9928417 -0.035573088 -1.2876886
2.0049279 -0.039255045 -1.3016827
1.9913015 -0.016418349 -1.2941532
2.0058854 -0.016528441 -1.2976631
1.990622 0.0082091745 -1.2970053
2.0068429 0.016528441 -1.2936435
2.0039701 0.033056881 -1.3057023
1.9657551 0.064822018 -1.2762501
2.0055661 0.077132724 -1.299003
2.0058856 0.10330275 -1.2976631
2.0066645 0.13641745 -1.2981689
2.0202827 0.16631192 -1.297641
2.0202184 0.19458494 -1.2979107
2.0346255 0.20926605 -1.3021593
2.0346255 0.21763669 -1.3021594
1.9935505 -0.038582962 -1.2588208
2.0106733 -0.033056881 -1.277565
1.9985486 -0.016418347 -1.2637315
2.0106733 -0.016528441 -1.2775649
1.9969068 0.010420018 -1.2596393
2.0106733 0.016528441 -1.277565
1.9623337 0.064616516 -1.2604058
1.984781 0.065262385 -1.2611132
2.0131354 0.079100393 -1.2672288
2.0010853 0.10671926 -1.2530839
2.0134823 0.10302728 -1.265774
2.0010853 0.12313762 -1.2530839
2.0143182 0.13724773 -1.2662936
2.0270271 0.16631192 -1.2693287
2.0259829 0.19531377 -1.2686795
2.0220129 0.21898715 -1.2662117
1.9760826 -0.048616514 -1.2328981
1.9977165 -0.038560946 -1.2327027
2.0051012 -0.015506218 -1.2362251
2.0202489 -0.016528441 -1.2373687
1.9995304 0.013377149 -1.2321504
2.0183337 0.0041321102 -1.2454079
1.9804013 0.042134307 -1.2147691
2.004065 0.076550461 -1.2305067
2.0074267 0.093037307 -1.226465
2.0213387 0.10545871 -1.2403462
2.0274005 0.13853651 -1.2435968
2.0328083 0.16631192 -1.2450609
2.0327413 0.19616586 -1.241316
2.0337718 0.22036329 -1.2410164
1.9854711 -0.032411009 -1.1934872
1.9961239 -0.032631192 -1.2134988
1.98641 -0.024308257 -1.1895462
2.0002522 -0.015414883 -1.2028797
1.9832613 0.012128441 -1.1876606
2.0010202 0.010888481 -1.2063684
1.9841567 0.038893208 -1.1990048
1.9961239 0.065262385 -1.2134988
1.9999049 0.14684036 -1.1976274
2.0240793 0.14875597 -1.2212901
2.0056989 0.16520882 -1.1974701
2.0240793 0.16528441 -1.2212901
2.0295312 0.19441469 -1.2084745
2.0144022 0.22164769 -1.1971841
2.0266328 0.21762447 -1.2105712
1.9818306 -0.037607342 -1.1584255
1.9889995 -0.02158165 -1.1686087
2.0067105 -0.0097893579 -1.1690587
1.986825 0.019634077 -1.1705436
2.0096431 0.006344954 -1.1701725
1.9875776 0.041194327 -1.1681691
2.0084121 0.04078899 -1.1619165
2.0207434 0.11219206 -1.170565
1.9907913 0.15935414 -1.1711544
2.0066788 0.16791469 -1.169191
2.01647 0.19261377 -1.1734002
2.0317397 0.20660551 -1.1891332
1.9901655 0.2187743 -1.1737819
2.0146229 0.21299326 -1.1761199
1.9940434 -0.034372479 -1.1424005
1.9964246 -0.021607339 -1.1475078
2.0112476 -0.012236698 -1.150013
1.991343 0.018154128 -1.1386318
2.0150287 0.024473395 -1.1341414
1.975103 0.05202385 -1.1204995
1.9940763 0.03638532 -1.1372281
2.0112476 0.04078899 -1.150013
1.9962 0.080902748 -1.1311898
1.9982055 0.10424587 -1.1324803
2.0204344 0.10225505 -1.1416556
2.0578599 0.11226055 -1.139901
1.999554 0.12154128 -1.1343709
2.0464091 0.14276332 -1.1426582
2.0714817 0.12555963 -1.1474466
1.999554 0.16745687 -1.1343709
2.012193 0.17947157 -1.1460451
1.999554 0.19446605 -1.1343708
2.0162218 0.19731954 -1.1463925
1.9976764 0.2187743 -1.142253
2.0163107 0.21447615 -1.143863
1.9769578 0.056025688 -1.1127137
1.9952574 0.04749928 -1.1121321
2.0249381 0.046313148 -1.1126817
2.0525367 0.036444772 -1.1259984
1.9950398 0.067993708 -1.1101695
2.0224173 0.07902997 -1.1232628
2.0480185 0.082642205 -1.1207995
2.0169191 0.10197248 -1.1262058
2.0534279 0.095338233 -1.1282988
2.0740683 0.11160856 -1.1365895
2.0524664 0.1450734 -1.1323351
2.0816042 0.13434967 -1.1345452
2.1074994 0.13999265 -1.1300273
1.9942194 0.16942139 -1.1164888
1.9807781 0.055845872 -1.0664705
1.996205 0.05635963 -1.0880173
1.9807781 0.063823849 -1.0664705
1.9976044 0.070449539 -1.0821432
1.9771675 0.063618347 -1.0514205
