# .PCD v0.7 - Point Cloud Data file format
VERSION 0.7
FIELDS x y z rgb
SIZE 4 4 4 4
TYPE F F F F
COUNT 1 1 1 1
WIDTH 156
HEIGHT 1
VIEWPOINT 0 0 0 1 0 0 0
POINTS 156
DATA ascii
2.8254838 0.64279264 -1.4074327 5.6203755e-39
2.7980943 0.67626786 -1.4059467 2.9441855e-39
2.8590603 0.53485137 -1.3870277 1.5487815e-38
2.8822415 0.51671559 -1.4107281 7.3472447e-39
2.8590603 0.55192113 -1.3870277 7.7415673e-39
2.8822415 0.56264585 -1.4107281 5.1435613e-39
2.8835585 0.58561099 -1.4051398 7.2841554e-39
2.8306577 0.62023848 -1.38548 9.0330684e-39
2.8547094 0.61830336 -1.4054884 6.7227406e-39
2.8822415 0.60857612 -1.4107281 6.7310041e-39
2.8293643 0.64279264 -1.3909682 8.5630491e-39
2.8019407 0.67626792 -1.3896269 1.0877293e-38
2.8300109 0.67380464 -1.3882242 1.1896472e-38
2.8019407 0.69303489 -1.3896269 1.0680269e-38
2.8297954 0.70669603 -1.3891388 1.0132544e-38
2.8564496 0.72830826 -1.3981041 1.0868625e-38
2.8835585 0.74636698 -1.4051398 9.6740377e-39
2.9100266 0.76752752 -1.4148948 1.1143058e-38
2.9387698 0.78334683 -1.4193569 1.3079889e-38
2.9705026 0.79072297 -1.4154912 1.4461343e-38
3.0009451 0.7980991 -1.4171013 1.3814548e-38
2.944134 0.44428623 -1.396597 1.3170978e-38
2.9186642 0.45568928 -1.3782467 8.5774166e-39
2.944134 0.4735156 -1.396597 4.9699334e-39
2.8384187 0.53002203 -1.3525511 5.0514455e-39
2.8616707 0.52916145 -1.3759514 1.2912757e-38
2.8375564 0.56009418 -1.3562099 4.0473003e-39
2.862541 0.55002451 -1.3722594 4.4193044e-39
2.8375564 0.5864073 -1.3562099 6.9031956e-39
2.8616707 0.58606052 -1.3759514 5.8008011e-39
2.7859993 0.62041837 -1.3395671 7.6227694e-39
2.8096335 0.61478901 -1.3569871 7.7365212e-39
2.8351848 0.61741924 -1.3662716 9.3089336e-39
2.8109157 0.64832294 -1.3515472 6.4551262e-39
2.8332448 0.64843118 -1.3745037 4.972118e-39
2.8109155 0.67067891 -1.3515472 6.7252363e-39
2.8347969 0.6811347 -1.367918 6.9093053e-39
2.8358316 0.70481652 -1.3635274 8.0131025e-39
2.8629761 0.72830826 -1.3704133 1.0127806e-38
2.8888266 0.74636698 -1.3827872 1.0034539e-38
2.9173353 0.75883853 -1.3838848 1.4278377e-38
2.947263 0.76775783 -1.3833205 1.2709986e-38
3.005044 0.7980991 -1.3997097 1.353508e-38
3.0351222 0.81774676 -1.4072247 1.2616392e-38
2.872113 0.47795233 -1.3316461 3.5960079e-39
2.8134797 0.5030092 -1.3406674 1.1612692e-38
2.8439159 0.4976005 -1.3292264 6.4486802e-39
2.8168991 0.51791316 -1.3261608 7.9230634e-39
2.8427303 0.526263 -1.3342572 7.4545561e-39
2.8186083 0.5588991 -1.3189076 1.9002669e-38
2.8435926 0.55116647 -1.3305985 9.2167422e-39
2.8165569 0.58796179 -1.3276116 1.1796737e-38
2.8435926 0.57513028 -1.3305985 9.7666593e-39
2.8163643 0.61478901 -1.3284276 6.5383479e-39
2.7936239 0.65365505 -1.3072166 6.1681179e-39
2.8157232 0.64692575 -1.3311474 4.7902407e-39
2.8165569 0.67515004 -1.3276116 6.5491491e-39
2.8173261 0.6986239 -1.3243475 5.068973e-39
2.8461795 0.71045506 -1.319622 5.6153028e-39
2.842299 0.72173208 -1.3360866 7.8254322e-39
2.898046 0.73488438 -1.3436699 6.1637963e-39
2.9266372 0.75883853 -1.3444175 5.0585487e-39
2.9508393 0.76580918 -1.3681471 7.2683277e-39
2.9548624 0.78334683 -1.3510772 9.5721017e-39
3.0091429 0.81001103 -1.3823184 1.4187648e-38
2.8513534 0.47363672 -1.2976694 6.9322557e-39
2.8773339 0.46657246 -1.3094934 5.5252988e-39
2.9033144 0.45930272 -1.3213172 6.4367846e-39
2.85006 0.49619079 -1.3031576 4.052331e-39
2.8211725 0.51418716 -1.3080277 4.0519554e-39
2.85006 0.52438349 -1.3031576 3.8689893e-39
2.85006 0.55257612 -1.3031576 3.7771496e-39
2.8237364 0.58684403 -1.2971478 3.1325116e-39
2.85006 0.57513028 -1.3031576 4.3299716e-39
2.8237364 0.61478901 -1.2971478 4.0519554e-39
2.7974362 0.65365505 -1.2910415 4.8809622e-39
2.8237364 0.64273399 -1.2971478 4.0544581e-39
2.7746041 0.67548442 -1.2745776 5.154717e-39
2.7968009 0.67304313 -1.2937374 4.9720984e-39
2.798707 0.69797069 -1.2856498 5.0607053e-39
2.8263009 0.70421284 -1.2862679 5.2447308e-39
2.85006 0.72173208 -1.3031576 4.3252633e-39
2.9033144 0.74636698 -1.3213172 3.6842687e-39
2.9319525 0.74146056 -1.3218647 5.5205694e-39
2.9306238 0.75883853 -1.3275028 5.4326982e-39
2.9588854 0.77165508 -1.3340073 5.1532134e-39
2.8591144 0.43980548 -1.2647405 8.1150161e-39
2.882555 0.44381285 -1.2873406 8.3872926e-39
2.8570447 0.4691259 -1.2735214 5.1582932e-39
2.8838603 0.45519266 -1.2818024 5.9768799e-39
2.8565273 0.49619088 -1.2757168 3.9608304e-39
2.8565273 0.52438349 -1.2757168 3.6860399e-39
2.8314297 0.5588991 -1.2645081 4.145579e-39
2.8565273 0.54693758 -1.2757167 4.3274577e-39
2.8063314 0.59826052 -1.2532995 4.3292598e-39
2.8314292 0.58125502 -1.264508 4.0533931e-39
2.8314292 0.6161862 -1.264508 4.421091e-39
2.8037899 0.63888317 -1.2640829 4.1466383e-39
2.8317955 0.65151674 -1.2629538 3.8664823e-39
2.7771237 0.67548442 -1.2638869 6.6330687e-39
2.8031545 0.67304313 -1.2667787 4.6026307e-39
2.8322845 0.67440492 -1.2608815 6.5391355e-39
2.8591144 0.6879009 -1.2647405 1.8625305e-38
2.8037899 0.69797069 -1.2640829 4.9649602e-39
2.8327115 0.69862384 -1.2590683 1.3552403e-38
2.8642883 0.43980548 -1.2427878 9.323594e-39
2.8903866 0.44381285 -1.2541116 9.3128292e-39
2.8642883 0.46799818 -1.2427878 3.9604758e-39
2.8903866 0.45519266 -1.2541116 4.4153359e-39
2.8639648 0.49619085 -1.2441599 4.1437741e-39
2.8382676 0.53281713 -1.2354951 3.6842435e-39
2.8625636 0.52250397 -1.2501054 3.5931282e-39
2.8378401 0.5533101 -1.2373084 3.7796705e-39
2.8378398 0.58125502 -1.2373084 3.8707955e-39
2.8668752 0.5864073 -1.2318115 4.4232364e-39
2.8365581 0.61478901 -1.2427484 4.5100469e-39
2.8378401 0.64273393 -1.2373084 1.3451937e-38
2.8617013 0.67662382 -1.2537642 2.0552758e-38
2.8912568 0.67520243 -1.2504195 1.7875899e-38
2.8617013 0.69917798 -1.2537642 1.9811993e-38
2.8903866 0.69416887 -1.2541116 1.8893273e-38
2.8707557 0.43980548 -1.2153471 7.1855194e-39
2.8707557 0.46235964 -1.2153471 3.5938415e-39
2.8442509 0.49555719 -1.2101086 3.9615632e-39
2.8707557 0.49337155 -1.2153471 3.9622681e-39
2.843823 0.52350217 -1.211922 3.8697137e-39
2.8694623 0.51874495 -1.2208352 3.869334e-39
2.8425412 0.55144709 -1.2173619 3.9622667e-39
2.8710144 0.55257618 -1.2142494 4.3296017e-39
2.9008288 0.56899083 -1.2098063 4.0519428e-39
2.8416862 0.58125502 -1.2209886 4.3310688e-39
2.8694623 0.58640736 -1.2208352 4.4225148e-39
2.8982182 0.58606052 -1.2208827 4.4232294e-39
2.9270213 0.59135228 -1.2207301 3.9626184e-39
2.9257042 0.61431742 -1.2263182 5.1568484e-39
2.9532139 0.61402202 -1.2316538 4.5154265e-39
2.8493791 0.43594128 -1.188349 7.0926119e-39
2.8752828 0.46235961 -1.1961384 3.7803964e-39
2.9034393 0.47795233 -1.19873 1.7474654e-39
2.8519435 0.5030092 -1.177469 5.8976434e-39
2.8754985 0.49243179 -1.1952238 4.4229071e-39
2.9034393 0.48933214 -1.19873 2.7634867e-40
2.851943 0.51977617 -1.177469 6.0816844e-39
2.8545074 0.54772109 -1.1665891 4.9749304e-39
2.8767056 0.55032074 -1.1901014 5.06788e-39
2.9047446 0.55761099 -1.1931918 5.4399009e-39
2.9305334 0.5894385 -1.2058283 4.6976695e-39
2.9558716 0.61402202 -1.2203776 4.6976513e-39
2.9857063 0.6138165 -1.2202078 4.6040151e-39
2.8583539 0.51977617 -1.1502693 7.1877096e-39
2.8842449 0.55257612 -1.1581132 5.4327192e-39
2.9651735 0.59085137 -1.1809102 4.9728159e-39
2.8622003 0.5030092 -1.1339495 1.9336742e-39
2.8368294 0.52070826 -1.123898 7.5784869e-39
2.8630552 0.52536511 -1.1303228 8.5821544e-39
2.8901579 0.5412991 -1.1330245 8.4676416e-39
