# .PCD v0.7 - Point Cloud Data file format
VERSION 0.7
FIELDS x y z rgb
SIZE 4 4 4 4
TYPE F F F F
COUNT 1 1 1 1
WIDTH 153
HEIGHT 1
VIEWPOINT 0 0 0 1 0 0 0
POINTS 153
DATA ascii
2.8254838 0.67662388 -1.4074327 6.5315334e-39
2.8241904 0.7668404 -1.412921 1.1421837e-38
2.7720211 0.79491103 -1.3988761 8.2904292e-39
2.8241904 0.7893945 -1.4129208 1.5226298e-38
2.7968123 0.82158166 -1.4113867 1.0413448e-38
2.7980943 0.84952658 -1.4059467 1.2335867e-38
2.9133487 0.56768078 -1.4007994 6.7981052e-39
2.8551445 0.6258899 -1.4036423 9.6776573e-39
2.8280709 0.63151556 -1.3964565 1.6686738e-38
2.8555796 0.64485621 -1.4017962 1.4752789e-38
2.829623 0.67887926 -1.3898706 7.7329339e-39
2.8848755 0.66598898 -1.3995517 1.8408858e-40
2.8293643 0.70481652 -1.3909682 6.7162918e-39
2.805146 0.74054128 -1.376027 7.0054582e-39
2.8287175 0.73018992 -1.3937123 1.0403349e-38
2.8049326 0.76755476 -1.3769337 8.5742118e-39
2.8280709 0.76684034 -1.3964565 7.4391054e-39
2.7519274 0.79447222 -1.3707929 7.6489989e-39
2.7758334 0.80875969 -1.3827008 8.9084341e-39
2.8037357 0.78916556 -1.3820109 8.7485361e-39
2.7758334 0.81983852 -1.3827008 1.2276042e-38
2.8019407 0.83275962 -1.3896269 1.1057701e-38
2.8297954 0.84953886 -1.3891388 9.9369479e-39
2.8538392 0.86486602 -1.4091804 9.771299e-39
2.8848755 0.87267518 -1.3995517 1.2058194e-38
2.9387698 0.90026426 -1.4193569 1.5008771e-38
2.8384187 0.55821466 -1.3525511 4.9692398e-39
2.8616707 0.56899083 -1.3759514 2.1215505e-39
2.8373837 0.5864073 -1.3569416 5.8021954e-39
2.8616707 0.59175044 -1.3759514 4.4085144e-39
2.8358316 0.61459994 -1.3635274 1.0869359e-38
2.8109155 0.65950096 -1.3515472 8.9229389e-39
2.8354006 0.63903362 -1.3653568 7.2770284e-39
2.8109155 0.67626786 -1.3515472 8.654296e-39
2.8332448 0.67662382 -1.3745037 3.7711002e-39
2.8102744 0.7014184 -1.3542672 1.2451836e-38
2.8332448 0.71045506 -1.3745037 6.3403781e-39
2.7843051 0.7349003 -1.346756 5.7925222e-39
2.8096335 0.72656882 -1.3569871 1.107285e-38
2.8332448 0.72173208 -1.3745037 1.0304755e-38
2.7834578 0.76444405 -1.3503505 5.3412607e-39
2.7305193 0.78394127 -1.3482871 5.7078726e-39
2.7578065 0.79447222 -1.3458481 6.1706206e-39
2.7843051 0.80137378 -1.346756 4.9699348e-39
2.7569666 0.812778 -1.3494116 1.2914954e-38
2.7859993 0.81983852 -1.3395671 6.3399479e-39
2.8083513 0.82717061 -1.3624271 1.0607873e-38
2.8345382 0.84577984 -1.3690156 1.0775654e-38
2.8668919 0.86486602 -1.3537987 1.2892551e-38
2.8901436 0.87650269 -1.3771991 1.427481e-38
2.9160063 0.89206976 -1.389523 1.3352143e-38
2.8173261 0.53654313 -1.3243475 1.2897977e-38
2.8173261 0.5533101 -1.3243475 5.3405446e-39
2.816685 0.57846051 -1.3270675 5.0660975e-39
2.8451447 0.58866274 -1.3240126 5.9927342e-39
2.8173258 0.61478901 -1.3243475 4.2352719e-39
2.7645257 0.65900922 -1.3173399 2.2590005e-38
2.7923532 0.65365505 -1.3126084 5.4370507e-39
2.8156774 0.64512926 -1.3313417 9.8620485e-39
2.7923532 0.6758129 -1.3126085 3.495916e-39
2.8134797 0.68185687 -1.3406674 2.056639e-38
2.7670453 0.69195962 -1.3066493 5.5141235e-40
2.7923532 0.70904958 -1.3126084 3.128176e-39
2.8134799 0.70421284 -1.3406674 1.493205e-38
2.7430079 0.74038899 -1.2952986 4.4210854e-39
2.7645257 0.73589367 -1.3173399 4.8860349e-39
2.7910824 0.72012848 -1.3180002 4.3235242e-39
2.7430079 0.75672114 -1.2952986 3.7800208e-39
2.7630138 0.76664734 -1.3237543 4.7012807e-39
2.7430079 0.78394127 -1.2952986 4.5979615e-39
2.7645257 0.7963028 -1.3173399 6.5534707e-39
2.7898116 0.7866019 -1.3233919 8.8428463e-39
2.7670453 0.812778 -1.3066493 6.5350689e-39
2.7885408 0.81983852 -1.3287836 6.9031452e-39
2.8147619 0.83834863 -1.3352275 1.0032362e-38
2.8435926 0.85141838 -1.3305985 6.7097912e-39
2.872113 0.86486602 -1.3316461 5.6999931e-39
2.798707 0.54286605 -1.2856498 5.806552e-39
2.8230956 0.5561046 -1.2998679 5.2516042e-39
2.8250186 0.58125502 -1.2917079 4.6069214e-39
2.8237364 0.61478895 -1.2971478 4.4175023e-39
2.798707 0.65365505 -1.2856498 4.7895106e-39
2.8233702 0.64512926 -1.298702 4.4203652e-39
2.7974362 0.6758129 -1.2910416 4.69625e-39
2.7727144 0.69745135 -1.2825955 4.6036788e-39
2.7974362 0.70904958 -1.2910415 5.0639353e-39
2.7467546 0.74038899 -1.279402 3.8725892e-39
2.7724442 0.73275554 -1.2837409 4.2381445e-39
2.7961655 0.72012848 -1.2964332 4.6937249e-39
2.7467546 0.75672114 -1.279402 3.8722263e-39
2.7727144 0.77708167 -1.2825955 4.3321226e-39
2.7465048 0.79265177 -1.2804618 5.3408936e-39
2.7746041 0.7963028 -1.2745776 7.5589416e-39
2.7720845 0.812778 -1.2852682 5.3369265e-39
2.798707 0.81983852 -1.2856498 4.4178484e-39
2.8237367 0.83275962 -1.2971479 6.5343767e-39
2.8037899 0.54286605 -1.2640829 8.0984598e-39
2.8320704 0.5561046 -1.2617882 5.812289e-39
2.8314292 0.58125502 -1.264508 3.9590437e-39
2.8314292 0.61478901 -1.264508 3.6853309e-39
2.8048065 0.64700776 -1.2597694 3.8704214e-39
2.8288651 0.64273393 -1.275388 3.6860357e-39
2.7809031 0.67548442 -1.2478511 3.9615548e-39
2.8027732 0.67138129 -1.2683963 4.2370613e-39
2.7542477 0.7131688 -1.2476088 4.511863e-39
2.7792833 0.69980496 -1.2547237 4.0533819e-39
2.7542477 0.72950089 -1.2476088 3.9637254e-39
2.7783835 0.73589361 -1.2585417 4.1459405e-39
2.75175 0.75127709 -1.2582066 4.9728243e-39
2.7796433 0.76335227 -1.2531964 3.9590829e-39
2.8054843 0.76075107 -1.2568939 7.4635833e-39
2.8339937 0.76569176 -1.2536283 1.8345452e-38
2.8022649 0.79546499 -1.270553 7.550021e-39
2.832968 0.79587233 -1.2579802 2.0736084e-38
2.8314297 0.81599265 -1.2645081 1.9078355e-38
2.8365579 0.53654313 -1.2427484 1.2716131e-38
2.8378401 0.5533101 -1.2373084 3.3165386e-39
2.8378398 0.58125502 -1.2373084 3.7775265e-39
2.813956 0.62041837 -1.2209491 4.1448699e-39
2.8375835 0.61255336 -1.2383964 4.0530288e-39
2.7863622 0.65534806 -1.2246882 4.5132853e-39
2.8114145 0.6411913 -1.2317325 3.6874805e-39
2.7859423 0.67548442 -1.22647 4.513644e-39
2.813956 0.6758129 -1.2209491 3.4116096e-39
2.7579944 0.7131688 -1.2317122 4.5132867e-39
2.7853124 0.70019722 -1.2291425 4.2381431e-39
2.8131087 0.7053566 -1.2245436 4.6987555e-39
2.7579944 0.72950089 -1.2317122 3.2247171e-39
2.7846825 0.73040187 -1.2318152 4.5990447e-39
2.8375835 0.73551118 -1.2383964 6.4472187e-39
2.8668752 0.73300916 -1.2318115 6.3518211e-39
2.8365579 0.77128077 -1.2427484 1.9064701e-38
2.8629949 0.7612018 -1.248276 1.3083849e-38
2.8365579 0.78245872 -1.2427484 1.8977893e-38
2.8617013 0.80067158 -1.2537642 2.0272597e-38
2.9164848 0.78655595 -1.2654355 1.7138986e-38
2.9736369 0.80673033 -1.2714176 9.9524603e-39
2.9425833 0.81097251 -1.2767594 2.0185414e-38
2.9736369 0.81842202 -1.2714176 9.4028346e-39
2.8416862 0.53654313 -1.2209886 1.0426731e-38
2.8425412 0.5551731 -1.2173619 4.513623e-39
2.8429682 0.58125502 -1.2155486 4.97356e-39
2.8720491 0.59204584 -1.2098588 3.2233032e-39
2.8177681 0.62041837 -1.2047739 4.6062082e-39
2.8429685 0.6092 -1.2155486 5.0661185e-39
2.8720491 0.60896146 -1.2098588 2.6705386e-39
2.8171327 0.64534593 -1.2074698 4.5140027e-39
2.8468149 0.67067891 -1.1992288 5.1586435e-39
2.8416862 0.71539086 -1.2209886 5.9858832e-39
2.9505563 0.79938722 -1.2429302 6.171013e-39
2.951885 0.81097251 -1.2372921 6.3539483e-39
2.8759296 0.59768438 -1.1933944 8.7571415e-39
2.8215804 0.65365505 -1.1885988 4.7934581e-39
