# .PCD v0.7 - Point Cloud Data file format
VERSION 0.7
FIELDS x y z
SIZE 4 4 4
TYPE F F F
COUNT 1 1 1
WIDTH 198
HEIGHT 1
VIEWPOINT 0 0 0 1 0 0 0
POINTS 198
DATA ascii
2.258908 -0.073618345 -1.3441041
2.2308362 0.036374312 -1.332461
2.283736 0.055750459 -1.3434153
2.2653732 0.073805504 -1.3428417
2.2583272 -0.091926605 -1.333546
2.3094797 -0.073703803 -1.340722
2.3089435 -0.053933032 -1.3400415
2.2153256 0.02106422 -1.3198541
2.2628038 0.027611008 -1.3276677
2.2858789 0.02787523 -1.334374
2.3062706 0.014042202 -1.3307234
2.2612395 0.044818345 -1.3212589
2.2858789 0.037166975 -1.334374
2.2371278 0.068201832 -1.3059157
2.2639701 0.075963303 -1.3292491
2.2685647 0.092256874 -1.3293763
2.2434196 -0.063655041 -1.2793704
2.2352717 -0.040755965 -1.2747238
2.2597158 -0.0549578 -1.2886636
2.2427206 -0.02121835 -1.2823199
2.2586596 -0.009159633 -1.29312
2.2637858 0.016078899 -1.2910031
2.2923079 0.018583488 -1.3072501
2.3095093 0.0093614683 -1.3170598
2.2382967 0.04538532 -1.2814713
2.2576034 0.036638532 -1.2975764
2.2321334 0.072484404 -1.2879643
2.2352717 0.10422936 -1.2747238
2.2264297 0.13240367 -1.2730052
2.2681656 -0.091596328 -1.2530129
2.2367299 -0.072418347 -1.2555637
2.2349122 -0.04521101 -1.2545598
2.2421689 -0.018157799 -1.258633
2.2172468 0.020918654 -1.2380377
2.2330661 0.011284404 -1.2547605
2.2155731 0.048667897 -1.2450995
2.2305937 0.039119262 -1.255437
2.2149289 0.070906088 -1.2478186
2.2292056 0.08124771 -1.2612931
2.2312872 0.10381651 -1.2525089
2.2154551 0.13537359 -1.2455981
2.2148347 0.15957947 -1.2482151
2.2312877 0.17152293 -1.2525089
2.2497113 0.18187155 -1.2528251
2.2508576 -0.095317431 -1.2284771
2.2375336 -0.072220184 -1.2261565
2.2375336 -0.045137618 -1.2261565
2.223105 -0.0089651383 -1.2133212
2.2372365 -0.020634338 -1.2274113
2.2055819 0.017805506 -1.2135409
2.2218127 0.01008578 -1.2187734
2.2220712 0.044825692 -1.217683
2.2220714 0.076203667 -1.217683
2.2220712 0.10758166 -1.217683
2.2220712 0.13447708 -1.217683
2.2225881 0.16137248 -1.2155021
2.2364926 0.17152293 -1.2305485
2.2364926 0.18055046 -1.2305485
2.2506502 -0.093504585 -1.1968312
2.282953 -0.10075597 -1.190624
2.318023 -0.10220918 -1.1987551
2.3549867 -0.099027522 -1.2075689
2.2272403 -0.085168809 -1.1958743
2.2504175 -0.071393274 -1.1978145
2.2818966 -0.064117432 -1.1950803
2.318023 -0.065042205 -1.1987551
2.3549867 -0.075449541 -1.2075689
2.2505133 -0.044443037 -1.1997727
2.2865407 -0.048187159 -1.1949987
2.318023 -0.055750459 -1.1987551
2.2268956 -0.023907034 -1.1973282
2.2456303 -0.016048931 -1.1919957
2.2117419 0.021144038 -1.1875527
2.2277572 0.0044825692 -1.1936934
2.2437797 0 -1.1998039
2.2133551 0.044513762 -1.1807463
2.2262063 0.044825688 -1.2002361
2.2133551 0.071222022 -1.1807462
2.227447 0.082479268 -1.195002
2.2282741 0.10758166 -1.1915126
2.2148213 0.12463854 -1.1745585
2.2280157 0.13559772 -1.1926031
2.2282743 0.16585506 -1.1915127
2.266489 -0.090935774 -1.1820377
2.3015442 -0.092256874 -1.1902331
2.3578868 -0.097455658 -1.1953329
2.2671883 -0.078811005 -1.1790882
2.3493278 -0.075226419 -1.1984917
2.3850069 -0.07815706 -1.1979822
2.4172091 -0.070749842 -1.20087
2.447793 -0.073165134 -1.2019136
2.4786072 -0.074036703 -1.2063209
2.2933047 -0.041383483 -1.1859721
2.3201659 -0.041812845 -1.1897138
2.3467093 -0.046946786 -1.1930627
2.392206 -0.045386236 -1.1979607
2.4168382 -0.053062383 -1.2024347
2.438587 -0.053466052 -1.1973935
2.2607396 -0.016342018 -1.1750767
2.2937756 -0.018385321 -1.1761816
2.3233802 -0.018583488 -1.176152
2.3418944 -0.028084405 -1.1804233
2.3892636 -0.028612845 -1.1886955
2.2072411 0.021522937 -1.1538898
2.2348216 0.0089651374 -1.1638883
2.2645085 0.0036242201 -1.1591752
2.2173879 0.046739452 -1.16373
2.2361999 0.044825688 -1.1580727
2.2634852 0.040772475 -1.1556877
2.2179015 0.071222022 -1.1615645
2.2367516 0.078893207 -1.1557465
2.2209811 0.11573578 -1.1485703
2.2354169 0.10676665 -1.1613771
2.218586 0.13650888 -1.1586769
2.2368891 0.1314887 -1.155165
2.2355108 0.16137248 -1.1609807
2.2500255 0.18055046 -1.1734514
2.4808838 -0.069100916 -1.1967155
2.4201758 -0.038590826 -1.1883532
2.4531147 -0.048874617 -1.1939138
2.4808838 -0.059229359 -1.1967155
2.3505981 -0.015648929 -1.1711631
2.383353 -0.019001834 -1.1702725
2.422401 -0.024119265 -1.1789656
2.4430709 -0.029163303 -1.1784755
2.2230344 0.017805506 -1.1399075
2.2562716 0.022568807 -1.147099
2.305048 0.01473468 -1.1598409
2.3273089 0.018583486 -1.1595764
2.3544102 0.0093788989 -1.1688104
2.3942149 0.026237614 -1.1678056
2.268676 0.051398162 -1.1467956
2.3012569 0.043656878 -1.1524209
2.3287377 0.041812845 -1.1535488
2.3985658 0.044557795 -1.1639017
2.2415068 0.082479268 -1.1356825
2.2573125 0.067706421 -1.1427069
2.2432642 0.1008578 -1.1282676
2.2579372 0.11374678 -1.1400716
2.2434366 0.13447708 -1.1275406
2.2573125 0.13089909 -1.1427069
2.2406797 0.15240735 -1.1391718
2.4083886 0.028722936 -1.1513642
2.429076 0.02894312 -1.1508027
2.409272 0.045956694 -1.1476377
2.2302206 0.089027524 -1.1095879
2.2333004 0.1112844 -1.0965939
2.2468824 0.10309909 -1.1130016
2.2176507 0.12818532 -1.0889094
2.2468824 0.12999451 -1.1130016
2.2345324 0.1655912 -1.0913962
2.24895 0.17033762 -1.1042781
2.2247865 0.088403665 -1.0588022
2.2080741 0.10533577 -1.0556011
2.222136 0.10962055 -1.0699848
2.4194293 0.11010459 -1.1047832
2.2221363 0.13172147 -1.0699849
2.4194293 0.13404037 -1.1047832
2.440201 0.13989174 -1.1038646
2.2295675 0.15526789 -1.0754868
2.2537746 0.173326 -1.0839233
2.4194293 0.16755044 -1.1047832
2.4390886 0.1543633 -1.1085584
2.3263674 0.19988991 -1.0855016
2.4194293 0.18191192 -1.1047832
2.3249488 0.21219082 -1.0914862
2.3458812 0.22300184 -1.0812187
2.4238453 0.086168803 -1.0861508
2.2100987 0.10094678 -1.0470598
2.4217789 0.10522773 -1.0852336
2.4242871 0.12829578 -1.0842875
2.4435387 0.14471559 -1.0897832
2.4238453 0.16755044 -1.0861508
2.4435387 0.1543633 -1.0897832
2.3308001 0.20065872 -1.0667995
2.350167 0.19140992 -1.0631362
2.385438 0.18862385 -1.0790915
2.4227414 0.18191192 -1.0908089
2.331332 0.21219082 -1.0645553
2.3507028 0.2206789 -1.0608759
2.4282615 0.086168803 -1.0675184
2.4262633 0.10519511 -1.0614964
2.4293656 0.12446605 -1.0628603
2.3409066 0.17528807 -1.024159
2.3587387 0.16725138 -1.0269712
2.3742797 0.16382569 -1.0437868
2.3398428 0.19604586 -1.0286474
2.3544528 0.19048074 -1.0450537
2.3412611 0.22449173 -1.0226628
2.35606 0.21603304 -1.0382727
2.3399172 0.17179449 -1.0023181
2.3608816 0.16725138 -1.0179299
2.34463 0.19143303 -1.0084492
2.3630245 0.19977249 -1.0088887
2.3829157 0.20595232 -1.0073503
2.3440981 0.22602935 -1.0106934
2.3624887 0.2206789 -1.011149
2.3829157 0.21999452 -1.0073503
