# .PCD v0.7 - Point Cloud Data file format
VERSION 0.7
FIELDS x y z rgb
SIZE 4 4 4 4
TYPE F F F F
COUNT 1 1 1 1
WIDTH 118
HEIGHT 1
VIEWPOINT 0 0 0 1 0 0 0
POINTS 118
DATA ascii
2.5436869 -0.22419816 -1.3453938 8.287607e-39
2.5160699 -0.19035806 -1.3496892 8.2940082e-39
2.5204003 -0.16675596 -1.3441107 1.0412704e-38
2.5204003 -0.12127706 -1.3441107 6.2607003e-39
2.5418971 -0.13451889 -1.3533475 8.5695146e-39
2.5204003 -0.11117064 -1.3441107 6.5405031e-39
2.5414493 -0.10530519 -1.355336 7.6371271e-39
2.5638385 -0.046222016 -1.3560524 7.8362614e-39
2.5200248 -0.21435688 -1.3218663 1.1058787e-38
2.5481615 -0.22419816 -1.3255094 1.031985e-38
2.5141385 -0.19119145 -1.3187971 8.9418929e-39
2.5253928 -0.16928256 -1.321926 9.310681e-39
2.5466697 -0.15625931 -1.3321376 8.6649585e-39
2.5226192 -0.12127706 -1.3342508 9.0301172e-39
2.5503988 -0.14267156 -1.3155673 7.4797388e-39
2.5675969 -0.13524221 -1.3393507 8.7560751e-39
2.6128502 -0.1252844 -1.3477814 8.5698888e-39
2.5226192 -0.11117064 -1.3342508 8.577034e-39
2.547416 -0.098511308 -1.3288236 1.0595267e-38
2.5698519 -0.10956331 -1.3293298 8.5698636e-39
2.5481615 -0.078978896 -1.3255094 1.0875818e-38
2.5683486 -0.065737978 -1.3360105 9.6744091e-39
2.5683486 -0.041086238 -1.3360105 9.2155987e-39
2.5940006 -0.041423853 -1.3267821 9.6755091e-39
2.5683486 -0.020543119 -1.3360103 8.8486183e-39
2.5917268 -0.010355963 -1.3368853 9.027962e-39
2.5968614 0.0083016511 -1.3350234 9.3049189e-39
2.5940006 0.031067891 -1.3267821 8.6638374e-39
2.637203 0.036849543 -1.3488796 9.9513505e-39
2.4919684 -0.21886973 -1.2745947 8.5835711e-39
2.5116405 -0.21312387 -1.2873844 7.9281193e-39
2.4919684 -0.19897246 -1.2745947 9.6794663e-39
2.5114572 -0.18721467 -1.2881998 9.4007243e-39
2.5229113 -0.16113763 -1.2904401 9.4940101e-39
2.5337131 -0.1364367 -1.2849516 9.8653149e-39
2.5533817 -0.13248073 -1.3023109 9.2181561e-39
2.5728586 -0.12325872 -1.3159685 9.3024344e-39
2.5571108 -0.10700367 -1.2857406 9.9470499e-39
2.5744693 -0.10124823 -1.3088107 9.026181e-39
2.6008213 -0.093203671 -1.2964722 1.022685e-38
2.5751138 -0.071900919 -1.3059475 8.3876387e-39
2.6008213 -0.082847707 -1.2964722 9.1259114e-39
2.5751138 -0.042798165 -1.3059475 8.9386475e-39
2.5974109 -0.036245871 -1.3116271 8.9382831e-39
2.5739863 -0.020543119 -1.310958 8.4819993e-39
2.5990024 -0.014498348 -1.3045548 9.0286991e-39
2.5751138 0.020543119 -1.3059475 9.4925569e-39
2.5985479 0.0090614678 -1.3065755 9.6765839e-39
2.5773687 0.030814679 -1.2959266 9.7684208e-39
2.5974109 0.036245871 -1.3116271 1.0500934e-38
2.4941525 -0.21886973 -1.2648889 6.5430591e-39
2.4952447 -0.19399816 -1.2600359 8.6649389e-39
2.5165949 -0.18052843 -1.2653688 8.8485944e-39
2.5333958 -0.16144073 -1.2672312 8.0195779e-39
2.5604668 -0.15286238 -1.2708273 3.3172462e-39
2.5333121 -0.12988898 -1.26282 7.3677457e-39
2.5593481 -0.14267156 -1.2757984 6.2667651e-39
2.5403695 -0.11117064 -1.255372 9.4863912e-39
2.5610261 -0.10700367 -1.2683418 1.0041755e-38
2.5830064 -0.097579814 -1.2708741 7.3731449e-39
2.563823 -0.040763304 -1.255914 6.4715747e-40
2.5812347 -0.039618872 -1.2787478 8.6613291e-39
2.5830064 -0.01540734 -1.2708741 7.9277213e-39
2.5832319 0.010271559 -1.2698721 9.3996088e-39
2.6061261 0.0069039757 -1.2728978 4.3306709e-39
2.5615854 0.030572476 -1.2658563 9.4014333e-39
2.5818789 0.030814679 -1.2758846 1.0044622e-38
2.5682976 -0.035667889 -1.2360296 3.129255e-39
2.5875165 -0.030814679 -1.2508322 2.6700663e-39
2.5705349 -0.020381652 -1.2260875 2.6725859e-39
2.5881929 -0.014380184 -1.247826 3.0352489e-39
2.5890951 0.012325871 -1.2438176 3.1288921e-39
2.6110525 0.010355963 -1.2510073 3.5909324e-39
2.5875165 0.030814679 -1.2508322 3.8589265e-39
2.5750093 -0.030572476 -1.206203 3.2178521e-39
2.5750093 -0.020381652 -1.206203 5.8097512e-39
2.5954092 -0.010271559 -1.2157589 6.5387025e-39
2.5750096 0.020381652 -1.2062031 2.7592688e-40
2.5954092 0.0051357797 -1.2157589 5.0675423e-39
2.5397146 -0.15044038 -1.1626297 2.3034656e-39
2.5592294 -0.1364367 -1.1715633 1.6573675e-39
2.5828402 -0.1222899 -1.1714053 6.454057e-39
2.5603387 -0.10106421 -1.1666334 1.0513184e-38
2.5832129 -0.098511316 -1.1697483 7.2831311e-39
2.5839589 -0.081526607 -1.1664343 1.8421021e-39
2.5839589 -0.040763304 -1.1664343 3.3111197e-39
2.6021743 -0.030814679 -1.185696 2.7593921e-39
2.5817215 -0.010190826 -1.1763765 3.4947837e-39
2.5999193 -0.015407339 -1.195717 1.377929e-39
2.5559011 0.020212844 -1.1863531 1.0880168e-38
2.5806029 0.020381652 -1.1813475 6.4486382e-39
2.6010468 0.0051357797 -1.1907065 4.9735095e-39
2.55812 0.030319266 -1.1764932 7.0233934e-39
2.5625575 -0.15159634 -1.1567736 2.4878429e-39
2.5644064 -0.13138348 -1.1485569 3.9615352e-39
2.5884335 -0.13248073 -1.1465498 4.9731732e-39
2.5625575 -0.10106421 -1.1567736 1.0696494e-38
2.5884337 -0.10190825 -1.1465498 9.4046899e-39
2.5538969 -0.065441281 -1.1474332 2.6704265e-39
2.5888066 -0.074732721 -1.1448929 2.6736607e-39
2.6111946 -0.061629359 -1.1456121 2.9509972e-39
2.5538969 -0.050339445 -1.1474332 2.2101798e-39
2.6089394 -0.047933947 -1.1556331 2.2112518e-39
2.6375301 -0.038084406 -1.1682671 2.2098084e-39
2.5312831 -0.12933211 -1.0998884 3.2300658e-39
2.5692139 -0.12127706 -1.1271939 7.4648991e-39
2.5312831 -0.11440918 -1.0998884 9.4900192e-39
2.5529258 -0.10029358 -1.1039218 1.0876216e-38
2.5940268 -0.091717429 -1.1216943 6.361179e-39
2.6134496 -0.082172476 -1.1355911 3.7735188e-39
2.6349249 -0.067313761 -1.1449226 3.9622359e-39
2.4776618 -0.1263743 -1.0557663 1.2907338e-38
2.4963682 -0.11753394 -1.0637374 1.1615195e-38
2.5170934 -0.10365137 -1.0672916 1.1336834e-38
2.5334673 -0.11440918 -1.0901825 8.5742006e-39
2.5367436 -0.089537613 -1.0756236 1.1244972e-38
2.4985185 -0.11753394 -1.0541818 1.2436689e-38
2.5212111 -0.11056147 -1.0489932 1.1610191e-38
