# .PCD v0.7 - Point Cloud Data file format
VERSION 0.7
FIELDS x y z
SIZE 4 4 4
TYPE F F F
COUNT 1 1 1
WIDTH 122
HEIGHT 1
VIEWPOINT 0 0 0 1 0 0 0
POINTS 122
DATA ascii
1.983964 -0.032836698 -1.3249553
2.00014 -0.033056881 -1.3217808
2.0019431 -0.016539857 -1.3276376
2.0033236 0.012404893 -1.3285562
1.9991825 0.041321103 -1.3258004
2.0449905 0.059005503 -1.3276931
2.0563791 0.059390824 -1.3446169
2.0050592 0.079320572 -1.3270215
2.0449905 0.067434862 -1.3276931
2.0583451 0.067875229 -1.3363634
2.0889328 0.060187154 -1.3417355
2.0111818 0.1035156 -1.3303518
2.0070202 0.13853137 -1.3291478
2.0135379 0.16492599 -1.3259534
2.0258965 0.17578349 -1.3388019
2.0135379 0.20165321 -1.3259534
2.0331175 0.19577819 -1.3315054
2.0124278 0.22428133 -1.3205433
2.0249267 0.21763669 -1.3428733
1.987415 -0.032768197 -1.2903317
1.991811 -0.015392202 -1.2920142
2.0030127 -0.024792662 -1.3097219
1.9909391 0.010945566 -1.2956743
2.0078006 0.013773701 -1.2896237
1.9920491 0.03488899 -1.2910161
2.0110953 0.046175625 -1.3016839
2.0124385 0.078758411 -1.3003609
2.0326858 0.075335778 -1.3103021
2.0112326 0.10360001 -1.3011098
2.008225 0.13650411 -1.2991711
2.0179956 0.1655221 -1.2979479
2.020925 0.19610949 -1.2949446
2.0346255 0.2008954 -1.3021593
2.019062 0.22439033 -1.2972732
2.0346255 0.22600733 -1.3021593
1.9982318 -0.032836698 -1.2650626
1.9982315 -0.016418349 -1.2650625
1.9988657 0.010945566 -1.2624005
2.0128279 0.014462386 -1.2685207
1.9988025 0.034478534 -1.2626668
2.0113115 0.044075843 -1.2748852
1.973266 0.07292477 -1.2447213
1.9924486 0.079782568 -1.2591324
1.9988025 0.09194275 -1.2626668
2.0137057 0.10674617 -1.2648362
2.0143297 0.13641745 -1.265993
2.0270271 0.16631192 -1.2693287
2.0207655 0.1948043 -1.2654076
2.0200684 0.22373332 -1.2649775
2.0007079 -0.032768194 -1.2345318
2.0030837 -0.01742523 -1.2371429
2.0202489 -0.0082642203 -1.2373687
2.00489 0.016418347 -1.2371124
2.0217037 0.0068954132 -1.2413304
2.0017581 0.043480877 -1.2316705
2.0294132 0.053871561 -1.2291059
1.9751437 0.07292477 -1.2368392
2.0039389 0.082091741 -1.2411054
2.0074267 0.098510087 -1.226465
2.0197701 0.10640184 -1.2393785
2.0202491 0.13635963 -1.2373687
2.0230372 0.16550705 -1.2390893
2.0212948 0.19431621 -1.2380139
2.0281689 0.22480294 -1.2403712
2.0043087 0.036812842 -1.2093468
1.98641 0.11343852 -1.1895462
2.0028389 0.1090104 -1.2054486
1.98641 0.12154128 -1.1895462
2.0076673 0.13107277 -1.2053176
2.0240793 0.14049174 -1.2212901
2.0124996 0.1559743 -1.2051698
2.0259943 0.16941653 -1.213251
2.0262892 0.19516274 -1.2120142
2.0283606 0.22251344 -1.2088116
1.9882877 -0.0081027523 -1.181664
2.0124578 -0.014537003 -1.1717819
1.9901655 0.014584954 -1.1737819
2.0103459 0.0089134285 -1.1757641
2.0355701 0.01239633 -1.1730547
1.9906414 0.038831554 -1.1597018
2.0093572 0.11420918 -1.1579487
2.0093572 0.13052477 -1.1579487
2.0125182 0.16585721 -1.1721393
2.0317397 0.1611523 -1.1891332
2.0156796 0.19257066 -1.1745585
2.0210605 0.21343853 -1.169234
2.0342932 0.22680694 -1.1784141
2.0223248 -0.032733947 -1.1337199
1.9967375 -0.024308257 -1.1461941
2.0152934 -0.017967708 -1.1451129
1.9892281 0.024205506 -1.1374414
1.9934552 0.042707734 -1.1340821
1.9868759 0.064411007 -1.1271783
1.9989282 0.1080367 -1.1369982
2.0220132 0.099396594 -1.1393423
2.0000234 0.13166972 -1.1324003
2.0131383 0.13541944 -1.1420772
2.0172572 0.16645919 -1.1398888
2.0014317 0.2025688 -1.1264887
2.0203619 0.19242239 -1.1479999
2.0226452 0.22233991 -1.1474779
2.0413156 0.23139817 -1.1489369
2.0292993 -0.03482477 -1.1195467
2.0576296 -0.044852842 -1.1287855
2.0212455 -0.021779818 -1.1181129
1.9887418 0.024154129 -1.1193461
2.0033095 0.044565134 -1.1186066
2.0292964 0.051217433 -1.1195592
2.0503747 0.047994129 -1.1229919
1.9974308 0.068667889 -1.1130772
2.0178645 0.085656881 -1.1222379
2.0169191 0.10605138 -1.1262058
2.0506649 0.096621417 -1.1298298
2.0210428 0.14299266 -1.1239985
2.0519454 0.14630948 -1.1244537
2.0753615 0.1423009 -1.1311611
2.1152995 0.14201222 -1.1404351
2.0203001 0.16467829 -1.1220807
2.0483377 0.16252966 -1.1194596
2.0918725 0.15172844 -1.1308956
2.1074994 0.15271926 -1.1300273
2.0169191 0.19170827 -1.1262058
