# .PCD v0.7 - Point Cloud Data file format
VERSION 0.7
FIELDS x y z rgb
SIZE 4 4 4 4
TYPE F F F F
COUNT 1 1 1 1
WIDTH 164
HEIGHT 1
VIEWPOINT 0 0 0 1 0 0 0
POINTS 164
DATA ascii
2.8241904 0.68226242 -1.4129208 5.1600938e-39
2.8241904 0.69917798 -1.4129208 5.249393e-39
2.7732918 0.79768074 -1.3934844 7.941817e-39
2.7965558 0.82269955 -1.4124746 9.8491131e-39
2.7972398 0.8569786 -1.4095733 1.4090087e-38
2.8512287 0.91038531 -1.4202567 1.5392367e-38
2.9133487 0.56768078 -1.4007994 7.1779874e-39
2.910691 0.59085137 -1.4120758 3.1360877e-39
2.8564496 0.6258899 -1.3981041 1.0043906e-38
2.8297954 0.63903362 -1.3891388 1.4843501e-38
2.8573198 0.64106297 -1.3944119 9.4918899e-39
2.8822415 0.63154125 -1.4107281 8.4730002e-39
2.8057871 0.68185687 -1.3733071 6.997545e-39
2.8293643 0.67662382 -1.3909682 6.8149138e-39
2.8551445 0.66002941 -1.4036423 7.9162797e-39
2.8848755 0.66598898 -1.3995517 2.8023867e-40
2.8045049 0.69303489 -1.378747 6.9946654e-39
2.8293643 0.71045506 -1.3909682 4.9663321e-39
2.8040774 0.73960978 -1.3805603 8.0214052e-39
2.828933 0.72925013 -1.3927977 9.0089058e-39
2.8032229 0.76289725 -1.384187 6.8170942e-39
2.754447 0.80179453 -1.3601022 7.8096732e-39
2.7766805 0.79029483 -1.3791064 7.376047e-39
2.8006585 0.78245872 -1.3950669 1.6056347e-38
2.7771041 0.81983852 -1.3773092 1.1351922e-38
2.8006585 0.82717067 -1.3950669 8.8331311e-39
2.8006585 0.84952658 -1.3950669 8.4848664e-39
2.828933 0.84953886 -1.3927977 1.0129248e-38
2.8564496 0.86486602 -1.3981041 9.0147072e-39
2.8848755 0.86119264 -1.3995517 9.8490417e-39
2.8538392 0.87624592 -1.4091804 1.1971405e-38
2.9106913 0.88820797 -1.4120758 1.289513e-38
2.9387698 0.90611011 -1.4193569 1.4548527e-38
2.8384187 0.55257612 -1.3525511 7.8330286e-39
2.8616707 0.56899083 -1.3759514 3.040302e-39
2.8377719 0.5892266 -1.3552952 6.1680912e-39
2.8616707 0.58606052 -1.3759514 2.7601138e-39
2.8371251 0.6146 -1.3580393 1.0138979e-38
2.8377719 0.63997334 -1.3552952 1.031838e-38
2.8616707 0.64864951 -1.3759514 7.7318941e-39
2.810061 0.67813087 -1.3551738 1.0040053e-38
2.8341069 0.66910583 -1.370845 5.1493543e-39
2.8616707 0.66002941 -1.3759514 6.9244617e-39
2.8096333 0.7042129 -1.3569871 1.2070849e-38
2.7594862 0.74687707 -1.338721 3.506343e-39
2.7847285 0.73674679 -1.3449588 4.5104336e-39
2.8096335 0.72656882 -1.3569871 9.0369906e-39
2.7348902 0.76488715 -1.3297411 5.1571945e-39
2.7809165 0.76444411 -1.3611339 8.2183492e-39
2.733017 0.78394127 -1.3376894 4.7898764e-39
2.7569666 0.80179453 -1.3494116 8.4571852e-39
2.7834578 0.80875969 -1.3503505 6.163771e-39
2.7809165 0.81983852 -1.3611339 1.2273885e-38
2.8345382 0.8345027 -1.3690156 8.9296638e-39
2.8384187 0.84577984 -1.3525511 9.3766626e-39
2.8616707 0.8534863 -1.3759514 1.2984743e-38
2.8927779 0.86119264 -1.3660226 7.6375054e-39
2.8888266 0.87267518 -1.3827872 1.4276217e-38
2.9186642 0.88917345 -1.3782465 1.2614211e-38
2.9427929 0.91195595 -1.402287 1.335142e-38
2.7910824 0.54286605 -1.3180002 7.0966042e-39
2.8177538 0.5551731 -1.3225342 4.7898722e-39
2.8160441 0.57007706 -1.3297875 4.4181862e-39
2.8439159 0.58781695 -1.3292264 5.6228684e-39
2.8179672 0.61758351 -1.3216275 4.140191e-39
2.8410056 0.61459994 -1.3415748 4.4189401e-39
2.7910824 0.65365505 -1.3180002 4.316749e-39
2.8168986 0.648323 -1.3261608 7.7386876e-39
2.792099 0.6780287 -1.3136867 2.2095044e-39
2.8151896 0.67440486 -1.3334141 1.5115378e-38
2.7670453 0.70843488 -1.3066493 3.7753601e-39
2.7910824 0.70166367 -1.3180002 3.7703785e-39
2.8134797 0.6986239 -1.3406674 1.4563975e-38
2.7405102 0.74038905 -1.3058963 5.3434089e-39
2.7657855 0.73040187 -1.3119946 5.2523021e-39
2.7885408 0.72012848 -1.3287836 3.5819851e-39
2.7401979 0.76080412 -1.3072211 5.8965729e-39
2.7670453 0.77982754 -1.3066493 2.6747845e-39
2.7415092 0.79047412 -1.3016572 6.6348666e-39
2.7632658 0.80179453 -1.3226852 5.8036233e-39
2.8134797 0.82717061 -1.3406674 5.712169e-39
2.8448861 0.85141838 -1.3251102 5.3351188e-39
2.8224547 0.5533101 -1.3025877 5.1601092e-39
2.8252752 0.58349061 -1.2906199 4.3292626e-39
2.8487666 0.57513028 -1.3086457 6.0806292e-39
2.8237364 0.61478901 -1.2971478 4.4189415e-39
2.798707 0.65365505 -1.2856498 5.4301969e-39
2.8233702 0.64512926 -1.298702 4.0537449e-39
2.7746041 0.67548442 -1.2745776 4.6044117e-39
2.7970126 0.6758129 -1.2928388 4.9713852e-39
2.8211725 0.67067891 -1.3080277 4.4196673e-39
2.7455056 0.71861285 -1.2847009 4.8781372e-39
2.7725043 0.70660424 -1.2834864 4.3292654e-39
2.7961655 0.70351017 -1.2964332 3.5945786e-39
2.7471709 0.73675966 -1.2776357 4.5129181e-39
2.7708247 0.73040187 -1.2906134 4.7873638e-39
2.7467546 0.76216513 -1.279402 3.9637016e-39
2.7746041 0.77982754 -1.2745776 4.973553e-39
2.741878 0.79131234 -1.2782967 5.7100264e-39
2.7746041 0.7963028 -1.2745776 5.2526608e-39
2.7961655 0.81983852 -1.2964332 2.9484847e-39
2.8250189 0.82158166 -1.2917079 7.0054456e-39
2.8513534 0.8345027 -1.2976694 7.2701719e-39
2.8029428 0.553945 -1.2676774 6.9135904e-39
2.8314292 0.5533101 -1.264508 5.9920097e-39
2.8314292 0.58265227 -1.264508 3.5009312e-39
2.8314292 0.61478901 -1.264508 3.9615548e-39
2.8045158 0.64415884 -1.2610018 3.9615436e-39
2.7796433 0.67548442 -1.2531964 4.1455832e-39
2.8037899 0.66473395 -1.2640829 4.2370557e-39
2.7538314 0.71135408 -1.2493751 3.8697193e-39
2.7779634 0.69562078 -1.2603234 4.237783e-39
2.7524993 0.73385608 -1.2550272 4.422533e-39
2.7809031 0.73589361 -1.2478511 3.6856938e-39
2.7524993 0.75563228 -1.2550272 3.8690047e-39
2.7796433 0.76884407 -1.2531964 5.4309816e-39
2.8063314 0.76444405 -1.2532995 1.15162e-38
2.8037899 0.79029483 -1.2640829 1.3358693e-38
2.8324552 0.79810786 -1.2601562 1.963155e-38
2.8314297 0.81599265 -1.2645081 1.9447506e-38
2.8114145 0.53178716 -1.2317325 1.2165867e-38
2.813956 0.54286605 -1.2209491 4.8688171e-39
2.8374128 0.5551731 -1.2391218 3.5924178e-39
2.813956 0.59826052 -1.2209491 4.5111245e-39
2.8378398 0.58125502 -1.2373084 4.1441496e-39
2.813956 0.62041837 -1.2209491 4.0530512e-39
2.837199 0.61478901 -1.2400284 4.8799098e-39
2.7853124 0.64802575 -1.2291425 4.3270962e-39
2.8119228 0.63592881 -1.2295759 4.0526757e-39
2.7579944 0.68594861 -1.2317122 4.7887735e-39
2.7859423 0.67548442 -1.22647 3.9622807e-39
2.8131087 0.6758129 -1.2245436 4.1463076e-39
2.8391221 0.67067891 -1.2318685 4.6033299e-39
2.7579944 0.70228076 -1.2317122 4.7862862e-39
2.7853124 0.70019722 -1.2291425 4.0534029e-39
2.8114145 0.70904958 -1.2317325 4.5129378e-39
2.7579944 0.72950089 -1.2317122 2.3009755e-39
2.7846825 0.73589361 -1.2318152 8.1132154e-39
2.8088729 0.73120737 -1.2425159 2.3953334e-39
2.8365581 0.73774678 -1.2427484 6.2660658e-39
2.8088729 0.75890464 -1.2425159 1.9364259e-38
2.8365579 0.76569176 -1.2427484 1.8340072e-38
2.8649349 0.76402104 -1.2400438 1.0133951e-38
2.8365581 0.79363674 -1.2427484 2.0457691e-38
2.8642883 0.7893945 -1.2427878 2.0646028e-38
2.9191189 0.78081465 -1.2542591 5.6127693e-39
2.8177681 0.54840553 -1.2047739 4.6025956e-39
2.8416862 0.5588991 -1.2209886 3.7807341e-39
2.8439298 0.57985777 -1.2114686 4.5125804e-39
2.8720491 0.59768438 -1.2098588 3.0400091e-39
2.8427119 0.61478901 -1.2166367 4.1477608e-39
2.8707557 0.61459994 -1.2153471 3.4984467e-39
2.7897217 0.64802569 -1.2104341 4.5132825e-39
2.8164973 0.64257616 -1.2101656 3.6867602e-39
2.8451056 0.65204895 -1.2064821 4.4221574e-39
2.8425412 0.67813087 -1.2173619 5.0664464e-39
2.871187 0.68038291 -1.2135175 5.2504706e-39
2.8429685 0.69303489 -1.2155486 5.1586337e-39
2.8519433 0.65391195 -1.177469 5.2501104e-39
2.877223 0.67944312 -1.1879061 5.5274316e-39
2.90605 0.69416887 -1.1876537 5.4323591e-39
2.807359 0.63704222 -1.1356001 4.775834e-39
2.8300521 0.64996213 -1.1526539 5.0628521e-39
2.8823969 0.67662388 -1.1659535 7.56145e-39
