# .PCD v0.7 - Point Cloud Data file format
VERSION 0.7
FIELDS x y z rgb
SIZE 4 4 4 4
TYPE F F F F
COUNT 1 1 1 1
WIDTH 221
HEIGHT 1
VIEWPOINT 0 0 0 1 0 0 0
POINTS 221
DATA ascii
2.4180744 0.24975963 -1.3749336 1.2259496e-38
2.3971672 0.2843422 -1.376458 1.0573371e-38
2.4087625 0.31377661 -1.3817503 1.2528518e-38
2.3862615 0.18813026 -1.3355469 1.0501645e-38
2.4021847 0.19636622 -1.3551688 1.0689653e-38
2.4205508 0.22509398 -1.3547381 1.1148485e-38
2.4184933 0.25523999 -1.3557203 9.7666243e-39
2.3829417 0.27495962 -1.3496325 1.2163359e-38
2.4144719 0.28592661 -1.3528543 1.0593525e-38
2.4187989 0.3081474 -1.3573276 1.0600714e-38
2.4416294 0.3208257 -1.3665353 9.8624367e-39
2.4214447 0.3403587 -1.3606337 9.9542596e-39
2.4435706 0.34832501 -1.3582995 1.0506352e-38
2.4420822 0.37117064 -1.3646137 1.0781135e-38
2.4638853 0.38003743 -1.3636466 1.0781872e-38
2.4454033 0.39815292 -1.3505213 1.1060239e-38
2.4620595 0.40988326 -1.3713933 1.1886409e-38
2.4461584 0.43928444 -1.3473186 1.1517646e-38
2.4652548 0.42779085 -1.3578366 1.1057718e-38
2.4829597 0.4312624 -1.3786175 1.1979328e-38
2.5020382 0.45478898 -1.3892106 1.1234567e-38
2.4088748 0.17497981 -1.3267832 8.0094773e-39
2.3906877 0.18973821 -1.316766 9.8508606e-39
2.4077599 0.19928256 -1.3315141 1.0971999e-38
2.4208674 0.22597012 -1.3257183 9.5811526e-39
2.4221172 0.25402081 -1.3287185 1.0508152e-38
2.4265409 0.28271559 -1.329324 1.0688969e-38
2.4518197 0.29614681 -1.3232979 1.1976103e-38
2.429028 0.31464818 -1.3284589 1.1430483e-38
2.4523859 0.31342202 -1.3208958 1.1893608e-38
2.4298704 0.33546144 -1.3248838 1.1520885e-38
2.4501214 0.35290825 -1.3305041 1.198151e-38
2.4510112 0.37511927 -1.3267295 1.2072272e-38
2.468678 0.37804767 -1.3433117 1.1616661e-38
2.4506876 0.39979815 -1.3281021 1.2348116e-38
2.4698188 0.41784224 -1.33847 1.235136e-38
2.4484229 0.43928444 -1.3377104 1.1149583e-38
2.4704714 0.43631822 -1.3357035 1.1883908e-38
2.4944634 0.43627709 -1.329808 1.7150898e-38
2.3693614 0.18782996 -1.2910082 9.0283264e-39
2.3978806 0.19295412 -1.2862471 8.2000062e-39
2.4177949 0.20414312 -1.2889358 5.5306532e-39
2.3984339 0.22189724 -1.2838995 1.0051459e-38
2.4166799 0.22237018 -1.2936667 7.739761e-39
2.4166799 0.25274864 -1.2936667 8.9397363e-39
2.4340463 0.28255916 -1.2962682 7.6468409e-39
2.4571981 0.31588992 -1.3004782 6.6344868e-39
2.4360492 0.34280729 -1.2986673 1.0326976e-38
2.4569149 0.34056881 -1.3016791 8.1967959e-39
2.4382961 0.3623963 -1.289134 8.4809189e-39
2.4567266 0.37840977 -1.3024799 1.1974982e-38
2.4580472 0.39733028 -1.296875 8.6552307e-39
2.4762094 0.41386276 -1.3113567 1.188423e-38
2.4774268 0.43773946 -1.3061923 7.7400931e-39
2.5013657 0.44129175 -1.3005224 2.3952829e-39
2.4990649 0.45132113 -1.3102844 6.8152683e-39
2.4039669 0.18716548 -1.2604235 5.1575757e-39
2.424485 0.20025468 -1.2605503 3.4076328e-39
2.4017537 0.22189724 -1.2698139 2.3067321e-39
2.426517 0.22378105 -1.2616156 4.606183e-39
2.426517 0.25296879 -1.2616156 3.4058447e-39
2.4061801 0.27013576 -1.2510331 3.2235862e-39
2.429059 0.28367752 -1.2629385 3.6820827e-39
2.437057 0.31264099 -1.26533 4.3296045e-39
2.4430709 0.3440316 -1.2688758 3.3132875e-39
2.4423406 0.36631411 -1.271974 4.4174841e-39
2.4647276 0.38104218 -1.2685306 3.6813442e-39
2.4642744 0.39486238 -1.2704521 4.1451922e-39
2.4835126 0.41286781 -1.2803702 4.3306723e-39
2.4665391 0.44422022 -1.2608439 2.7644129e-39
2.4823713 0.42779085 -1.2852118 3.3111394e-39
2.5052001 0.43794861 -1.2842526 3.4955222e-39
2.5036664 0.45132113 -1.2907605 2.6718656e-39
2.4419894 0.19803827 -1.2360983 3.5037899e-39
2.4117131 0.23154496 -1.2275571 3.5916821e-39
2.436743 0.22129016 -1.2334504 2.3016874e-39
2.4372971 0.25340101 -1.2352496 4.7913295e-39
2.4106064 0.29907891 -1.2322522 2.577533e-39
2.4352562 0.2823686 -1.234224 3.2203829e-39
2.4106064 0.30872661 -1.2322522 3.4080153e-39
2.4319184 0.31269538 -1.2290106 2.8562723e-39
2.4454534 0.34225279 -1.2393923 3.2210807e-39
2.4733329 0.35537615 -1.2320189 2.9455784e-39
2.4495304 0.36729354 -1.2414675 3.3122029e-39
2.4718235 0.37676451 -1.2384247 3.3147379e-39
2.4710686 0.40473396 -1.2416273 4.6994604e-39
2.5151701 0.39114493 -1.2419511 3.5045199e-39
2.4495304 0.42116329 -1.2414675 3.7703e-39
2.4699361 0.43928444 -1.2464314 3.0374041e-39
2.4920707 0.43525231 -1.2440578 3.1271068e-39
2.4733329 0.45409176 -1.2320189 4.1337044e-39
2.4767296 0.17768808 -1.2176065 4.240629e-39
2.4994879 0.17907523 -1.212587 3.4958585e-39
2.5414515 0.17180917 -1.2219833 5.619979e-39
2.4540243 0.19588991 -1.2224009 9.4014389e-39
2.4761636 0.19989909 -1.2200086 1.6405784e-38
2.498575 0.19698274 -1.2164602 1.6590534e-38
2.5220723 0.19055779 -1.2126654 1.529979e-38
2.4540243 0.22527339 -1.2224009 1.2448972e-38
2.4775791 0.2282798 -1.2140034 2.1386883e-38
2.4994879 0.21886973 -1.212587 1.9721989e-38
2.4551477 0.25465688 -1.2176343 1.7150942e-38
2.4787679 0.25468627 -1.2089591 2.1295411e-38
2.4994879 0.26861283 -1.212587 2.1852166e-38
2.5220723 0.25574863 -1.2126654 2.0926633e-38
2.4540243 0.28404036 -1.2224009 2.9547009e-39
2.476352 0.2796942 -1.2192079 2.1943286e-38
2.4972057 0.29099724 -1.2222703 1.7063767e-38
2.521497 0.28332934 -1.2151059 1.8540698e-38
2.4540243 0.31342384 -1.2224009 2.3030999e-39
2.4755974 0.3208257 -1.2224107 3.3186839e-39
2.4972057 0.31636626 -1.2222703 3.7731769e-39
2.5209219 0.30589545 -1.2175463 3.4955516e-39
2.4540243 0.33791006 -1.2224009 2.3941913e-39
2.4755971 0.34550461 -1.2224107 3.5923772e-39
2.4972055 0.34820184 -1.2222703 4.234148e-39
2.5338354 0.34277061 -1.2237833 3.7742559e-39
2.4755974 0.3652477 -1.2224107 3.5016501e-39
2.4964447 0.37473145 -1.225498 3.6831491e-39
2.5338385 0.37297431 -1.2237707 3.8664613e-39
2.4755974 0.40966973 -1.2224107 4.3328247e-39
2.4964447 0.40789357 -1.225498 4.1437615e-39
2.5297465 0.4014523 -1.2258754 3.7753419e-39
2.4958365 0.43773946 -1.2280803 3.6842393e-39
2.5298417 0.43291926 -1.2254717 3.9575766e-39
2.5418141 0.16895506 -1.1975583 5.2504636e-39
2.5720277 0.16814862 -1.1925124 4.8791769e-39
2.5017703 0.2089211 -1.2029036 2.1850377e-38
2.5385203 0.19021925 -1.2000917 6.0802102e-39
2.5714431 0.19617337 -1.1949922 3.223959e-39
2.50177 0.22881836 -1.2029036 1.9730588e-38
2.5369387 0.21965726 -1.2045144 9.6754782e-39
2.570358 0.22565399 -1.1995975 2.9488098e-39
2.5243731 0.25073394 -1.2029035 1.8067011e-38
2.56969 0.25477064 -1.2024316 2.7619214e-39
2.5429862 0.28554812 -1.2023942 8.4787357e-39
2.5706251 0.28126678 -1.1984638 3.2232541e-39
2.5017703 0.31835595 -1.2029036 3.7750014e-39
2.5353084 0.31196326 -1.1971911 3.5905905e-39
2.5720274 0.31591558 -1.1925124 3.6842337e-39
2.5373042 0.34277061 -1.2090654 3.408353e-39
2.544929 0.37393761 -1.2072278 3.2229038e-39
2.5912256 0.3749119 -1.2069585 3.9568619e-39
2.544929 0.40425691 -1.2072278 3.5909422e-39
2.5696898 0.41272843 -1.2024314 4.6926066e-39
2.5900476 0.39545503 -1.2119575 3.6824442e-39
2.6137059 0.40388259 -1.2118366 3.4969641e-39
2.544929 0.42446974 -1.2072278 3.4987648e-39
2.5743654 0.16814862 -1.1825933 4.328887e-39
2.5982945 0.17461652 -1.1769656 3.0403048e-39
2.5743651 0.19362569 -1.1825933 2.6704321e-39
2.5982945 0.19515961 -1.1769656 2.8526821e-39
2.6445887 0.20880733 -1.1810656 5.8086848e-39
2.5743651 0.22419816 -1.1825933 2.9477322e-39
2.5982945 0.22597432 -1.1769656 2.7622788e-39
2.6445887 0.22968808 -1.1810656 5.9015447e-39
2.6668978 0.22109726 -1.1910288 5.1651007e-39
2.5743651 0.25477064 -1.1825933 2.672967e-39
2.5971165 0.256789 -1.1819645 3.3147253e-39
2.6303353 0.25765505 -1.1813846 4.3292457e-39
2.5947602 0.28760371 -1.1919621 3.3158029e-39
2.6356609 0.28654036 -1.1938803 3.0395761e-39
2.666898 0.2842679 -1.1910288 5.2515496e-39
2.6916428 0.28664586 -1.1906587 6.4450383e-39
2.5947602 0.31841835 -1.1919621 3.4094432e-39
2.6338887 0.31354541 -1.1888658 3.13179e-39
2.6668978 0.30532476 -1.1910288 4.2402689e-39
2.5947602 0.34923303 -1.1919621 2.7629878e-39
2.6279602 0.34267527 -1.1847799 2.671874e-39
2.6296837 0.37514496 -1.1896175 2.8544632e-39
2.625844 0.40265971 -1.1937579 2.9470344e-39
2.6668978 0.41060916 -1.1910288 2.2102078e-39
2.6160817 0.42459449 -1.2017567 3.1357192e-39
2.5837164 0.19362569 -1.1429172 7.4635244e-39
2.6018291 0.19002384 -1.1619692 5.2551537e-39
2.6053634 0.21570276 -1.1469728 3.6867826e-39
2.6398571 0.2325211 -1.1677209 4.4235587e-39
2.6469836 0.24534863 -1.1709037 4.879872e-39
2.669313 0.26321101 -1.1807811 4.7862638e-39
2.669313 0.2842679 -1.1807811 5.7982507e-39
2.6940782 0.27602935 -1.1803253 4.5111021e-39
2.7164278 0.29437613 -1.1901172 4.7855366e-39
2.7492545 0.28669909 -1.1870596 6.1738814e-39
2.6458087 0.3179951 -1.1591777 4.0501603e-39
2.669313 0.30532476 -1.1807811 4.9731704e-39
2.7164278 0.31043303 -1.1901172 4.4189274e-39
2.7436717 0.31093431 -1.1835035 4.7891351e-39
2.642575 0.34373632 -1.160964 4.6061928e-39
2.6065416 0.38004771 -1.141974 3.2200592e-39
2.6450138 0.37359262 -1.1625513 4.3274521e-39
2.6499774 0.4045642 -1.1582012 4.4232378e-39
2.6717284 0.41060916 -1.1705334 3.9529046e-39
2.5883918 0.17324404 -1.1230789 4.9782137e-39
2.5883923 0.19362569 -1.1230791 5.7136389e-39
2.610076 0.21570276 -1.1269774 5.8072709e-39
2.7262504 0.28188744 -1.1484407 9.8569702e-39
2.7483773 0.2915009 -1.1635375 7.2805849e-39
2.6541688 0.32365137 -1.1404178 8.3879876e-39
2.6813891 0.32638165 -1.1295428 1.0777862e-38
2.7026021 0.31849542 -1.1441585 1.0132861e-38
2.7287061 0.31578535 -1.1380216 9.0312299e-39
2.7491202 0.30661577 -1.160385 6.9078535e-39
2.6107829 0.35539597 -1.1239783 4.7026918e-39
2.6319191 0.33484283 -1.1345582 8.1124755e-39
2.6088979 0.38004771 -1.1319764 4.5147538e-39
2.6338992 0.37799266 -1.1261584 5.8962253e-39
2.6112542 0.41086239 -1.1219786 3.2265121e-39
2.6331866 0.39766896 -1.1291822 5.0682555e-39
2.5942366 0.17324403 -1.0982814 5.6232356e-39
2.593652 0.19107796 -1.1007612 6.4504837e-39
2.7062552 0.27602935 -1.1286584 1.0582308e-38
2.7319803 0.28902385 -1.1241295 1.179419e-38
2.7319803 0.31400123 -1.1241295 1.1701656e-38
2.7570457 0.30769539 -1.1267581 1.1244638e-38
2.6386504 0.37799266 -1.1059988 6.6287625e-39
2.5930676 0.40763301 -1.103241 3.9662296e-39
2.6183231 0.40059081 -1.0919857 5.9841036e-39
2.6382544 0.39697859 -1.1076787 5.8915604e-39
2.715997 0.29726237 -1.0873247 1.1613408e-38
2.736073 0.29972842 -1.1067642 1.1427939e-38
2.7619991 0.31309357 -1.1057413 1.0966256e-38
