# .PCD v0.7 - Point Cloud Data file format
VERSION 0.7
FIELDS x y z rgb
SIZE 4 4 4 4
TYPE F F F F
COUNT 1 1 1 1
WIDTH 179
HEIGHT 1
VIEWPOINT 0 0 0 1 0 0 0
POINTS 179
DATA ascii
3.1000235 0.098084405 -1.4108409 7.3663205e-39
3.0351222 0.14430825 -1.4072247 1.6310984e-38
3.0666175 0.13762201 -1.4130869 1.0582694e-38
3.1000235 0.12873578 -1.4108409 2.1170159e-39
3.0675459 0.15786055 -1.409147 1.1427258e-38
3.2012947 -0.10414679 -1.4127132 1.0873293e-38
3.2011499 -0.078267895 -1.4133276 4.1484488e-39
3.2005708 -0.042921104 -1.4157851 4.2323488e-39
3.1670256 -0.016665442 -1.4099022 1.4286734e-38
3.2020187 -0.025247708 -1.4096414 1.1520829e-38
3.1042423 0.012260551 -1.3929404 6.730337e-39
3.1353943 0.024755962 -1.4002579 4.3242179e-39
3.1679811 0.0041663605 -1.4058471 1.1062821e-38
3.1056485 0.042911928 -1.3869736 4.8878201e-39
3.1344478 0.041259937 -1.4042739 5.7093173e-39
3.0759029 0.078930274 -1.3736892 6.7292328e-39
3.1056485 0.061302751 -1.3869736 6.8181564e-39
3.1325548 0.080456875 -1.4123058 5.9833917e-39
3.0749743 0.10119266 -1.3776289 7.9141161e-39
3.1028361 0.11034495 -1.3989072 1.1519724e-38
3.0740459 0.13762201 -1.3815687 1.1331798e-38
3.1028361 0.1226055 -1.3989072 1.3659329e-38
3.0745101 0.15786055 -1.3795989 1.1615598e-38
3.1042423 0.17164771 -1.3929404 1.0497686e-38
3.1056485 0.18390827 -1.3869736 9.7648138e-39
3.1353943 0.18979572 -1.4002579 9.3960271e-39
3.168937 0.19998531 -1.4017918 1.0039956e-38
3.2360599 0.21678898 -1.4177775 9.578266e-39
3.2078104 -0.10730276 -1.385067 1.1700531e-38
3.1746716 -0.06874495 -1.3774602 3.4069139e-39
3.2063625 -0.08836697 -1.3912107 6.6391826e-39
3.2063625 -0.044183489 -1.3912107 2.2980454e-39
3.142493 -0.012377981 -1.3701383 1.0974863e-38
3.2063625 -0.025247708 -1.3912107 9.8511772e-39
3.1140864 0.018390827 -1.3511729 3.4920148e-39
3.1420197 0.012377981 -1.3721462 4.5071784e-39
3.1718044 0 -1.389626 8.3941393e-39
3.0800815 0.048572477 -1.3559602 6.2649994e-39
3.1140864 0.036781654 -1.3511729 7.0926666e-39
3.1718044 0.037497249 -1.389626 5.8926282e-39
3.0516744 0.072154127 -1.3369948 1.0331265e-38
3.0805457 0.072858714 -1.3539904 7.6443171e-39
3.1084611 0.073563308 -1.3750401 8.3073079e-39
3.0800815 0.10321651 -1.3559602 6.8985069e-39
3.0509846 0.13528898 -1.3399211 8.0094941e-39
3.0786886 0.12750275 -1.3618699 1.0979176e-38
3.0800815 0.15786055 -1.3559602 1.0419592e-38
3.1098676 0.17164771 -1.3690733 9.6729657e-39
3.1439128 0.17329173 -1.3641143 1.0132856e-38
3.142493 0.18566972 -1.3701383 8.6577068e-39
3.173238 0.19998531 -1.3835431 9.1255359e-39
3.2092586 0.20198166 -1.3789234 1.188239e-38
3.240448 0.21678898 -1.3991592 1.0503808e-38
3.2745631 0.2318532 -1.4069829 1.0684958e-38
3.3456829 0.24982384 -1.4234469 1.022327e-38
3.1804061 -0.10624219 -1.3531288 1.1610507e-38
3.1476989 -0.066015899 -1.3480505 4.0465394e-39
3.1804061 -0.08436881 -1.3531288 6.0827718e-39
3.1197114 -0.036781654 -1.3273058 6.457657e-39
3.1481721 -0.043322936 -1.3460425 5.6182063e-39
3.1775389 -0.049996328 -1.3652945 3.8679145e-39
3.1197114 -0.012260551 -1.3273058 7.5338304e-39
3.1481721 -0.018566972 -1.3460425 5.9916608e-39
3.1775389 -0.024998164 -1.3652945 6.5286327e-39
3.0884383 0.024286238 -1.3205024 1.6589097e-38
3.1183052 0.0061302753 -1.3332726 1.4745536e-38
3.0876026 0.043715231 -1.3240483 1.2443898e-38
3.056272 0.076162688 -1.3174865 7.280236e-39
3.0851884 0.068811007 -1.3342916 1.1060279e-38
3.0571918 0.10221834 -1.3135848 4.7002213e-39
3.0842597 0.10321651 -1.3382313 4.4200373e-39
3.0282712 0.13698716 -1.3011585 4.4221967e-39
3.0551226 0.12927614 -1.3223636 4.6962486e-39
3.0856526 0.15786055 -1.3323218 7.0958083e-39
3.1481721 0.17329173 -1.3460425 5.9855357e-39
3.1804061 0.1916526 -1.3531288 9.851571e-39
3.2121544 0.20198166 -1.3666363 1.1700862e-38
3.2136023 0.21460551 -1.3604926 1.1054107e-38
3.2477612 0.22954126 -1.3681287 1.0777159e-38
3.2804728 0.24473393 -1.3819084 9.9463338e-39
3.1239305 -0.098084405 -1.3094053 1.0965851e-38
3.1556256 -0.072720639 -1.3144168 5.8958526e-39
3.1239305 -0.036781654 -1.3094053 4.2399116e-39
3.1552708 -0.049511924 -1.3159227 4.6065529e-39
3.1239305 -0.018390825 -1.3094053 3.0428355e-39
3.0940096 0.024286238 -1.2968638 2.6708272e-39
3.1239305 0.0061302753 -1.3094053 2.4871534e-39
3.0940096 0.042500917 -1.2968638 2.7648011e-39
3.0627093 0.073657341 -1.290175 4.5114944e-39
3.0926168 0.060715593 -1.3027735 4.1448307e-39
3.0627093 0.10221835 -1.290175 5.0671975e-39
3.0310037 0.1310312 -1.2895644 1.0146521e-38
3.0616057 0.13228257 -1.2948569 5.1672965e-39
3.0954025 0.13357431 -1.2909542 4.0569903e-39
3.0613298 0.15633394 -1.2960274 4.3281457e-39
3.0954025 0.16393211 -1.2909542 3.3165147e-39
3.1524315 0.17329173 -1.3279706 5.1499947e-39
3.1253366 0.18390827 -1.3034385 2.6758088e-39
3.1538513 0.19185871 -1.3219467 3.7778376e-39
3.2179463 0.21460551 -1.3420618 6.6330295e-39
3.1295555 -0.098084405 -1.2855382 9.5926251e-39
3.1637895 -0.099023849 -1.2797792 8.5817129e-39
3.1337745 -0.073563308 -1.2676378 4.4232575e-39
3.1609499 -0.074267887 -1.291827 6.1659767e-39
3.1315243 -0.041685872 -1.2771846 3.7785803e-39
3.1309617 -0.018390825 -1.2795713 3.9637058e-39
3.0696058 0.024051376 -1.2609124 4.6980283e-39
3.1009736 0.0060715596 -1.2673156 4.2399228e-39
3.1309619 0.0061302753 -1.2795714 4.3310422e-39
3.0696058 0.042089909 -1.2609124 4.5143657e-39
3.0696061 0.072154127 -1.2609124 4.3317709e-39
3.0696058 0.10221834 -1.2609124 4.8831482e-39
3.0709853 0.12025687 -1.25506 4.5158258e-39
3.1009736 0.1350922 -1.2673156 5.7125768e-39
3.0981879 0.16393211 -1.279135 3.0424474e-39
3.1318996 0.16347401 -1.2755935 4.0566133e-39
3.1637895 0.17329173 -1.2797792 2.2077233e-39
3.1976099 0.16248807 -1.2801341 1.4295025e-38
3.2295299 0.17673394 -1.292913 1.0704768e-38
3.0981879 0.18214679 -1.279135 3.7806991e-39
3.1309619 0.18390827 -1.2795714 3.5937939e-39
3.226634 0.19566974 -1.3052002 3.5952498e-39
3.2633631 0.19978593 -1.3019301 4.0511987e-39
3.2982018 0.19321102 -1.306685 8.4927389e-39
3.2295299 0.21460551 -1.292913 3.9586668e-39
3.1675756 -0.10314984 -1.2637153 1.0048205e-38
3.1379931 -0.073563308 -1.2497373 3.9586766e-39
3.1379933 -0.042911928 -1.2497374 4.1462838e-39
3.1379933 -0.018390827 -1.2497374 3.5052486e-39
3.0737438 0.024051376 -1.2433549 4.2391997e-39
3.1074734 0.020238532 -1.2397373 3.5967212e-39
3.1384623 0.0040868502 -1.2477485 3.9629884e-39
3.0737438 0.042089909 -1.2433549 4.3314276e-39
3.1079378 0.042500917 -1.2377673 4.1481041e-39
3.0751235 0.072154127 -1.2375025 3.8715214e-39
3.1093307 0.072858714 -1.2318578 4.8824097e-39
3.172308 0.061889905 -1.2436354 4.3285171e-39
3.0746632 0.10021406 -1.2394532 3.2261688e-39
3.108402 0.10524037 -1.2357975 1.2441388e-38
3.106545 0.12143119 -1.243677 1.4566177e-38
3.1375246 0.13486606 -1.2517264 1.7609008e-38
3.1694684 0.1361578 -1.2556833 1.705332e-38
3.2004774 0.14998899 -1.2679684 1.6499806e-38
3.268239 0.19766055 -1.2812431 2.5746631e-39
3.2338738 0.21460551 -1.2744821 2.3963577e-39
3.1444621 -0.10298862 -1.2222902 9.492868e-39
3.1446729 -0.075095877 -1.221395 3.6838735e-39
3.1779871 -0.061889905 -1.2195396 4.6026167e-39
3.1444621 -0.044137985 -1.2222902 4.6065641e-39
3.1779871 -0.037133943 -1.2195396 5.9859098e-39
3.1130447 -0.020238532 -1.2160987 4.4225288e-39
3.1121161 0 -1.2200384 3.6864323e-39
3.2076454 0.062495407 -1.237554 3.6795421e-39
3.2430439 0.07153517 -1.2355727 2.7644143e-39
3.2396655 0.21460551 -1.2499077 2.8559107e-39
3.1506498 -0.061302751 -1.1960362 3.9594024e-39
3.1520562 -0.049042203 -1.1900694 6.1760548e-39
3.1822462 -0.037133943 -1.2014679 6.1768045e-39
3.1534624 -0.024521101 -1.1841027 9.7773582e-39
3.2162473 0.018748622 -1.2010567 2.6747551e-39
3.2498014 0.025247708 -1.2069026 2.4013954e-39
3.2138579 0.045829967 -1.2111949 2.305981e-39
3.2498014 0.044183489 -1.2069026 3.4101705e-39
3.2486429 0.073218346 -1.2118175 2.3041663e-39
3.1274371 -0.024286238 -1.1550324 5.2411309e-39
3.1590879 -0.016347401 -1.1602355 6.5499072e-39
3.1921847 -0.012377981 -1.1593002 5.2779164e-39
3.1590877 0 -1.1602355 4.2280342e-39
3.1921847 0 -1.1593002 3.4033182e-39
3.2215042 0.016665442 -1.1787529 4.884918e-39
3.2536623 0.046287466 -1.1905196 2.9463127e-39
3.2916422 0.051009174 -1.1819454 3.3201203e-39
3.2536623 0.07153517 -1.1905196 2.3945879e-39
3.2887168 0.063761465 -1.1943576 2.3931515e-39
3.3247955 0.070844039 -1.1938499 4.147381e-39
3.2960303 0.063761465 -1.1633271 3.8733151e-39
3.3307052 0.077284403 -1.1687754 3.9658764e-39
3.3678513 0.091089904 -1.168097 3.3144002e-39
3.3004184 0.063761465 -1.1447088 5.4486128e-39
