# .PCD v0.7 - Point Cloud Data file format
VERSION 0.7
FIELDS x y z rgb
SIZE 4 4 4 4
TYPE F F F F
COUNT 1 1 1 1
WIDTH 239
HEIGHT 1
VIEWPOINT 0 0 0 1 0 0 0
POINTS 239
DATA ascii
1.9833754 0.26269358 -1.3361651 1.2350598e-38
2.0028756 0.26527709 -1.3493307 1.2624305e-38
2.0039148 0.28617311 -1.3500067 1.0872973e-38
2.0077085 0.31577003 -1.3525577 1.1057003e-38
2.0024898 0.3450776 -1.3481942 1.0318363e-38
1.9016494 0.37134314 -1.3167526 1.3534436e-38
1.9247028 0.38070336 -1.3206526 1.1700203e-38
1.9515713 0.37772599 -1.3345207 1.1055918e-38
1.9814923 0.37488565 -1.3441552 1.0594584e-38
1.999781 0.3704083 -1.3472027 1.0507796e-38
2.0333338 0.38221467 -1.3508726 9.6751531e-39
1.9768746 0.40740132 -1.3463104 1.0873681e-38
2.0045872 0.40519005 -1.3464271 9.4010928e-39
2.0412138 0.40629506 -1.3523121 9.3114097e-39
1.9802368 0.42961344 -1.3494821 1.1609437e-38
2.0025411 0.43206501 -1.3463887 1.0045005e-38
2.0369918 0.44009909 -1.3469768 1.0038906e-38
2.0396669 0.46277174 -1.3588758 1.0593127e-38
2.0537648 0.4666422 -1.3644464 9.576845e-39
2.0537648 0.49633765 -1.3644464 1.087081e-38
2.0646796 0.52970642 -1.3648401 1.0777539e-38
2.0121722 0.26362205 -1.3251412 1.2987687e-38
2.0084004 0.28691489 -1.3235421 1.0688579e-38
2.011085 0.31532475 -1.3246692 8.9329134e-39
2.0281475 0.30971375 -1.338004 9.7691705e-39
2.0110965 0.34431696 -1.3220788 9.6787433e-39
1.9434037 0.38646606 -1.3183177 9.6762111e-39
2.0169907 0.37301391 -1.3199552 9.6773224e-39
2.0281475 0.37667885 -1.338004 9.5840533e-39
2.0138566 0.41577983 -1.3332522 9.5883749e-39
2.03426 0.40403447 -1.326019 1.0046459e-38
2.0148106 0.42686728 -1.3292053 9.5862015e-39
2.0381141 0.43435696 -1.3274202 1.0781509e-38
2.0462413 0.4636147 -1.3309803 1.1152808e-38
2.0596037 0.46664223 -1.339672 1.0316219e-38
2.0476916 0.48890275 -1.3248268 1.0870807e-38
2.0588739 0.49845874 -1.3427687 1.096659e-38
2.0656865 0.52718896 -1.3356606 1.0689304e-38
2.0759046 0.54652476 -1.3358959 1.1334669e-38
1.9927913 0.25448442 -1.2962137 1.1699451e-38
2.0159268 0.26057738 -1.2905633 6.4457627e-39
2.0539761 0.2613101 -1.298162 4.9753284e-39
2.0736682 0.25920093 -1.2963448 6.4457992e-39
2.0091875 0.28428921 -1.2920355 8.9382958e-39
1.9965577 0.3119486 -1.2802333 1.0049315e-38
2.0100858 0.31532386 -1.2958522 1.0045721e-38
2.0151513 0.34385994 -1.2921604 1.0044649e-38
2.0231347 0.3742018 -1.2938868 9.0330193e-39
2.039669 0.37667888 -1.2891195 3.7663876e-39
2.0243485 0.39706978 -1.2887361 8.9429747e-39
2.0369806 0.4135097 -1.3005258 1.0321233e-38
2.0446737 0.43584797 -1.2969466 9.4936317e-39
2.0450864 0.46369171 -1.3010076 1.3455889e-38
2.0502908 0.49420547 -1.303069 1.142903e-38
2.0712817 0.49209544 -1.2901231 4.9681243e-39
2.0547495 0.52093428 -1.2948802 9.4889556e-39
2.067389 0.53027529 -1.3066394 1.2346654e-38
2.067389 0.54300183 -1.3066394 1.1242101e-38
1.995942 0.26595047 -1.2523313 4.8806076e-39
1.9983547 0.28095099 -1.2551718 2.9452141e-39
2.0156329 0.29751194 -1.2646862 5.3419529e-39
1.9909244 0.31543484 -1.2431068 5.1690733e-39
2.0175288 0.30577615 -1.2566425 4.2309475e-39
2.0022073 0.33657613 -1.2562625 2.6751362e-39
2.0165081 0.34391868 -1.2609738 2.39602e-39
2.0244956 0.3731629 -1.2609881 3.1296334e-39
2.0295944 0.39499083 -1.2664779 3.4087244e-39
2.0448809 0.40776986 -1.2670051 4.0523155e-39
2.0502059 0.43312877 -1.2723107 3.0367063e-39
2.0444696 0.46457058 -1.2687509 3.958308e-39
2.0527968 0.49645466 -1.2682923 3.683526e-39
2.0600996 0.52472752 -1.2721809 3.1299655e-39
2.0751743 0.53451747 -1.2736069 3.2217954e-39
1.9805883 0.26333946 -1.2215742 5.1636769e-39
1.9971623 0.26920736 -1.2166393 4.4189092e-39
1.9994371 0.28525177 -1.2252951 2.4871198e-39
2.0074801 0.31030673 -1.2338897 4.5107601e-39
2.0229003 0.31679508 -1.2338516 4.5150677e-39
2.0078568 0.33657613 -1.2322916 2.6718642e-39
2.023406 0.34379157 -1.2317066 2.7622718e-39
2.0269957 0.37478369 -1.2331198 2.6693531e-39
2.0369389 0.39998025 -1.2353168 3.6842197e-39
2.0518303 0.41574189 -1.2375193 3.6820981e-39
2.0369072 0.43726179 -1.2354517 2.9448652e-39
2.0521505 0.42690274 -1.2361612 2.3920641e-39
2.0379403 0.46567342 -1.2310674 2.6693657e-39
2.0492702 0.46875593 -1.2483824 2.5768099e-39
2.0514302 0.49386787 -1.2392166 4.1434139e-39
2.0623417 0.52601635 -1.2412089 2.854459e-39
2.0338864 0.54051375 -1.2482669 7.9139998e-39
2.0492702 0.5440917 -1.2483824 8.7387228e-39
1.985545 0.26333946 -1.2005432 4.7891533e-39
2.0081475 0.26595047 -1.2005447 6.4529556e-39
2.0411239 0.26555109 -1.1972165 5.8853695e-39
2.0105944 0.28583899 -1.2054191 4.050889e-39
2.0353837 0.28486362 -1.1961433 1.49368e-38
1.9990338 0.30183852 -1.2086991 2.0286892e-39
2.0330112 0.31452844 -1.2062106 9.8602969e-39
2.0678153 0.31303641 -1.1995876 2.1389043e-38
2.039907 0.34388375 -1.2066622 1.2168418e-38
2.0607915 0.35993761 -1.1994978 1.7892835e-38
2.0401413 0.37291303 -1.2095228 6.7267203e-39
2.0656145 0.37615475 -1.2022835 1.1713573e-38
2.0434246 0.3967728 -1.2077976 2.6722187e-39
2.0620849 0.40986422 -1.2095089 3.406558e-39
2.090745 0.40159512 -1.2075417 3.4951523e-39
2.0421529 0.44627035 -1.2131935 3.3136435e-39
2.0644119 0.43444312 -1.2131976 3.5898702e-39
2.090745 0.43694678 -1.2075417 3.3143735e-39
2.0424707 0.46567342 -1.2118446 5.0643039e-39
2.0588713 0.46457061 -1.2076453 4.8780867e-39
2.0963707 0.46614534 -1.2098281 4.1408916e-39
2.0424707 0.4823046 -1.2118446 6.9978771e-39
2.0651338 0.49454629 -1.2159475 4.9727991e-39
2.0933297 0.49751234 -1.2111059 4.0501323e-39
2.0672922 0.52380276 -1.2242258 2.7619102e-39
2.0944402 0.52495509 -1.2156408 4.4174687e-39
2.1003914 0.54652476 -1.2319995 3.4036797e-39
2.1265128 0.54999727 -1.2257903 7.7289345e-39
2.0491474 0.2660991 -1.1835161 8.2677352e-39
2.0639918 0.26228011 -1.1859188 5.8904702e-39
2.0969732 0.25962275 -1.1811156 5.3329412e-39
2.0491474 0.2785725 -1.1835161 2.1486984e-38
2.0704277 0.28708622 -1.1865114 2.1388331e-38
2.101712 0.28451246 -1.1847874 1.5022128e-38
2.077347 0.3213388 -1.1873749 1.9360033e-38
2.0976646 0.31320038 -1.1854491 1.5569222e-38
2.1286404 0.30093578 -1.1818883 3.4076328e-39
2.0491474 0.34509724 -1.1835161 2.2310631e-38
2.0739691 0.34479141 -1.1900845 2.1019541e-38
2.0983348 0.34554091 -1.1818777 1.7693295e-38
2.0791142 0.3624624 -1.1915027 2.1203938e-38
2.1032958 0.37542117 -1.1899558 9.9578553e-39
2.1286404 0.38691744 -1.1818883 3.7764349e-39
2.1024151 0.40431651 -1.1907197 3.3165231e-39
2.1286404 0.40411377 -1.1818883 3.1317745e-39
2.1606216 0.40544587 -1.1900479 3.4984047e-39
2.1046801 0.43457612 -1.1920075 3.5905905e-39
2.1286404 0.42990825 -1.1818883 2.7647885e-39
2.1606216 0.4359633 -1.1900479 3.1314158e-39
2.1082273 0.46539998 -1.1987525 4.23309e-39
2.1341321 0.46416074 -1.1934615 3.590959e-39
2.1606216 0.46648073 -1.1900479 3.4987662e-39
2.1043434 0.49661103 -1.1988852 3.8671774e-39
2.1331916 0.49391836 -1.1974524 3.7746258e-39
2.1598215 0.49699816 -1.1934426 3.6842253e-39
2.1059644 0.52460736 -1.1974558 4.8759343e-39
2.1298056 0.51675594 -1.1943815 4.2327327e-39
2.1596212 0.52315599 -1.1942912 4.4171212e-39
2.182219 0.2370055 -1.1681581 5.5266931e-39
2.111192 0.25705627 -1.1643778 4.2356054e-39
2.1454272 0.25761101 -1.1664603 3.9600877e-39
2.1734524 0.25358847 -1.1654994 4.2345152e-39
2.1148877 0.28009394 -1.1704926 2.9462987e-39
2.1408598 0.28579035 -1.1649159 2.8562625e-39
2.1666222 0.28192291 -1.1645877 2.6704321e-39
2.114594 0.31809449 -1.1717395 3.1303396e-39
2.1398695 0.31316441 -1.1691176 4.0504953e-39
2.1755366 0.31635544 -1.1666198 3.3140162e-39
2.1150837 0.3458477 -1.1696615 2.3956528e-39
2.1408596 0.34078714 -1.1649159 3.8671886e-39
2.1726637 0.34795445 -1.1668532 3.3154469e-39
2.1147571 0.3700428 -1.1710469 2.762283e-39
2.1367819 0.3763144 -1.1705924 4.3249339e-39
2.170603 0.37481397 -1.1686206 3.681361e-39
2.1721272 0.40368325 -1.173421 3.4076426e-39
2.1765223 0.4346011 -1.1737295 3.2228898e-39
2.1759577 0.46359694 -1.1757022 3.6817015e-39
2.1987422 0.4773798 -1.1721579 4.4149758e-39
2.1744268 0.49670753 -1.1802957 4.233083e-39
2.2048197 0.49192703 -1.1741616 3.6809911e-39
2.1471484 0.51941288 -1.1731073 3.8675249e-39
2.1719134 0.51836336 -1.1770099 4.3227479e-39
2.2007701 0.2386899 -1.1635534 4.8849307e-39
2.2047312 0.25663799 -1.1573337 4.2345376e-39
2.2349164 0.25998902 -1.1668864 4.7905784e-39
2.1793578 0.2852619 -1.1477487 3.6860357e-39
2.2027981 0.27405137 -1.1549487 4.6976751e-39
2.1862464 0.31600729 -1.1510702 3.5920577e-39
2.1859107 0.33648929 -1.1524943 3.0399643e-39
2.2021222 0.35066786 -1.1578169 4.0559155e-39
2.2535746 0.3520734 -1.1618261 4.4239287e-39
2.1852396 0.3818422 -1.1553422 3.2225268e-39
2.2069519 0.37457877 -1.158498 3.5005655e-39
2.2572913 0.37158605 -1.1617497 4.7909456e-39
2.1852396 0.39939818 -1.1553422 2.2123406e-39
2.2074485 0.40626147 -1.1537445 3.4076482e-39
2.2380013 0.41239634 -1.1537973 3.316177e-39
2.2610016 0.40379009 -1.1616989 3.86719e-39
2.2886548 0.39386424 -1.1699132 4.0533819e-39
2.1852396 0.44328806 -1.1553422 2.760841e-39
2.2127728 0.43399131 -1.1589444 2.6722439e-39
2.2380013 0.43331501 -1.1537973 3.4083811e-39
2.2697494 0.43898347 -1.1585841 4.4239721e-39
2.307276 0.43360734 -1.1693703 7.9331276e-39
2.1852396 0.46084401 -1.1553422 3.5859158e-39
2.218343 0.46294311 -1.1630991 1.6595438e-39
2.2380013 0.46618715 -1.1537973 4.0508624e-39
2.2556455 0.45137614 -1.1530393 4.3285451e-39
2.2119749 0.49449539 -1.1583595 4.0487114e-39
2.2380013 0.48411742 -1.1537973 4.0537379e-39
2.2017841 0.51274127 -1.159251 3.5880724e-39
2.1848893 0.2587831 -1.1149811 6.8207012e-39
2.1638298 0.28394571 -1.1023287 5.2555419e-39
2.1782899 0.27901652 -1.1150817 5.8047458e-39
2.1973217 0.30722934 -1.1040789 5.5302917e-39
2.2285545 0.3561101 -1.1197724 2.857745e-39
2.2421145 0.3586055 -1.1363453 2.9466616e-39
2.2285545 0.36501285 -1.1197724 3.4962537e-39
2.2462277 0.36757064 -1.1188931 7.6496701e-39
2.2691014 0.37828624 -1.1351783 4.2349075e-39
2.2804945 0.39102384 -1.1260719 4.0605972e-39
2.195308 0.474011 -1.1126227 4.8824307e-39
2.217463 0.465211 -1.1174297 5.2490539e-39
2.2421145 0.45722204 -1.1363453 3.5906199e-39
2.2577164 0.45137614 -1.1442525 5.9041174e-39
2.1973217 0.49156696 -1.1040789 5.434887e-39
2.2119241 0.48622015 -1.1162279 4.8817063e-39
2.1683311 0.2568208 -1.0832298 6.3593755e-39
2.1895278 0.25340673 -1.0906497 5.8965967e-39
2.1684968 0.28351283 -1.0825275 6.3589985e-39
2.1856239 0.28076035 -1.0839636 6.4497663e-39
2.184624 0.30517429 -1.088207 4.9839548e-39
2.2639291 0.37012842 -1.1178923 5.6189252e-39
2.3064694 0.38539818 -1.1139438 7.9223922e-39
2.299161 0.39386424 -1.1253363 5.529982e-39
2.2503409 0.44825688 -1.101441 6.2725496e-39
2.1993353 0.474011 -1.095535 6.2624981e-39
2.2187879 0.46320298 -1.0938432 6.2628442e-39
2.2503409 0.45722204 -1.101441 5.5363859e-39
2.2701418 0.45588991 -1.091532 7.4631629e-39
2.1993353 0.49156696 -1.095535 5.8937184e-39
2.2192311 0.4942967 -1.0958115 5.8011556e-39
2.3075659 0.38470462 -1.0896748 1.069255e-38
2.3408482 0.39954498 -1.1053913 1.0235176e-38
2.2053764 0.474011 -1.0699034 3.3065907e-39
2.2305868 0.46722507 -1.0740981 9.2112673e-39
2.2053764 0.48278898 -1.0699034 5.9819161e-39
2.223078 0.48622015 -1.0689026 9.2033626e-39
