# .PCD v0.7 - Point Cloud Data file format
VERSION 0.7
FIELDS x y z rgb
SIZE 4 4 4 4
TYPE F F F F
COUNT 1 1 1 1
WIDTH 132
HEIGHT 1
VIEWPOINT 0 0 0 1 0 0 0
POINTS 132
DATA ascii
4.0838947 -0.18918166 -1.419953 1.2451054e-38
4.0838947 -0.14188623 -1.419953 1.6943132e-38
4.090817 -0.22071192 -1.389192 5.694238e-39
4.1387334 -0.22348623 -1.4222277 6.2627994e-39
4.0896635 -0.19443671 -1.3943188 9.6812936e-39
4.1387334 -0.20752293 -1.4222277 6.4487069e-39
4.0890865 -0.16553394 -1.3968823 1.0414934e-38
4.090817 -0.14188623 -1.389192 1.2268177e-38
4.1399012 -0.13302751 -1.4170364 1.1059207e-38
4.1955633 -0.10509725 -1.4247626 1.2077693e-38
4.1404853 -0.063853212 -1.4144408 1.2443909e-38
4.1973386 -0.080844037 -1.4168755 1.1246481e-38
4.1410694 -0.037247706 -1.4118452 1.1523404e-38
4.1422377 -0.015963303 -1.4066539 1.0122131e-38
4.090817 0.015765138 -1.389192 1.1986547e-38
4.1404853 0.0079816515 -1.4144408 1.1245017e-38
4.1404853 0.031926606 -1.4144408 1.1986909e-38
4.1955633 0.048506424 -1.4247626 1.2539364e-38
4.0977392 -0.22071192 -1.358431 8.4924713e-39
4.0471849 -0.18684772 -1.3416719 1.1167519e-38
4.0954318 -0.19969173 -1.3686846 9.6665464e-39
4.0471849 -0.17127708 -1.3416719 1.309969e-38
4.0954318 -0.16290642 -1.3686846 1.3270795e-38
4.0960088 -0.13400367 -1.3661213 1.2635172e-38
4.0977392 -0.11035596 -1.358431 1.2353923e-38
4.1469107 -0.10110091 -1.3858887 1.2904552e-38
4.0977392 -0.063060552 -1.358431 1.355853e-38
4.1474948 -0.071834862 -1.3832932 1.1985119e-38
4.0942783 -0.031530276 -1.3738115 1.1241075e-38
4.1480789 -0.042568807 -1.3806975 1.2536139e-38
4.1474948 -0.015963303 -1.3832932 1.2257764e-38
4.0960088 0.015765138 -1.3661212 1.1342263e-38
4.1474948 0 -1.3832932 1.1524881e-38
4.0977392 0.031530276 -1.358431 1.1613838e-38
4.1457424 0.031926606 -1.39108 1.143016e-38
4.0506034 -0.18684772 -1.3264811 8.7255324e-39
4.0506034 -0.17127708 -1.3264811 1.2063567e-38
4.102931 -0.15765136 -1.3353602 6.4479277e-39
4.102931 -0.13400367 -1.3353602 8.1139105e-39
4.1012006 -0.10247339 -1.3430505 1.4289909e-38
4.1562562 -0.10376146 -1.3443586 2.7590025e-40
4.1545038 -0.071834862 -1.3521454 8.2025202e-39
4.1046615 -0.039412845 -1.32767 5.0524517e-39
4.1527519 -0.039908256 -1.3599323 1.5393747e-38
4.1046615 -0.015765138 -1.32767 8.4497008e-39
4.1527519 -0.015963303 -1.3599323 1.8346932e-38
4.103508 0.010510092 -1.3327968 1.2901276e-38
4.1527519 0 -1.3599323 1.7799903e-38
4.102931 0.031530276 -1.3353602 1.4112377e-38
4.0557308 -0.19463302 -1.3036951 4.1470293e-39
4.0557308 -0.17127708 -1.3036951 1.3800702e-39
4.1098533 -0.15765136 -1.3045992 2.9477266e-39
4.1098533 -0.13400367 -1.3045992 3.4091041e-39
4.1098533 -0.10247339 -1.3045992 2.3949396e-39
4.1092763 -0.068315595 -1.3071626 3.4987564e-39
4.1098533 -0.039412845 -1.3045992 2.394934e-39
4.1098533 -0.015765138 -1.3045992 1.6584395e-39
4.1092763 0.0052550458 -1.3071626 1.0134415e-39
4.1632657 0.015963303 -1.3132108 3.0392314e-39
4.1081228 0.031530276 -1.3122895 1.837447e-39
4.1632657 0.031926606 -1.3132108 3.8703892e-39
4.2239614 -0.25870094 -1.2985679 7.1976687e-39
4.0642772 -0.21798898 -1.2657181 4.7912889e-39
4.118506 -0.22071192 -1.2661479 4.7005142e-39
4.0608587 -0.19463304 -1.2809089 3.6853309e-39
4.1167755 -0.19706422 -1.2738382 4.2413787e-39
4.0608587 -0.17127708 -1.2809089 2.9480783e-39
4.1167755 -0.16553394 -1.2738382 6.0907396e-39
4.1167755 -0.13400367 -1.2738382 6.2790923e-39
4.1167755 -0.11035596 -1.2738382 4.9833186e-39
4.118506 -0.078825682 -1.2661479 7.1059102e-39
4.1150451 -0.039412845 -1.2815285 1.0120332e-39
4.1150451 -0.015765138 -1.2815285 1.6566725e-39
4.1150451 0 -1.2815285 2.2087967e-39
4.1667705 0.015963303 -1.297637 2.9509748e-39
4.2204118 0.032337617 -1.3143423 3.0366936e-39
4.1737795 -0.25541285 -1.2664893 6.1731233e-39
4.231061 -0.25870094 -1.2670193 4.8835069e-39
4.0694046 -0.23355964 -1.242932 4.3302729e-39
4.176116 -0.22880733 -1.2561067 3.1360695e-39
4.1755319 -0.19954127 -1.2587024 1.3366148e-38
4.1737795 -0.16761467 -1.2664893 1.8259819e-38
4.1755319 -0.14366972 -1.2587024 1.6688147e-38
4.2292862 -0.12935047 -1.2749064 1.7063041e-38
4.1737795 -0.11174311 -1.2664893 1.7348647e-38
4.2298779 -0.10240245 -1.2722774 1.3537284e-38
4.2292862 -0.080844037 -1.2749064 1.4483389e-38
4.2839994 -0.065511927 -1.2913997 1.5835385e-38
4.2857971 -0.049133942 -1.2834104 1.1375978e-38
4.2346106 -0.24253212 -1.2512449 4.6994618e-39
4.2911906 -0.25385872 -1.2594428 4.7887918e-39
4.3487797 -0.26545322 -1.2677172 6.5458659e-39
4.1825409 -0.22348623 -1.2275547 3.8693214e-39
4.1288896 -0.18918166 -1.2200063 2.663647e-39
4.1825409 -0.20752293 -1.2275547 2.1140535e-39
4.1265821 -0.16816147 -1.23026 1.3364771e-38
4.1825409 -0.15963301 -1.2275547 7.6472487e-39
4.1825409 -0.14366972 -1.2275547 4.5136342e-39
4.2363858 -0.12935047 -1.2433578 5.4215971e-39
4.2363858 -0.10509725 -1.2433578 1.096556e-38
4.2381606 -0.080844037 -1.2354707 1.8991257e-38
4.2905912 -0.070971258 -1.2621059 1.3747621e-38
4.29179 -0.038215291 -1.2567798 5.614612e-39
4.3451371 -0.049772475 -1.2839034 8.1293402e-39
4.3487797 -0.016590826 -1.2677172 4.338591e-39
4.3451371 0 -1.2839034 2.3012768e-39
4.4064937 0 -1.2845416 1.4711644e-39
4.3524218 -0.26545322 -1.2515312 6.1720583e-39
4.1340814 -0.18918166 -1.1969357 7.4498323e-39
4.187798 -0.20752293 -1.2041939 2.7555063e-39
4.1340814 -0.17341653 -1.1969357 1.3918278e-38
4.187798 -0.15963301 -1.2041939 1.4469322e-38
4.187798 -0.14366972 -1.2041939 8.3894618e-39
4.243485 -0.12935047 -1.211809 7.7257494e-39
4.187798 -0.11174311 -1.2041939 1.576003e-38
4.2417102 -0.097012848 -1.2196963 2.1301522e-38
4.30018 -0.11464586 -1.2194968 1.3541135e-38
4.2417102 -0.072759636 -1.2196963 1.5289767e-38
4.2452602 -0.048506424 -1.2039219 1.4471404e-38
4.2977829 -0.038215291 -1.2301491 1.409762e-38
4.3542433 -0.016590826 -1.2434381 7.8438719e-39
4.4101844 0 -1.2681408 4.6025648e-40
4.1392727 -0.18918166 -1.1738648 1.1704113e-38
4.1913028 -0.20752293 -1.1886201 6.5487988e-39
4.1415801 -0.16816147 -1.1636112 1.5942256e-38
4.1913028 -0.15963301 -1.1886201 1.686492e-38
4.1930552 -0.14366972 -1.1808332 1.1422567e-38
4.1913028 -0.063853212 -1.1886201 7.0716933e-39
4.2488098 -0.048506424 -1.1881475 1.3827848e-38
4.3037758 -0.032755964 -1.2035184 1.5938656e-38
4.363349 -0.033181652 -1.202973 1.4926301e-38
4.3037758 -0.016377982 -1.2035184 1.2726573e-38
