# .PCD v0.7 - Point Cloud Data file format
VERSION 0.7
FIELDS x y z rgb
SIZE 4 4 4 4
TYPE F F F F
COUNT 1 1 1 1
WIDTH 111
HEIGHT 1
VIEWPOINT 0 0 0 1 0 0 0
POINTS 111
DATA ascii
3.2419107 -0.36981651 -1.392953 1.1238142e-38
3.2775178 -0.3735413 -1.3944457 1.114452e-38
3.2404482 -0.34431192 -1.3991593 1.1798874e-38
3.2389853 -0.31243119 -1.4053653 1.1520855e-38
3.2745631 -0.31557798 -1.4069829 1.1336464e-38
3.2409353 -0.28905198 -1.3970904 1.0597471e-38
3.2760406 -0.27049541 -1.4007143 8.7564114e-39
3.2760406 -0.2511743 -1.4007143 1.0954363e-38
3.275548 -0.22755963 -1.4028038 1.576326e-38
3.2419107 -0.2040367 -1.392953 1.2252672e-38
3.2760406 -0.18677065 -1.4007143 1.1981846e-38
3.2775178 -0.16744953 -1.3944457 1.0784034e-38
3.3081481 -0.16266054 -1.4214134 1.2264166e-38
3.3456829 -0.15778348 -1.4234469 1.1423971e-38
3.3111334 -0.13663486 -1.4087477 1.1797805e-38
3.3111334 -0.11711559 -1.4087477 1.2439587e-38
3.3486991 -0.10518899 -1.4106489 1.1158566e-38
3.2497115 -0.37406728 -1.3598537 1.1146662e-38
3.2804728 -0.38642204 -1.3819084 1.3452591e-38
3.2469258 -0.34249017 -1.371675 9.9535421e-39
3.2477617 -0.31243119 -1.3681288 1.0417038e-38
3.2477617 -0.2869266 -1.3681288 9.4021676e-39
3.2492242 -0.26779816 -1.3619225 6.1832449e-39
3.2819502 -0.2511743 -1.3756398 1.0957591e-38
3.2448361 -0.21678898 -1.3805408 1.5308045e-38
3.2819502 -0.22541283 -1.3756398 1.1331421e-38
3.2448361 -0.2040367 -1.3805408 1.2163004e-38
3.2819502 -0.19321102 -1.3756398 1.0878374e-38
3.3171034 -0.16266054 -1.3834159 1.1146339e-38
3.2819502 -0.12880734 -1.3756398 1.1698792e-38
3.3171039 -0.14314128 -1.3834161 1.1158925e-38
3.2819502 -0.1159266 -1.3756398 1.2257707e-38
3.3517153 -0.10518899 -1.397851 1.1519092e-38
3.253612 -0.36981651 -1.3433043 1.0873315e-38
3.2201183 -0.35031193 -1.3328464 9.2152498e-39
3.2550747 -0.33793578 -1.3370981 9.6758552e-39
3.2545869 -0.31455657 -1.3391668 1.1059524e-38
3.2908146 -0.30913761 -1.3380282 6.908173e-39
3.2550747 -0.2869266 -1.3370981 1.0598903e-38
3.2922921 -0.2962569 -1.3317595 1.656304e-39
3.2208421 -0.26510093 -1.3297746 7.1048368e-39
3.2558062 -0.25504586 -1.3339951 1.0589175e-38
3.2863824 -0.24473393 -1.3568339 1.1343647e-38
3.2565374 -0.22316512 -1.330892 1.2071826e-38
3.2863824 -0.22541285 -1.3568339 1.1602997e-38
3.2884929 -0.19137092 -1.3478788 1.087872e-38
3.2922921 -0.16744953 -1.3317595 9.7629879e-39
3.3240693 -0.16049173 -1.3538625 1.1333214e-38
3.2893372 -0.12880734 -1.3442967 1.1794546e-38
3.3245666 -0.14314128 -1.3517514 1.1154919e-38
3.253612 -0.11477064 -1.3433043 1.2164815e-38
3.2878599 -0.10948624 -1.3505653 1.2167689e-38
3.2285643 -0.34925994 -1.2970086 4.2391899e-39
3.261657 -0.3347477 -1.3091706 4.7012527e-39
3.2609255 -0.31243119 -1.3122737 3.96621e-39
3.2952468 -0.32201836 -1.3192222 5.0718344e-39
3.2594628 -0.28055045 -1.3184798 1.0106094e-39
3.2295299 -0.25247705 -1.292913 1.233614e-38
3.2594628 -0.24866971 -1.3184798 1.04152e-38
3.2295299 -0.23354128 -1.292913 5.9033902e-39
3.261657 -0.21997705 -1.3091706 3.9550584e-39
3.2623885 -0.19766055 -1.3060676 3.7774887e-39
3.2638509 -0.17853209 -1.2998614 2.3009223e-39
3.2967243 -0.16100916 -1.3129536 2.2087336e-39
3.296232 -0.1373945 -1.3150432 1.5651761e-39
3.3320293 -0.13012843 -1.3200868 3.5005543e-39
3.2594628 -0.11477064 -1.3184798 1.2444209e-38
3.2967243 -0.1159266 -1.3129537 2.1226855e-39
3.2338738 -0.36609176 -1.2744821 7.4649509e-39
3.2338738 -0.34715596 -1.2744821 2.8580743e-39
3.268239 -0.33155963 -1.2812431 2.4871142e-39
3.2697017 -0.1912844 -1.2750371 3.0381258e-39
3.269702 -0.16577981 -1.2750372 2.3013034e-39
3.2711644 -0.13389908 -1.2688309 1.8448795e-40
3.3011568 -0.13524771 -1.2941477 2.5800301e-39
3.2711644 -0.11477064 -1.2688309 1.8413622e-40
3.3011568 -0.1159266 -1.2941477 3.1296137e-39
3.2396655 -0.36609176 -1.2499077 6.7295257e-39
3.2411139 -0.34715596 -1.2437642 3.7735608e-39
3.2414758 -0.31559634 -1.2422283 4.3335575e-39
3.2440095 -0.2840367 -1.231477 2.6657587e-39
3.2740898 -0.29330274 -1.2564187 2.9451959e-39
3.2770152 -0.22954127 -1.2440065 2.0218186e-39
3.3100212 -0.21897247 -1.2565361 2.0268591e-39
3.2440095 -0.1893578 -1.231477 2.027564e-39
3.2750647 -0.19978593 -1.2522812 2.672569e-39
3.2755527 -0.16577981 -1.2502127 5.8979742e-39
3.2755525 -0.13389908 -1.2502126 9.8580814e-39
3.2760398 -0.11051986 -1.2481438 9.482511e-39
3.3129761 -0.1159266 -1.2439989 2.6657545e-39
3.2483535 -0.34715596 -1.2130462 3.4097894e-39
3.2483535 -0.32822019 -1.2130462 2.1197764e-39
3.2822809 -0.31370643 -1.2216645 2.8526611e-39
3.3188858 -0.30913761 -1.2189244 3.8653809e-39
3.2469053 -0.27772477 -1.2191898 1.7513835e-39
3.2818906 -0.28905198 -1.2233194 2.9459414e-39
3.2799406 -0.21678898 -1.2315943 2.761899e-39
3.3159308 -0.21897247 -1.2314616 3.0377642e-39
3.3499403 -0.23423119 -1.244092 2.2069246e-39
3.2469053 -0.1893578 -1.2191898 2.3984975e-39
3.2835972 -0.19766055 -1.216079 2.303439e-39
3.3159308 -0.20609175 -1.2314616 2.7604613e-39
3.2825005 -0.16737385 -1.2207336 2.854459e-39
3.2799406 -0.13389908 -1.2315943 3.4947809e-39
3.3159308 -0.13524771 -1.2314616 2.3041509e-39
3.2526972 -0.34084404 -1.1946154 4.2355844e-39
3.2205484 -0.32497615 -1.1828082 3.223589e-39
3.2555931 -0.32822019 -1.1823282 2.6739998e-39
3.2887168 -0.31880733 -1.1943576 2.76405e-39
3.2262828 -0.33747521 -1.1584766 4.1412139e-39
3.2262828 -0.32497615 -1.1584766 4.7826275e-39
