# .PCD v0.7 - Point Cloud Data file format
VERSION 0.7
FIELDS x y z rgb
SIZE 4 4 4 4
TYPE F F F F
COUNT 1 1 1 1
WIDTH 134
HEIGHT 1
VIEWPOINT 0 0 0 1 0 0 0
POINTS 134
DATA ascii
2.5181816 -0.21223487 -1.3539706 7.2741571e-39
2.5160568 -0.19309264 -1.3514569 7.3734952e-39
2.5196607 -0.16844036 -1.3473973 8.3865527e-39
2.5420089 -0.15795779 -1.3528504 8.2025258e-39
2.5011818 -0.1203523 -1.3338615 6.6176502e-39
2.5421951 -0.13927461 -1.3520219 9.5822246e-39
2.5638385 -0.13353027 -1.3560524 8.6602823e-39
2.5204003 -0.11117064 -1.3441107 6.630154e-39
2.5420089 -0.10190825 -1.3528504 8.3750438e-39
2.5638385 -0.020543119 -1.3560524 1.8381855e-39
2.5200248 -0.21435688 -1.3218663 1.0873312e-38
2.5481615 -0.22419816 -1.3255094 1.1708499e-38
2.5184207 -0.19150825 -1.3210247 8.9415384e-39
2.524838 -0.17180915 -1.324391 9.6740755e-39
2.5477142 -0.15693872 -1.3274978 9.1234227e-39
2.5226192 -0.12127706 -1.3342508 9.3927915e-39
2.5492802 -0.14267156 -1.3205383 9.3121384e-39
2.5680263 -0.13059555 -1.337442 8.6613627e-39
2.5226192 -0.11117064 -1.3342508 8.8568411e-39
2.5476022 -0.094265133 -1.3279951 1.1146637e-38
2.5683486 -0.10785139 -1.3360103 8.8485958e-39
2.591727 -0.1139156 -1.3368855 8.5705978e-39
2.5481615 -0.081526607 -1.3255094 1.1887072e-38
2.5683486 -0.070616975 -1.3360105 1.0045345e-38
2.5683486 -0.041086238 -1.3360105 9.3074202e-39
2.5683486 -0.015407339 -1.3360105 8.8460721e-39
2.5940006 -0.010355963 -1.3267821 9.209482e-39
2.5694761 0 -1.3309999 8.6660207e-39
2.592052 0.013314811 -1.3354421 9.0319277e-39
2.5940006 0.031067891 -1.3267821 9.1223227e-39
2.6348915 0.031585321 -1.3591511 9.2152316e-39
2.5110903 -0.21061653 -1.2898306 7.5517978e-39
2.5191503 -0.18983395 -1.2898825 9.217412e-39
2.5318112 -0.16459028 -1.2934029 9.7709557e-39
2.5526361 -0.15286238 -1.305625 9.214182e-39
2.5337131 -0.14148991 -1.2849516 9.2239014e-39
2.5526361 -0.13757613 -1.305625 9.4950947e-39
2.5728586 -0.12325872 -1.3159685 9.8530816e-39
2.5563648 -0.098511316 -1.2890548 9.4950597e-39
2.5734224 -0.1001477 -1.3134632 8.7528157e-39
2.5526361 -0.081526607 -1.305625 7.7419162e-39
2.5753956 -0.070616975 -1.304695 8.2032475e-39
2.574362 -0.042798165 -1.3092879 9.0290621e-39
2.5985477 -0.038834862 -1.3065755 9.3085314e-39
2.5728586 -0.020543119 -1.3159685 9.4943478e-39
2.5985479 -0.015533946 -1.3065755 8.7539171e-39
2.5762413 0.020543119 -1.3009371 9.9524477e-39
2.5988727 0.0073971166 -1.3051323 9.585456e-39
2.5773687 0.030814679 -1.2959266 1.0135012e-38
2.5962741 0.031067891 -1.3166789 9.766955e-39
2.4963367 -0.21886973 -1.2551829 6.1742359e-39
2.4963369 -0.20394677 -1.255183 7.0918594e-39
2.5176959 -0.18554311 -1.2604765 6.4479516e-39
2.5273931 -0.16100916 -1.2598971 6.910701e-39
2.4985209 -0.12933211 -1.245477 9.027239e-39
2.5176959 -0.140411 -1.2604765 9.673323e-39
2.5209987 -0.11032294 -1.2457995 8.8439211e-39
2.5615857 -0.096812837 -1.2658563 8.9404468e-39
2.563823 -0.081526607 -1.255914 1.8370701e-39
2.5803754 -0.075324774 -1.2825652 7.8312265e-39
2.563823 -0.040763304 -1.255914 1.1053036e-39
2.5814278 -0.036977611 -1.2778889 8.4765987e-39
2.5833824 -0.017119266 -1.2692039 7.8337307e-39
2.6030948 -0.010355963 -1.286369 9.6783677e-39
2.5830064 0.020543119 -1.2708741 1.0412682e-38
2.6053686 0.0051779817 -1.2762657 6.8185053e-39
2.5615854 0.030572476 -1.2658563 1.0591698e-38
2.5818789 0.030814679 -1.2758846 1.0228269e-38
2.5050733 -0.21886973 -1.2163593 4.7059148e-39
2.5254023 -0.2156312 -1.2262303 4.5161509e-39
2.5028894 -0.19755124 -1.2260652 4.6969521e-39
2.5232005 -0.20058715 -1.2360148 1.6627569e-39
2.503763 -0.17310604 -1.2221828 3.8714906e-39
2.5246685 -0.16715597 -1.2294917 2.305604e-39
2.5705349 -0.17324403 -1.2260875 2.8530213e-39
2.5014329 -0.13596451 -1.2325357 2.0257885e-39
2.5660603 -0.096812844 -1.2459719 7.3770853e-39
2.5660603 -0.081526607 -1.2459719 1.9328516e-39
2.5682976 -0.040763304 -1.2360296 2.944882e-39
2.588644 -0.030814679 -1.2458217 2.6693587e-39
2.588644 -0.015407339 -1.2458217 2.211256e-39
2.588644 0.020543119 -1.2458217 3.4955264e-39
2.6121895 0.0051779817 -1.2459557 2.9459301e-39
2.5880802 0.033382569 -1.248327 5.9822693e-39
2.5094416 -0.21886973 -1.1969475 5.6188958e-39
2.5081313 -0.20096219 -1.2027709 3.6817169e-39
2.5298061 -0.18052843 -1.2066609 2.6700803e-39
2.5072575 -0.17907523 -1.2066534 3.2210849e-39
2.5536823 -0.15159634 -1.196213 4.319176e-39
2.5727723 -0.17324403 -1.2161453 3.0402936e-39
2.5536823 -0.040425688 -1.196213 2.1172709e-39
2.5750093 -0.033969417 -1.206203 3.3089729e-39
2.5931542 -0.030814679 -1.2257799 2.5807658e-39
2.5761282 -0.020381652 -1.201232 7.1952206e-39
2.5948453 -0.01283945 -1.2182641 5.0714827e-39
2.5965366 0.0051357797 -1.2107484 5.9891721e-39
2.5408156 -0.15044038 -1.1577375 2.8516059e-39
2.5159943 -0.13785951 -1.1678299 2.6668391e-39
2.5397146 -0.140411 -1.1626297 2.6693671e-39
2.5839589 -0.061144952 -1.1664343 3.2203618e-39
2.5794842 -0.030572476 -1.1863186 2.0218285e-39
2.5794842 -0.015286239 -1.1863186 3.0309792e-39
2.5817215 0.020381652 -1.1763765 2.7587223e-40
2.5999193 0.0051357797 -1.195717 1.0322622e-38
2.5636668 -0.15159634 -1.1518435 2.4896155e-39
2.5203624 -0.12933211 -1.1484179 2.0229075e-39
2.5539131 -0.13368756 -1.1405292 3.5963386e-39
2.5008392 -0.10858716 -1.139522 1.2256292e-38
2.5225465 -0.11192202 -1.138712 8.9440411e-39
2.5452192 -0.10697982 -1.1381681 1.1337916e-38
2.587986 -0.097831927 -1.1485384 8.7585946e-39
2.6111946 -0.092444032 -1.1456121 6.4487013e-39
2.5647762 -0.060638532 -1.1469136 2.6661287e-39
2.5880609 -0.073034249 -1.1482069 2.9466644e-39
2.6111946 -0.071900919 -1.1456121 3.6827833e-39
2.6564002 -0.062642202 -1.154254 3.9604688e-39
2.563297 -0.047163296 -1.153487 2.3020125e-39
2.5873148 -0.045858715 -1.151521 2.0261374e-39
2.6461921 -0.045100916 -1.1646969 2.4853107e-39
2.5116754 -0.12833028 -1.0913684 3.412683e-39
2.529099 -0.13928072 -1.1095943 4.9724726e-39
2.5594187 -0.12582937 -1.1228964 4.8813405e-39
2.5312831 -0.11938348 -1.0998884 7.0954257e-39
2.5640299 -0.10678899 -1.1119692 1.1245721e-38
2.5940268 -0.091717429 -1.1216943 6.4544452e-39
2.6145771 -0.082172476 -1.1305807 2.4878723e-39
2.6349249 -0.072491743 -1.1449226 4.2377452e-39
2.5160098 -0.12833028 -1.072107 1.2443847e-38
2.5334673 -0.12933211 -1.0901825 1.8385961e-39
2.5160098 -0.11845872 -1.072107 1.132822e-38
2.5356512 -0.11606728 -1.0804765 1.0046822e-38
2.5707967 -0.10415045 -1.0882764 1.1520135e-38
2.5203443 -0.10858716 -1.0528456 1.1515825e-38
2.5400198 -0.10943487 -1.0610648 1.0694708e-38
