# .PCD v0.7 - Point Cloud Data file format
VERSION 0.7
FIELDS x y z rgb
SIZE 4 4 4 4
TYPE F F F F
COUNT 1 1 1 1
WIDTH 127
HEIGHT 1
VIEWPOINT 0 0 0 1 0 0 0
POINTS 127
DATA ascii
2.5144863 -0.21939084 -1.3464783 1.2261276e-38
2.5160878 -0.19176513 -1.3473325 9.3985522e-39
2.5204003 -0.17180917 -1.3441107 1.0594939e-38
2.5204003 -0.12127706 -1.3441107 7.6292686e-39
2.5427921 -0.13451889 -1.3493707 9.0301313e-39
2.5204003 -0.11117064 -1.3441107 6.8081315e-39
2.5429409 -0.098511308 -1.3487078 8.0109403e-39
2.4832318 -0.22881836 -1.3134183 1.2167641e-38
2.5167 -0.21561468 -1.3222934 1.013218e-38
2.5481613 -0.22759511 -1.3255093 1.1431908e-38
2.5205617 -0.19167952 -1.3221384 9.0330123e-39
2.5259473 -0.17180917 -1.3194611 9.7662642e-39
2.5477142 -0.1569387 -1.3274978 8.9411922e-39
2.5481615 -0.14267156 -1.3255094 9.0355487e-39
2.5683486 -0.13059555 -1.3360103 8.4780491e-39
2.5226192 -0.11117064 -1.3342508 8.4902418e-39
2.5481617 -0.10190825 -1.3255094 9.9488323e-39
2.5481613 -0.081526607 -1.3255093 1.1611239e-38
2.5683486 -0.066765137 -1.3360105 9.4914695e-39
2.5683486 -0.041086242 -1.3360105 9.3981921e-39
2.5672212 -0.020543119 -1.3410208 9.3095754e-39
2.591727 -0.012944954 -1.3368855 9.1190913e-39
2.5694761 0.020543119 -1.3309999 8.9408139e-39
2.6006346 0.0062135779 -1.3392067 8.7564282e-39
2.5940006 0.031067891 -1.3267821 9.5811442e-39
2.6348915 0.031585321 -1.3591511 9.5833008e-39
2.5242102 -0.21561468 -1.2889203 7.1941388e-39
2.5215633 -0.19001697 -1.2911167 9.4010788e-39
2.5269415 -0.16264817 -1.2911295 9.8627828e-39
2.5337131 -0.13138348 -1.2849516 8.853684e-39
2.5535312 -0.13248071 -1.3016481 9.0355431e-39
2.5542345 -0.10045242 -1.2985235 9.0290579e-39
2.5526361 -0.081526607 -1.305625 7.0072322e-39
2.5753956 -0.070616975 -1.3046949 8.6635081e-39
2.5751138 -0.041086242 -1.3059475 9.2141666e-39
2.5751138 -0.020543119 -1.3059475 9.4021438e-39
2.5985475 -0.010355963 -1.3065754 8.7467327e-39
2.5751138 0.020543119 -1.3059475 9.8595304e-39
2.5985479 0.0051779817 -1.3065755 9.4928989e-39
2.5571108 0.035667889 -1.2857406 1.0871524e-38
2.5751138 0.030814679 -1.3059475 9.5843826e-39
2.5165949 -0.22064587 -1.2653688 6.8189187e-39
2.4941525 -0.19897246 -1.2648889 9.0362479e-39
2.5165949 -0.18052843 -1.2653688 9.6751321e-39
2.479167 -0.17768808 -1.2358292 2.8573961e-39
2.4985209 -0.16415229 -1.245477 3.4977194e-39
2.5295284 -0.15715155 -1.2652867 8.2950717e-39
2.5360022 -0.13127217 -1.2641516 7.4620783e-39
2.537596 -0.10864403 -1.2676969 9.7590545e-39
2.5615857 -0.096812844 -1.2658563 8.8486043e-39
2.5627046 -0.071335785 -1.2608852 3.9611583e-39
2.5796239 -0.071900912 -1.2859056 9.3070615e-39
2.5627043 -0.040763304 -1.2608851 6.0802172e-39
2.5815568 -0.041086238 -1.2773162 7.5571494e-39
2.58233 -0.016434494 -1.2738805 8.4801861e-39
2.5827808 0.014380182 -1.2718763 9.5861427e-39
2.6053684 0.010355963 -1.2762656 5.6199804e-39
2.5604668 0.030572476 -1.2708273 9.4947051e-39
2.5841339 0.030814679 -1.2658637 9.9535029e-39
2.6076419 0.031067891 -1.2661623 5.0542551e-39
2.5007048 -0.16912661 -1.2357711 7.2841582e-39
2.5028892 -0.12933211 -1.2260652 2.398143e-39
2.5232005 -0.13038164 -1.2360148 3.9582954e-39
2.5425882 -0.11117064 -1.2455121 9.5753485e-39
2.5660603 -0.10190825 -1.2459719 1.0696836e-38
2.5863891 -0.092444032 -1.2558427 5.2515412e-39
2.5660603 -0.081526607 -1.2459719 8.3299907e-40
2.5863891 -0.066765137 -1.2558427 2.9434302e-39
2.5682976 -0.042461772 -1.2360297 2.6707768e-39
2.5875165 -0.030814679 -1.2508322 3.0366796e-39
2.5705349 -0.020381652 -1.2260875 2.7658479e-39
2.5881929 -0.014380182 -1.247826 2.5767903e-39
2.588644 0 -1.2458217 3.0366894e-39
2.6117344 0.014498348 -1.2479764 3.1306745e-39
2.6110525 0.031067891 -1.2510073 2.8548303e-39
2.53421 -0.18554312 -1.1870915 3.6860049e-39
2.5536823 -0.040425688 -1.196213 2.4888995e-39
2.5735178 -0.033969417 -1.2128311 2.8533632e-39
2.5745621 -0.014267156 -1.2081915 4.5140013e-39
2.5763519 0.010190826 -1.2002378 6.5473471e-39
2.5939057 0.010271559 -1.2224395 2.3016678e-39
2.5942817 0.030814679 -1.2207694 1.8381687e-39
2.4975884 -0.20236698 -1.1539682 3.4090705e-39
2.5159941 -0.19897246 -1.1678298 2.6722271e-39
2.5375128 -0.18554312 -1.1724145 3.6806211e-39
2.5154481 -0.16166513 -1.1702563 4.4286511e-39
2.5391641 -0.16548441 -1.1650759 4.1466341e-39
2.5170863 -0.14922936 -1.1629769 2.6679378e-39
2.5420711 -0.13258788 -1.1712883 2.8566184e-39
2.5570104 -0.030319266 -1.1814232 4.3177145e-39
2.5832129 -0.033969417 -1.1697483 2.4856681e-39
2.5586746 -0.017686239 -1.1740282 5.6203013e-39
2.5817215 -0.015286239 -1.1763765 4.2287825e-39
2.5603387 0.010106422 -1.1666334 8.2688801e-40
2.579484 0.010190826 -1.1863186 1.0783601e-38
2.5592294 0.030319266 -1.1715633 3.7897248e-39
2.5008392 -0.19743119 -1.139522 2.7647941e-39
2.5203624 -0.18902384 -1.1484179 2.945563e-39
2.521673 -0.1691266 -1.1425945 2.3960018e-39
2.5228198 -0.13803716 -1.1374989 2.1186974e-39
2.5463202 -0.12787431 -1.1332757 6.4479362e-39
2.5225465 -0.10943487 -1.138712 1.0786523e-38
2.5495625 -0.09797889 -1.1427819 9.5876196e-39
2.5873148 -0.091717429 -1.151521 5.533928e-39
2.6326513 -0.093203671 -1.1550258 6.8275157e-39
2.5510044 -0.063699089 -1.1443449 2.6682965e-39
2.5861962 -0.081526607 -1.156492 1.4754776e-39
2.6095033 -0.069333032 -1.1531278 3.2232597e-39
2.6469009 -0.074917428 -1.1545628 3.317242e-39
2.5636668 -0.050532106 -1.1518435 2.3009251e-39
2.6081877 -0.044510093 -1.1589735 2.2090952e-39
2.6326513 -0.051779814 -1.1550258 2.1212212e-39
2.5647762 -0.010106422 -1.1469136 2.4867569e-39
2.5640366 0.010106422 -1.1502002 2.3934878e-39
2.5861962 0 -1.156492 2.3935103e-39
2.5625575 0.030319266 -1.1567736 2.1190632e-39
2.5283709 -0.11275107 -1.1128296 9.866017e-39
2.5605195 -0.10569358 -1.1180041 1.1706325e-38
2.5940268 -0.10190825 -1.1216943 1.1333573e-38
2.6349249 -0.093203671 -1.1449226 6.9132597e-39
2.6586924 -0.083522938 -1.1440684 3.9576214e-39
2.487015 -0.11219633 -1.0597519 1.0969495e-38
2.5160098 -0.098715596 -1.072107 1.0870817e-38
2.5334673 -0.10943487 -1.0901825 1.1526257e-38
2.4423509 -0.12446605 -1.0304835 1.3169931e-38
2.4621325 -0.11577248 -1.0336767 1.2808693e-38
2.4954464 -0.10508899 -1.0450583 1.2072252e-38
