# .PCD v0.7 - Point Cloud Data file format
VERSION 0.7
FIELDS x y z rgb
SIZE 4 4 4 4
TYPE F F F F
COUNT 1 1 1 1
WIDTH 191
HEIGHT 1
VIEWPOINT 0 0 0 1 0 0 0
POINTS 191
DATA ascii
3.0356739 0.079369538 -1.4048837 1.0870793e-38
3.0351224 0.10221835 -1.4072248 1.1423284e-38
3.0354671 0.13077934 -1.4057616 1.1884257e-38
3.0378809 0.16234678 -1.3955197 1.3636694e-38
3.036042 0.19441529 -1.4033232 1.2620729e-38
3.168937 0.037497249 -1.4017918 3.5917171e-39
3.0420189 0.078166969 -1.3779622 1.0318351e-38
3.0759029 0.072858714 -1.3736892 8.4607557e-39
3.1042423 0.061302751 -1.3929404 3.6752583e-39
3.168937 0.062495407 -1.4017918 3.401191e-39
3.0420189 0.10221834 -1.3779622 1.2166248e-38
3.0420189 0.14430825 -1.3779622 8.9487733e-39
3.0717244 0.12750275 -1.3914182 1.0500247e-38
3.0420189 0.16234678 -1.3779622 1.0871551e-38
3.0420191 0.19241101 -1.3779624 1.1244651e-38
3.0759029 0.20643303 -1.3736892 1.2809101e-38
3.0731173 0.22464769 -1.3855084 1.1518722e-38
3.0433981 0.24051374 -1.3721098 1.1512604e-38
3.0735152 0.25500551 -1.3838199 1.1795641e-38
3.0759029 0.27929175 -1.3736892 1.1884607e-38
3.1037738 0.29016638 -1.3949294 1.2442097e-38
3.1042423 0.31264403 -1.3929404 1.2252676e-38
3.2005706 0.34084404 -1.415785 1.1429398e-38
3.3096409 0.013012844 -1.4150805 8.2900803e-39
3.1439128 0.049511924 -1.3641143 5.6203531e-39
3.1718044 0.043746788 -1.389626 8.1053107e-39
3.0489154 0.084179811 -1.3486998 1.1710658e-38
3.0814741 0.072858714 -1.3500507 1.0957868e-38
3.1098676 0.067433029 -1.3690733 8.5486423e-39
3.0489159 0.10221835 -1.3486999 1.0506e-38
3.0481277 0.13400052 -1.3520441 1.1335043e-38
3.0489159 0.16234678 -1.3486998 1.2253774e-38
3.0482259 0.18339175 -1.351626 1.2991682e-38
3.0800815 0.20036146 -1.3559602 1.2168778e-38
3.0800815 0.2246477 -1.3559602 1.2811619e-38
3.0800815 0.25500551 -1.3559602 1.216446e-38
3.079617 0.28333947 -1.3579302 1.1984012e-38
3.11268 0.29425323 -1.3571397 1.36421e-38
3.0786886 0.30357799 -1.3618699 1.2166225e-38
3.1112738 0.31264403 -1.3631065 1.2717263e-38
3.1439128 0.3218275 -1.3641143 1.3925886e-38
3.1746716 0.33747521 -1.3774602 1.1528407e-38
3.2506869 0.012752294 -1.3557165 1.1248214e-38
3.2804728 0.012880734 -1.3819084 1.1434403e-38
3.0282712 0.059559632 -1.3011585 4.3238283e-39
3.0282712 0.077427521 -1.3011585 4.0519106e-39
3.0544329 0.072154127 -1.3252898 2.2083875e-39
3.0259938 0.10919266 -1.3108205 7.745135e-39
3.0255384 0.1310312 -1.3127528 8.6570524e-39
3.0558124 0.14430825 -1.3194374 5.5328168e-39
3.0558124 0.16234678 -1.3194374 5.3444669e-39
3.0558126 0.19241101 -1.3194375 7.3745518e-39
3.0898311 0.20643303 -1.3145928 5.0639549e-39
3.0870454 0.2246477 -1.3264121 7.1829719e-39
3.0870454 0.25500551 -1.3264121 9.8569968e-39
3.0870454 0.27929175 -1.3264121 1.004211e-38
3.1183052 0.29425323 -1.3332726 7.0932803e-39
3.0898311 0.30357799 -1.3145928 8.2833134e-40
3.1183052 0.31264403 -1.3332726 7.736126e-39
3.1467524 0.3218275 -1.3520664 1.3369396e-38
3.1197114 0.33103487 -1.3273058 5.3362048e-39
3.1875744 0.024998164 -1.3227143 6.3528595e-39
3.22229 0.012623854 -1.3236309 6.7252615e-39
3.2863824 0 -1.3568339 1.1423958e-38
3.002991 0.059009172 -1.2776459 5.8778375e-39
3.002991 0.076711923 -1.2776459 4.7026525e-39
3.0337362 0.077427521 -1.2779701 3.7749761e-39
3.0640886 0.060128435 -1.2843224 3.7731699e-39
3.0002835 0.10621651 -1.2891331 3.9507284e-39
3.0323701 0.10125138 -1.2837671 3.4058167e-39
3.0654678 0.10221834 -1.2784699 3.0381258e-39
3.0627093 0.13228257 -1.290175 3.5934772e-39
3.0627093 0.16234678 -1.290175 3.1310431e-39
3.0627093 0.18639819 -1.290175 4.1433943e-39
3.0940096 0.20643303 -1.2968638 4.7905882e-39
3.0940096 0.2246477 -1.2968638 2.9463015e-39
3.0940096 0.25500551 -1.2968638 3.3147099e-39
3.0926168 0.28536332 -1.3027735 4.5103804e-39
3.1253366 0.28812295 -1.3034385 5.5335006e-39
3.1581104 0.28469357 -1.3038749 3.8646705e-39
3.0944738 0.30762568 -1.294894 3.4990997e-39
3.122524 0.31877431 -1.3153721 3.5869822e-39
3.1918755 0.024998164 -1.3044658 4.0551532e-39
3.0682266 0.048102751 -1.2667649 4.5136188e-39
3.1323681 0.049042203 -1.2736046 4.6969296e-39
3.1976099 0.049996328 -1.2801341 4.6976499e-39
3.0378351 0.077427521 -1.2605786 3.9601185e-39
3.0702956 0.069147706 -1.2579862 5.3423327e-39
3.0696058 0.10221834 -1.2609124 3.5920927e-39
3.0696061 0.13228257 -1.2609124 3.9623368e-39
3.1037593 0.12143119 -1.2554964 1.9824231e-38
3.0682266 0.16234678 -1.2667649 3.500899e-39
3.1023664 0.16393211 -1.2614059 9.5898701e-39
3.0682266 0.19241101 -1.2667649 2.6693489e-39
3.1009736 0.19602464 -1.2673156 2.7619116e-39
3.1337743 0.18390827 -1.2676378 7.4739543e-39
3.1004164 0.225862 -1.2696794 2.85338e-39
3.1337743 0.22068991 -1.2676378 3.2217954e-39
3.0981879 0.24286237 -1.279135 2.488891e-39
3.1313131 0.25900415 -1.2780796 3.4094124e-39
3.1281493 0.29425323 -1.291505 3.5902612e-39
3.1623697 0.29088256 -1.2858031 5.2537104e-39
3.0991166 0.31167337 -1.2751952 2.8541031e-39
3.1309619 0.30651376 -1.2795714 3.7728167e-39
3.1637895 0.31563851 -1.2797792 3.7717307e-39
3.2004774 0.049996328 -1.2679684 2.6790725e-39
3.0737436 0.072154127 -1.2433549 9.8609793e-39
3.106545 0.078930274 -1.243677 1.7612614e-38
3.1384623 0.073563308 -1.2477485 1.5212268e-38
3.1715982 0.071173392 -1.2466475 1.2242905e-38
3.0737438 0.10221834 -1.2433549 2.0192296e-38
3.106545 0.10321651 -1.243677 2.1109571e-38
3.1393995 0.10421468 -1.2437706 1.898009e-38
3.172308 0.10521284 -1.2436354 1.445884e-38
3.0737438 0.13829541 -1.2433549 2.047141e-38
3.1072414 0.13661009 -1.2407222 2.0096163e-38
3.1393995 0.12873578 -1.2437706 1.9263167e-38
3.172308 0.12996881 -1.2436354 1.7414471e-38
3.1379933 0.17164771 -1.2497374 1.2269261e-38
3.1694684 0.16091375 -1.2556833 1.8628566e-38
3.1365869 0.20229909 -1.2557042 2.4874729e-39
3.1700363 0.19062091 -1.2532737 2.301295e-39
3.1694682 0.22280367 -1.2556833 3.3125743e-39
3.2033446 0.23748255 -1.2558026 2.5789735e-39
3.13729 0.2605367 -1.2527208 2.8548107e-39
3.1694684 0.25374863 -1.2556833 3.49982e-39
3.2033446 0.25623119 -1.2558026 2.6711509e-39
3.1365869 0.28199267 -1.2557042 2.7615515e-39
3.1685221 0.29294553 -1.2596992 2.8573218e-39
3.2033446 0.28747892 -1.2558026 2.9484441e-39
3.1680489 0.30944952 -1.2617073 3.0409858e-39
3.2353218 0.31559634 -1.2683386 2.5757127e-39
3.1779871 0.049511924 -1.2195396 3.0367175e-39
3.1478372 0.061302751 -1.2079698 1.8428336e-39
3.1760941 0.070141889 -1.2275716 1.5644488e-39
3.2076454 0.087493576 -1.237554 1.4740539e-39
3.1779871 0.099023849 -1.2195396 2.8562695e-39
3.2071676 0.10832537 -1.2395816 1.0134471e-39
3.1422122 0.14712662 -1.231837 2.0001669e-38
3.1770406 0.14440978 -1.2235556 1.7513512e-39
3.2071676 0.12915719 -1.2395816 1.0141687e-39
3.1422122 0.17164771 -1.231837 5.2350128e-39
3.1765673 0.16710274 -1.2255636 2.0268731e-39
3.1760941 0.18979572 -1.2275716 3.0392034e-39
3.2090793 0.19998531 -1.2314712 3.4047783e-39
3.2069287 0.22185868 -1.2405955 2.3949396e-39
3.242851 0.22975412 -1.2363919 2.1201408e-39
3.2062118 0.25623119 -1.2436368 2.2123224e-39
3.2425616 0.258789 -1.2376206 2.0293646e-39
3.2062118 0.27497983 -1.2436368 2.581444e-39
3.2396655 0.2840367 -1.2499077 2.3970654e-39
3.2740898 0.29330274 -1.2564187 2.2137573e-39
3.1808267 0.012377981 -1.2074918 3.4940803e-39
3.2153869 0.019998532 -1.2047064 4.8798846e-39
3.2148137 0.043746788 -1.2071396 3.7753671e-39
3.183666 0.068078898 -1.1954439 4.2363341e-39
3.2148137 0.076780081 -1.2071396 3.314382e-39
3.2133801 0.10624219 -1.2132225 2.3027271e-39
3.1808267 0.1361578 -1.2074918 2.9480811e-39
3.2129023 0.13332354 -1.2152501 2.9473749e-39
3.2133801 0.16873762 -1.2132225 3.1299837e-39
3.2129023 0.1916526 -1.2152501 2.9477406e-39
3.2488358 0.19777371 -1.2109983 2.6722355e-39
3.3188858 0.20609175 -1.2189244 4.0548127e-39
3.2469053 0.21460551 -1.2191898 3.1274642e-39
3.2834511 0.22444037 -1.2166996 3.3161714e-39
3.2824483 0.2532241 -1.2209553 3.1306899e-39
3.2119465 0.27497983 -1.2193054 2.5807279e-39
3.3159308 0.27049541 -1.2314616 2.116545e-39
3.1619 0.024521101 -1.148302 8.2046207e-39
3.1893451 0.024755962 -1.1713481 4.7790682e-39
3.1619 0.042911928 -1.148302 3.780416e-39
3.1893451 0.037133943 -1.1713481 8.4804972e-39
3.2205484 0.049996328 -1.1828082 1.0042865e-38
3.1921847 0.061889905 -1.1593002 4.7913225e-39
3.2215042 0.070828132 -1.1787529 6.3618544e-39
3.2526972 0.08836697 -1.1946154 5.3404858e-39
3.2570415 0.22722936 -1.1761847 4.8849391e-39
3.2563171 0.25563303 -1.1792563 4.0544511e-39
3.2887168 0.26779816 -1.1943576 4.696931e-39
3.1068482 0.024051376 -1.102895 5.4359156e-39
3.1344013 0.024286238 -1.1254842 8.0094647e-39
3.1362584 0.040477064 -1.1176046 6.0824075e-39
3.1647127 0.049042203 -1.1363684 5.6228923e-39
3.1964438 0.068078898 -1.1412284 5.8061877e-39
3.2313006 0.22185871 -1.1371865 5.3427012e-39
3.261385 0.23354128 -1.1577538 5.5274218e-39
3.2628329 0.258789 -1.1516101 5.61963e-39
3.2035427 0.22280365 -1.1111087 6.1738842e-39
3.2348847 0.23748255 -1.1219794 4.7898918e-39
3.2348847 0.25623119 -1.1219794 4.5122007e-39
