# .PCD v0.7 - Point Cloud Data file format
VERSION 0.7
FIELDS x y z rgb
SIZE 4 4 4 4
TYPE F F F F
COUNT 1 1 1 1
WIDTH 121
HEIGHT 1
VIEWPOINT 0 0 0 1 0 0 0
POINTS 121
DATA ascii
2.5075881 -0.22118533 -1.3372779 1.2724045e-38
2.5160699 -0.1932456 -1.3496894 8.38728e-39
2.5204003 -0.17180917 -1.3441107 1.0687127e-38
2.5423446 -0.13451889 -1.351359 8.2932907e-39
2.5425682 -0.10190825 -1.3503649 7.9183901e-39
2.5436869 -0.081526607 -1.3453938 1.1614828e-38
2.5187056 -0.2204131 -1.3243121 1.179133e-38
2.5481615 -0.22419816 -1.3255094 1.1523735e-38
2.5184207 -0.19150825 -1.3210247 9.4921968e-39
2.524838 -0.17180915 -1.324391 9.8570431e-39
2.5481617 -0.15795779 -1.3255094 9.1259324e-39
2.5226192 -0.12127706 -1.3342508 9.395311e-39
2.5683486 -0.13353027 -1.3360105 8.663162e-39
2.5226192 -0.11117064 -1.3342508 9.3128166e-39
2.5478423 -0.098996587 -1.3269298 1.0503438e-38
2.5694761 -0.11298716 -1.3309999 8.0116872e-39
2.5481613 -0.081526607 -1.3255093 1.1245322e-38
2.5683486 -0.066765137 -1.3360103 9.1251925e-39
2.5683486 -0.041086242 -1.3360105 9.4903919e-39
2.5912724 -0.014498348 -1.338906 8.5695118e-39
2.5706036 0.020543119 -1.3259895 9.2156099e-39
2.5917273 0.0090614678 -1.3368855 9.3077845e-39
2.6151421 0.031321101 -1.3375957 9.5821952e-39
2.6348915 0.031585321 -1.3591511 8.7556729e-39
2.5292757 -0.21223487 -1.3046714 5.6275053e-39
2.4919684 -0.19897246 -1.2745947 9.1284295e-39
2.5178888 -0.18767707 -1.2915033 9.6769454e-39
2.532234 -0.16844036 -1.2915249 1.1332885e-38
2.5539787 -0.15897688 -1.2996597 1.0229409e-38
2.5337131 -0.12633027 -1.2849516 9.2167071e-39
2.5559921 -0.14267156 -1.2907118 1.0787958e-38
2.5728586 -0.13353027 -1.3159685 9.5854827e-39
2.5337131 -0.11117064 -1.2849516 8.3743166e-39
2.555321 -0.09783192 -1.2936944 9.4028472e-39
2.5728586 -0.1027156 -1.3159685 8.5694852e-39
2.5526361 -0.081526607 -1.305625 7.0086727e-39
2.5753956 -0.070616975 -1.304695 8.3872814e-39
2.5751138 -0.041086238 -1.3059475 9.122687e-39
2.5756774 -0.01797523 -1.3034422 8.7557052e-39
2.5962741 -0.010355963 -1.3166789 9.2052179e-39
2.5762413 0.020543119 -1.3009371 9.8598919e-39
2.598093 0.0041423854 -1.3085961 9.4014361e-39
2.5571108 0.030572476 -1.2857406 9.6772887e-39
2.5751138 0.030814679 -1.3059475 9.4921786e-39
2.4952447 -0.19399816 -1.2600359 8.5727362e-39
2.4974289 -0.17907523 -1.25033 5.893738e-39
2.524641 -0.16367653 -1.2569429 6.2653386e-39
2.5593481 -0.15286238 -1.2757984 4.7862764e-39
2.536011 -0.13000458 -1.262784 6.5419212e-39
2.4963367 -0.10943487 -1.2551829 8.8324529e-39
2.5381508 -0.10611743 -1.265232 9.5825792e-39
2.5615854 -0.094265133 -1.2658563 7.8333929e-39
2.5841339 -0.1027156 -1.2658637 1.0144389e-38
2.563823 -0.071335778 -1.255914 1.5619265e-39
2.5812347 -0.071900919 -1.2787478 6.9096192e-39
2.563823 -0.045858715 -1.255914 1.4701078e-39
2.5812347 -0.039618876 -1.2787478 8.4783812e-39
2.5818789 -0.015407339 -1.2758846 8.567714e-39
2.5615854 0.020381652 -1.2658563 1.0227951e-38
2.582201 0.010271559 -1.274453 9.5832854e-39
2.6076419 0.015533945 -1.2661623 1.1070664e-39
2.5403695 0.030319266 -1.255372 9.7694858e-39
2.5593481 0.030572476 -1.2757984 1.0779672e-38
2.5841339 0.030814679 -1.2658637 9.3081026e-39
2.6076419 0.031067891 -1.2661623 4.5010253e-39
2.5660603 -0.091717429 -1.2459719 5.0696947e-39
2.5863891 -0.1027156 -1.2558427 9.6848501e-39
2.5470259 -0.060638532 -1.2257924 2.8541129e-39
2.5660601 -0.071335778 -1.2459718 2.210879e-39
2.5470259 -0.050532106 -1.2257924 2.5771434e-39
2.5682976 -0.040763304 -1.2360296 2.6697048e-39
2.5875165 -0.030814679 -1.2508322 2.9452239e-39
2.5705349 -0.015286239 -1.2260875 2.5789399e-39
2.5875165 -0.01540734 -1.2508322 2.3949032e-39
2.5892079 0.0051357797 -1.2433165 2.8537373e-39
2.6106732 0.013807951 -1.2526911 3.1321179e-39
2.6110525 0.031067891 -1.2510073 3.2228702e-39
2.53421 -0.16046973 -1.1870915 5.9059728e-39
2.5765009 -0.064541899 -1.1995749 1.8428378e-39
2.5752895 -0.039489448 -1.2049603 3.0352531e-39
2.5750098 -0.015286238 -1.2062031 6.1760254e-39
2.5954092 0.010271559 -1.2157589 4.7927574e-39
2.5965366 0.030814679 -1.2107484 3.3287985e-39
2.5159941 -0.1691266 -1.1678298 8.6703198e-39
2.5445015 -0.15793446 -1.1686875 2.7665934e-39
2.5159941 -0.13928072 -1.1678298 1.3850798e-39
2.5425959 -0.13222019 -1.1657683 2.9473735e-39
2.5839589 -0.091717429 -1.1664343 5.8147749e-39
2.5595992 -0.070744954 -1.16992 2.482801e-39
2.5811622 -0.073883489 -1.178862 2.1168939e-39
2.6718748 -0.084227525 -1.1948059 1.1063392e-39
2.5597839 -0.042952292 -1.1690984 2.393841e-39
2.5817215 -0.035667889 -1.1763765 2.4849506e-39
2.5817218 -0.015286238 -1.1763765 2.4835339e-39
2.5817218 0.0087349936 -1.1763765 3.9586541e-39
2.5999193 0.010271559 -1.195717 1.0141826e-38
2.5502703 -0.15416883 -1.1476064 2.0283025e-39
2.5501106 -0.13189541 -1.1403451 4.3313981e-39
2.5230925 -0.10943487 -1.1362855 1.0232279e-38
2.5647762 -0.10611743 -1.1469136 1.115388e-38
2.5873148 -0.10190825 -1.151521 1.0787239e-38
2.6089394 -0.095867895 -1.1556331 7.6536764e-39
2.6445258 -0.093583487 -1.15464 6.6370358e-39
2.5502648 -0.063699082 -1.1476314 2.3027215e-39
2.5873148 -0.066240363 -1.151521 2.304902e-39
2.6111946 -0.061629359 -1.1456121 4.3281555e-39
2.6505353 -0.07472416 -1.1628569 2.9516993e-39
2.6788092 -0.084227525 -1.1639911 3.1360457e-39
2.5430174 -0.050146788 -1.1479528 2.6689831e-39
2.5884335 -0.050954126 -1.1465498 3.0377684e-39
2.6089394 -0.038151506 -1.1556331 2.0257787e-39
2.5518248 -0.1203523 -1.1088141 7.000719e-39
2.5518248 -0.11032293 -1.1088141 1.1431207e-38
2.5951455 -0.10190825 -1.1167233 1.0968395e-38
2.6134496 -0.1027156 -1.1355911 1.1703796e-38
2.6371987 -0.093203671 -1.1348193 6.2664848e-39
2.6586924 -0.083522938 -1.1440684 2.5825819e-39
2.5160098 -0.11352294 -1.072107 1.1610552e-38
2.4423509 -0.12446605 -1.0304835 1.3815636e-38
2.4610734 -0.11577248 -1.0383829 1.253318e-38
2.4852169 -0.10703696 -1.035207 1.2076201e-38
