# .PCD v0.7 - Point Cloud Data file format
VERSION 0.7
FIELDS x y z rgb
SIZE 4 4 4 4
TYPE F F F F
COUNT 1 1 1 1
WIDTH 127
HEIGHT 1
VIEWPOINT 0 0 0 1 0 0 0
POINTS 127
DATA ascii
2.5181816 -0.21945374 -1.3539705 1.2634057e-38
2.5152254 -0.19575632 -1.3479768 8.4791211e-39
2.5204003 -0.16675596 -1.3441107 9.5879714e-39
2.5418227 -0.16305321 -1.3536791 8.109261e-39
2.5204003 -0.12127706 -1.3441107 6.7977381e-39
2.5418971 -0.13451889 -1.3533475 8.7539143e-39
2.5418971 -0.10394643 -1.3533475 7.8247679e-39
2.5632746 -0.074468806 -1.3585576 9.3978166e-39
2.5638385 -0.051357798 -1.3560524 8.659904e-39
2.5166967 -0.2156301 -1.3223084 1.0412002e-38
2.5481615 -0.22419816 -1.3255094 9.8692666e-39
2.5184207 -0.19150825 -1.3210248 8.8504175e-39
2.5263171 -0.16844036 -1.3178178 9.9538812e-39
2.5466697 -0.15625931 -1.3321376 8.3905156e-39
2.5226192 -0.12127706 -1.3342508 9.6661638e-39
2.5503988 -0.14267156 -1.3155673 8.4928048e-39
2.5675969 -0.13524221 -1.3393507 8.9397531e-39
2.5905902 -0.12427156 -1.3419371 7.4685691e-39
2.5226192 -0.11117064 -1.3342508 8.672838e-39
2.547416 -0.098511316 -1.3288236 1.068496e-38
2.5694761 -0.10785138 -1.3309999 8.6559607e-39
2.6128502 -0.11484404 -1.3477814 8.7456551e-39
2.5481613 -0.081526607 -1.3255093 1.1611221e-38
2.5683486 -0.066765137 -1.3360105 9.4914513e-39
2.5481615 -0.040763304 -1.3255094 9.1237674e-39
2.5683486 -0.041086238 -1.3360103 9.2159546e-39
2.5683486 -0.01797523 -1.3360105 9.033357e-39
2.5928638 -0.010355963 -1.3318337 8.565563e-39
2.5910776 0.0088765398 -1.3397721 8.8486169e-39
2.6151421 0.031321101 -1.3375957 9.3074244e-39
2.6348915 0.031585321 -1.3591511 8.6649347e-39
2.4919684 -0.21886973 -1.2745947 8.4942411e-39
2.5129251 -0.21395965 -1.2816767 7.4635342e-39
2.4919684 -0.20394678 -1.2745947 7.6515282e-39
2.5242536 -0.19019036 -1.2911184 9.7687767e-39
2.5314944 -0.16296606 -1.2948115 9.8627828e-39
2.5548735 -0.15286238 -1.2956828 9.8641995e-39
2.5548735 -0.13655706 -1.2956828 9.5905203e-39
2.5728586 -0.1283945 -1.3159685 9.8613325e-39
2.5554328 -0.10190825 -1.2931974 9.3974676e-39
2.5739863 -0.10014771 -1.310958 9.0283306e-39
2.5751138 -0.071900919 -1.3059475 8.1121392e-39
2.5751138 -0.041086242 -1.3059475 9.0304956e-39
2.5751138 -0.01797523 -1.3059475 8.7575128e-39
2.5996845 -0.010355963 -1.3015239 8.9347028e-39
2.5753956 0.011555504 -1.304695 9.6762181e-39
2.6008213 0.0051779817 -1.2964722 9.6755049e-39
2.5773687 0.030814679 -1.2959266 9.4925275e-39
2.5962741 0.031067891 -1.3166789 9.8595038e-39
2.5165949 -0.22064587 -1.2653688 7.2752123e-39
2.5294864 -0.19150825 -1.2718507 8.1074379e-39
2.5252426 -0.16590826 -1.2588251 6.6359133e-39
2.5593481 -0.15286238 -1.2757984 4.6991073e-39
2.5326161 -0.12965348 -1.2624969 7.0940216e-39
2.5316939 -0.11088807 -1.2620411 9.0229328e-39
2.562145 -0.099360541 -1.2633706 8.8536153e-39
2.5807514 -0.092444032 -1.2808951 7.9259529e-39
2.5638227 -0.071335778 -1.255914 1.1038252e-39
2.5807514 -0.071900912 -1.2808951 7.7379281e-39
2.563077 -0.044160247 -1.259228 4.0533511e-39
2.5811272 -0.039374311 -1.279225 8.3851122e-39
2.58233 -0.016434494 -1.2738805 7.8348139e-39
2.5824425 0.01797523 -1.2733794 9.9470387e-39
2.6048 0.0025889908 -1.2787914 7.4613594e-39
2.563823 0.030572476 -1.255914 9.4910562e-39
2.5807514 0.030814679 -1.2808951 1.0227591e-38
2.4835014 -0.12833028 -1.2165679 2.9419925e-39
2.500705 -0.12933211 -1.2357711 2.6643504e-39
2.5425882 -0.11117064 -1.2455121 9.4838829e-39
2.5660603 -0.096812844 -1.2459719 7.6554449e-39
2.539073 -0.073933952 -1.22925 1.5680236e-39
2.567179 -0.061144952 -1.2410008 2.3037991e-39
2.5448072 -0.045478895 -1.2356523 2.7629808e-39
2.5682976 -0.038215593 -1.2360296 2.1190618e-39
2.588644 -0.030814679 -1.2458217 2.1197792e-39
2.5705349 -0.020381652 -1.2260875 2.5793407e-39
2.5881929 -0.014380184 -1.247826 2.8522968e-39
2.588644 0.014380184 -1.2458217 2.1208526e-39
2.6116209 0.0077669723 -1.2484815 2.3059571e-39
2.588644 0.030814679 -1.2458217 3.2196682e-39
2.5072575 -0.079588987 -1.2066534 8.2903199e-40
2.5744503 -0.033120181 -1.2086886 3.2189185e-39
2.5750098 -0.01528624 -1.2062031 6.0849228e-39
2.5761282 0.010190826 -1.201232 6.4544578e-39
2.5948453 0.010271559 -1.2182641 4.2399382e-39
2.5772469 0.030572476 -1.1962608 6.1933216e-39
2.5942817 0.030814679 -1.2207694 1.1992761e-39
2.5386136 -0.15044038 -1.1675222 2.397078e-39
2.5159938 -0.12933211 -1.1678298 1.6569976e-39
2.5375128 -0.140411 -1.1724145 1.751731e-39
2.5592294 -0.030319266 -1.1715633 2.3931193e-39
2.5839589 -0.035667889 -1.1664343 2.8526569e-39
2.5592294 -0.020212844 -1.1715633 1.932158e-39
2.5822809 -0.012738532 -1.1738908 2.2094623e-39
2.55812 0.020212844 -1.1764932 1.2067886e-38
2.5824676 0.0084923552 -1.1730624 2.5757183e-39
2.6010468 0.010271559 -1.1907065 4.9767367e-39
2.5595992 0.037056882 -1.16992 5.1431479e-39
2.5794842 0.030572476 -1.1863186 8.4960039e-39
2.5430174 -0.15044038 -1.1479528 2.6700747e-39
2.5222349 -0.13643827 -1.1400986 2.3945823e-39
2.5474212 -0.13539633 -1.1283834 6.0787949e-39
2.5019228 -0.11845872 -1.1347066 6.0809543e-39
2.5225468 -0.10777676 -1.138712 1.0785445e-38
2.557394 -0.094692104 -1.1414585 8.1107225e-39
2.5906708 -0.091717429 -1.1366076 6.3604671e-39
2.5644064 -0.070744954 -1.1485569 2.4856821e-39
2.589179 -0.071335778 -1.1432358 3.2246792e-39
2.6111946 -0.071900919 -1.1456121 4.2363032e-39
2.6504631 -0.070345871 -1.154447 3.6852874e-39
2.5625575 -0.050532106 -1.1567736 2.39492e-39
2.5861962 -0.050954126 -1.156492 2.3949144e-39
2.6078119 -0.038518351 -1.1606436 2.2101714e-39
2.6487486 -0.046897247 -1.1620656 2.1201436e-39
2.5873148 -0.010190826 -1.151521 2.4863981e-39
2.6078119 -0.020543119 -1.1606436 2.6704307e-39
2.5873148 0.010190826 -1.151521 2.3012978e-39
2.6066844 0.0051357797 -1.1656541 2.3020069e-39
2.5692139 -0.13138348 -1.1271939 3.5012801e-39
2.5290992 -0.11440917 -1.1095943 9.2148784e-39
2.5648913 -0.10080733 -1.1145191 1.0971242e-38
2.6134496 -0.092444032 -1.1355911 6.6384973e-39
2.487015 -0.11219633 -1.0597519 1.1981483e-38
2.5170934 -0.098715596 -1.0672916 1.1426468e-38
2.5334673 -0.11440918 -1.0901825 9.0323005e-39
2.4621325 -0.11577248 -1.0336767 1.2256603e-38
2.4918332 -0.10976605 -1.0383414 1.1799618e-38
