# .PCD v0.7 - Point Cloud Data file format
VERSION 0.7
FIELDS x y z rgb
SIZE 4 4 4 4
TYPE F F F F
COUNT 1 1 1 1
WIDTH 190
HEIGHT 1
VIEWPOINT 0 0 0 1 0 0 0
POINTS 190
DATA ascii
1.601262 0.32960367 -1.1963367 5.8940547e-39
1.5939757 0.34806606 -1.1880198 6.2650022e-39
1.60472 0.34176186 -1.1865077 8.0141843e-39
1.5939312 0.37329572 -1.1882076 5.1579456e-39
1.6048111 0.37534457 -1.1812782 1.4104903e-38
1.5941675 0.40496147 -1.1872053 6.1847345e-39
1.6030945 0.40485758 -1.188562 9.9510562e-39
1.6071773 0.43506104 -1.1930351 6.6374043e-39
1.5926321 0.4551633 -1.1937203 1.6609815e-39
1.6097559 0.46351239 -1.192992 3.4087342e-39
1.6178317 0.49427766 -1.1980554 3.1306927e-39
1.6162716 0.5236901 -1.1980405 3.2203857e-39
1.6329584 0.52642566 -1.1926266 4.0490743e-39
1.6163933 0.55406094 -1.1975244 4.9739075e-39
1.6329584 0.54351741 -1.1926265 4.5128831e-39
1.6180347 0.58488023 -1.1971918 4.1412574e-39
1.6329584 0.57428259 -1.1926265 4.2327453e-39
1.6202934 0.60860002 -1.2027715 3.1306899e-39
1.6329584 0.61188442 -1.1926265 4.2341634e-39
1.6259457 0.32581285 -1.164259 6.2613785e-39
1.6402774 0.32360369 -1.1615727 6.169536e-39
1.7116126 0.32681102 -1.1771224 5.7099928e-39
1.8236436 0.30859083 -1.2030891 6.0647847e-39
1.6191738 0.34524575 -1.1716236 1.1517634e-38
1.6407332 0.34584501 -1.1644824 1.2997451e-38
1.6813631 0.33195782 -1.168155 4.9738711e-39
1.6199362 0.37400237 -1.1731503 1.9636627e-38
1.6430317 0.37742293 -1.1680504 1.8253702e-38
1.6712917 0.38227525 -1.165116 1.8619156e-38
1.6180946 0.40457332 -1.175216 1.8623924e-38
1.6444823 0.40585113 -1.1682528 1.8161862e-38
1.6722308 0.40928566 -1.1683961 2.0098995e-38
1.6194941 0.43712753 -1.178919 1.9268929e-38
1.6464838 0.43519694 -1.171948 1.9178888e-38
1.6811136 0.431851 -1.1687776 1.594662e-38
1.621369 0.46251601 -1.1764125 5.5270743e-39
1.6463305 0.46408865 -1.1732545 5.4359576e-39
1.674328 0.46522078 -1.1716083 4.1452216e-39
1.6257532 0.49300003 -1.1796062 2.9499014e-39
1.645165 0.49454495 -1.1789783 3.5913164e-39
1.6782297 0.49574453 -1.1735709 3.5923786e-39
1.6458114 0.52480173 -1.1816832 4.0501407e-39
1.6771327 0.52349436 -1.1754972 4.3252759e-39
1.6257532 0.55080003 -1.1796062 3.9611639e-39
1.6441352 0.55592096 -1.1769062 4.1426909e-39
1.6784595 0.55112892 -1.1751244 4.3252759e-39
1.6257532 0.58820003 -1.1796062 5.061399e-39
1.6454674 0.58327091 -1.1754522 4.6040067e-39
1.6741153 0.58765364 -1.1700271 4.9699124e-39
1.6257532 0.60860002 -1.1796062 4.2363032e-39
1.6464583 0.60599816 -1.1789401 4.785161e-39
1.6751683 0.60666203 -1.1756949 4.7866156e-39
1.7078307 0.60746914 -1.1771849 4.6029404e-39
1.8412601 0.29525504 -1.1806531 1.6314622e-38
1.8511152 0.29711559 -1.1955081 1.6308508e-38
1.6546512 0.3259156 -1.1587081 5.5252414e-39
1.7186018 0.32503486 -1.1543185 5.4323367e-39
1.7728606 0.31433395 -1.1613653 5.6156574e-39
1.8172649 0.3142679 -1.1778425 2.9495301e-39
1.8301495 0.30694366 -1.1904302 6.912517e-39
1.8511152 0.30473393 -1.1955081 8.7693678e-39
1.6563847 0.34803301 -1.1586183 1.4745533e-38
1.6864432 0.34353665 -1.1552042 3.4998368e-39
1.7213913 0.34523514 -1.1516161 3.6809827e-39
1.6532643 0.37292698 -1.1587799 1.7146986e-38
1.6858751 0.37601286 -1.1569134 3.8643187e-39
1.7177885 0.37400004 -1.1509186 3.4065678e-39
1.6881869 0.40292406 -1.1609981 4.6000817e-39
1.7188083 0.40618432 -1.1550545 3.4973313e-39
1.6563846 0.42728809 -1.1586183 2.009651e-38
1.6897404 0.43544486 -1.1613413 4.9756885e-39
1.7170542 0.43399066 -1.1572316 3.6827973e-39
1.7393043 0.44189724 -1.1555302 3.0392118e-39
1.6903051 0.46623403 -1.1612318 3.9593842e-39
1.7202451 0.46355408 -1.1596771 3.3150896e-39
1.7412949 0.46683508 -1.1577412 3.6817057e-39
1.6918889 0.49152872 -1.1624157 3.4090691e-39
1.7156434 0.49522743 -1.1568245 3.4994753e-39
1.7421615 0.48927796 -1.1553949 2.8562611e-39
1.6873826 0.52554035 -1.1644104 4.3252815e-39
1.7194825 0.52688766 -1.1623789 4.0497708e-39
1.7425698 0.52640265 -1.1553757 4.1419664e-39
1.6615851 0.56317246 -1.158349 4.4189078e-39
1.6851746 0.55983388 -1.1628814 4.5107377e-39
1.7178239 0.55557317 -1.165753 4.4185491e-39
1.7433842 0.55531836 -1.1562015 4.1419762e-39
1.6862499 0.57986861 -1.1644216 4.6029404e-39
1.7175428 0.58236319 -1.1585 4.5114608e-39
1.7202935 0.60440797 -1.1642658 5.0595983e-39
1.7384802 0.60715961 -1.1590271 7.359094e-39
1.8322766 0.29353762 -1.1664597 1.6035881e-38
1.7471011 0.32041788 -1.1404313 5.1561267e-39
1.7808665 0.3174212 -1.1396816 5.0657332e-39
1.8166201 0.31142846 -1.1544232 3.7695854e-39
1.8322766 0.30106422 -1.1664597 7.7494888e-39
1.7459736 0.34324542 -1.1422185 2.1194191e-39
1.7785861 0.34596112 -1.1363468 3.4094446e-39
1.731172 0.37511009 -1.1420841 3.1317647e-39
1.7456942 0.37568644 -1.1390738 2.9462945e-39
1.7774205 0.37627158 -1.1373475 3.9626128e-39
1.731172 0.40011743 -1.1420841 3.9568493e-39
1.7475044 0.40819535 -1.1420487 2.9466714e-39
1.7775 0.40532243 -1.1404922 3.95938e-39
1.8089476 0.40729767 -1.1412061 3.9604604e-39
1.7466718 0.43593299 -1.1482462 2.6711565e-39
1.7760993 0.43540895 -1.142102 3.7778796e-39
1.8133992 0.43515414 -1.1419339 3.6838917e-39
1.8374563 0.43654314 -1.1444821 2.8559065e-39
1.8616011 0.44186422 -1.1510171 3.2243275e-39
1.7469465 0.46236327 -1.1470805 3.2218234e-39
1.7759694 0.4650152 -1.1435598 2.9488126e-39
1.8132781 0.46543959 -1.1424488 5.0671737e-39
1.8435615 0.46525064 -1.1499649 3.3179637e-39
1.8696716 0.47054315 -1.1560071 3.6831561e-39
1.8857878 0.4780257 -1.1573737 3.4083586e-39
1.7466717 0.49717984 -1.1482462 3.1306885e-39
1.7775166 0.49542534 -1.1468422 3.221452e-39
1.8096693 0.49525619 -1.142066 3.1296222e-39
1.8374565 0.49299267 -1.1444821 3.1317816e-39
1.7447654 0.51350826 -1.148343 3.3132805e-39
1.7801201 0.52616602 -1.1482418 2.7626263e-39
1.8068998 0.52314866 -1.1396201 3.5927471e-39
1.8374565 0.51557255 -1.1444821 2.7619088e-39
1.8616011 0.53328437 -1.1510171 4.423235e-39
1.7409526 0.56404769 -1.1485366 4.6025956e-39
1.7786292 0.55448806 -1.1474745 3.6802848e-39
1.8018119 0.55458719 -1.1387882 5.3405138e-39
1.731172 0.58588624 -1.1420841 4.5132516e-39
1.7477738 0.58965379 -1.1435707 5.1528715e-39
1.7761348 0.58051634 -1.1437674 4.6936926e-39
1.731172 0.60017616 -1.1420841 7.0832358e-39
1.7545006 0.34670293 -1.0963817 4.5165279e-39
1.7814434 0.34716514 -1.1238598 5.1629721e-39
1.7601564 0.37023243 -1.0990233 4.1488244e-39
1.7835394 0.38008714 -1.1149668 3.3179833e-39
1.8197608 0.40557954 -1.1298877 3.4976914e-39
1.8409096 0.41396332 -1.1298304 4.0486792e-39
1.839183 0.42148992 -1.1371561 4.5979111e-39
1.8717012 0.43720365 -1.1430368 4.2352382e-39
1.8893253 0.44718534 -1.1423647 6.167783e-39
1.8741194 0.45974314 -1.1502124 3.5909618e-39
1.892838 0.46619415 -1.1429154 4.4185603e-39
1.8445635 0.49443489 -1.1404828 3.8657453e-39
1.8747053 0.49422386 -1.1477264 4.1419734e-39
1.8973004 0.48759636 -1.1439451 3.8650404e-39
1.7882906 0.52847642 -1.1111544 3.4980544e-39
1.8097318 0.52839911 -1.1313404 4.1427077e-39
1.8499436 0.51858902 -1.1438093 2.9452393e-39
1.8741194 0.52104223 -1.1502124 6.3629656e-39
1.8875566 0.52428627 -1.1498692 1.1432583e-38
1.7915982 0.55381924 -1.1118332 4.4160758e-39
1.8035083 0.55458719 -1.131591 4.6929976e-39
1.7961402 0.57333577 -1.110543 4.5114706e-39
1.7475628 0.32254365 -1.07254 4.6065529e-39
1.7599083 0.32333946 -1.0681089 5.5259995e-39
1.7584053 0.34743142 -1.0744855 5.6217922e-39
1.7582601 0.37004402 -1.0751027 5.346297e-39
1.7879531 0.38743484 -1.097329 5.1590148e-39
1.8998177 0.46803674 -1.1081487 8.1110686e-39
1.9063544 0.48098353 -1.1267804 4.981808e-39
1.7859541 0.52735901 -1.082561 4.6984038e-39
1.7912983 0.55230743 -1.0859572 5.9859084e-39
1.7931345 0.57495695 -1.0860003 5.8036668e-39
1.7516602 0.31795046 -1.055154 7.1858529e-39
1.7654254 0.34227467 -1.0483888 5.437408e-39
1.8204713 0.34014681 -1.0596179 6.6334078e-39
1.7689843 0.36623341 -1.0583702 5.6207258e-39
1.8934548 0.45974314 -1.0681739 1.1793838e-38
1.9025905 0.46260557 -1.0860811 1.1517977e-38
1.8090676 0.50473148 -1.0556923 5.801129e-39
1.8221675 0.50282574 -1.0524206 6.4457908e-39
1.8025635 0.5250259 -1.0593141 6.9100031e-39
1.8221675 0.52316058 -1.0524206 6.3560979e-39
1.7977235 0.54973096 -1.0598701 7.2680125e-39
1.8284464 0.54510278 -1.0519342 5.6228586e-39
1.800459 0.57176149 -1.0682424 6.1703011e-39
1.8643914 0.43804851 -1.0301982 9.0236278e-39
1.8650821 0.45159638 -1.0272678 3.4947963e-39
1.8957984 0.46612844 -1.0582298 9.6776334e-39
1.8061466 0.50501835 -1.0310329 6.0777117e-39
1.8130021 0.52188253 -1.0389986 6.0798529e-39
1.8013686 0.54825687 -1.0404078 1.3041001e-38
1.8829411 0.41638529 -1.0038031 1.0690681e-38
1.8576027 0.44147158 -1.0066915 5.3408795e-39
1.8668088 0.44030648 -1.0199419 4.1390909e-39
1.8980477 0.43323302 -1.0068387 5.8929687e-39
1.8668088 0.45159638 -1.0199419 3.4969754e-39
1.8852568 0.41386175 -0.99397814 1.1319874e-38
1.9000494 0.41900915 -0.98788309 1.0961156e-38
1.9119785 0.43380886 -0.98957753 8.8331437e-39
