# .PCD v0.7 - Point Cloud Data file format
VERSION 0.7
FIELDS x y z rgb
SIZE 4 4 4 4
TYPE F F F F
COUNT 1 1 1 1
WIDTH 110
HEIGHT 1
VIEWPOINT 0 0 0 1 0 0 0
POINTS 110
DATA ascii
3.2745631 -0.36066055 -1.4069829 1.261639e-38
3.2409353 -0.34006116 -1.3970904 1.1893596e-38
3.2760406 -0.31557798 -1.4007143 1.2348845e-38
3.2775178 -0.2962569 -1.3944457 1.0417061e-38
3.3096409 -0.28302938 -1.4150805 1.0783314e-38
3.2745631 -0.24473393 -1.4069829 9.207736e-39
3.3101385 -0.25591925 -1.4129696 9.5876379e-39
3.2765329 -0.22755963 -1.3986247 1.4922007e-38
3.2775178 -0.19965139 -1.3944457 1.3366228e-38
3.3088946 -0.19193944 -1.418247 1.318253e-38
3.3101385 -0.16482936 -1.4129696 1.2536464e-38
3.3111334 -0.13663486 -1.4087477 1.2169129e-38
3.3471909 -0.11833761 -1.4170479 1.2170207e-38
3.2477615 -0.36981651 -1.3681287 1.3451154e-38
3.2477617 -0.34431192 -1.3681287 1.1426504e-38
3.2477615 -0.31880733 -1.3681287 1.1524828e-38
3.2824426 -0.31343117 -1.3735503 1.1422214e-38
3.2814577 -0.28766975 -1.3777293 1.0049333e-38
3.3156111 -0.28628257 -1.3897489 1.0513921e-38
3.2824426 -0.24902751 -1.3735503 9.8609653e-39
3.3141186 -0.26025686 -1.3960818 7.4621007e-39
3.2819502 -0.22541285 -1.3756398 1.2535004e-38
3.2812114 -0.19321102 -1.3787742 1.2902369e-38
3.318099 -0.19085504 -1.3791941 1.1326795e-38
3.2804728 -0.16744953 -1.3819084 1.3726723e-38
3.3177006 -0.16135927 -1.3808829 1.2168392e-38
3.3171034 -0.13663486 -1.3834159 1.2443186e-38
3.3200889 -0.11711559 -1.3707502 1.1981155e-38
3.3517153 -0.11833761 -1.397851 1.1985098e-38
3.391835 -0.10630459 -1.3932755 1.3545223e-38
3.2893372 -0.36066055 -1.3442967 1.3911427e-38
3.3607643 -0.36816144 -1.359457 1.1253588e-38
3.2536118 -0.34431192 -1.3433042 1.023515e-38
3.2903223 -0.34348622 -1.3401177 9.4875179e-39
3.2878599 -0.31557798 -1.3505654 1.2531755e-38
3.2550747 -0.2869266 -1.3370981 1.1155321e-38
3.223738 -0.26510093 -1.3174874 1.0327312e-38
3.2550747 -0.25504586 -1.3370981 1.0415947e-38
3.2863824 -0.24473393 -1.3568339 1.087477e-38
3.2550747 -0.22954127 -1.3370981 1.2620004e-38
3.2878599 -0.21897247 -1.3505653 1.1714593e-38
3.2897594 -0.19689122 -1.3425057 1.1152063e-38
3.3230741 -0.18217981 -1.3580844 1.2078349e-38
3.3245666 -0.16266054 -1.3517514 1.2072567e-38
3.3240693 -0.13880366 -1.3538625 1.2443159e-38
3.3607643 -0.13148624 -1.359457 1.3179599e-38
3.3230741 -0.11711559 -1.3580844 1.2906343e-38
3.3607643 -0.11833761 -1.359457 1.3639138e-38
3.2623882 -0.34176147 -1.3060676 5.9883887e-39
3.2609255 -0.31243119 -1.3122737 6.818176e-39
3.2609255 -0.2869266 -1.3122737 5.2504678e-39
3.2280819 -0.26510093 -1.2990565 6.4385685e-39
3.2623882 -0.24229357 -1.3060676 1.1713509e-38
3.2952468 -0.24473393 -1.3192222 1.1898979e-38
3.2623885 -0.22316514 -1.3060676 5.6235775e-39
3.2638509 -0.19766055 -1.2998614 2.11798e-39
3.2952468 -0.18033028 -1.3192222 1.4711742e-39
3.2645824 -0.16577981 -1.2967584 2.94594e-39
3.2952468 -0.15456881 -1.3192222 1.0116548e-39
3.2982018 -0.14168808 -1.306685 3.3168973e-39
3.3300395 -0.13446605 -1.3285308 1.6577459e-39
3.3320293 -0.11711559 -1.3200868 4.9699124e-39
3.3637805 -0.1117633 -1.3466591 6.4325905e-40
3.2343562 -0.34925994 -1.2724342 7.6561833e-39
3.2697017 -0.33155963 -1.2750371 3.0395733e-39
3.2324259 -0.32822019 -1.2806257 3.0431985e-39
3.2324259 -0.26510093 -1.2806257 5.1446039e-39
3.268239 -0.24229357 -1.2812431 1.1807475e-38
3.268239 -0.22316512 -1.2812431 4.3357239e-39
3.2353218 -0.19566974 -1.2683386 3.2250324e-39
3.269702 -0.16577981 -1.2750372 2.9459498e-39
3.3031266 -0.1373945 -1.2857896 1.106412e-39
3.3350146 -0.13012843 -1.3074211 2.6754515e-39
3.3370049 -0.11277798 -1.2989773 1.3830031e-39
3.2740898 -0.36981651 -1.2564187 1.5936484e-38
3.2403896 -0.34399998 -1.2468359 5.5216583e-39
3.2755525 -0.34431189 -1.2502126 7.1030166e-39
3.2425616 -0.31559634 -1.2376206 4.7920063e-39
3.2770152 -0.30605504 -1.2440065 1.0608896e-38
3.3070664 -0.30913761 -1.2690734 1.7460137e-39
3.3100212 -0.2962569 -1.2565361 6.9189252e-39
3.2402864 -0.22722936 -1.2472749 6.7335124e-39
3.2770152 -0.21678898 -1.2440065 1.4715217e-39
3.2382176 -0.19566974 -1.2560514 2.488203e-39
3.2755525 -0.19766055 -1.2502126 3.0410153e-39
3.2755527 -0.16577981 -1.2502127 4.9731508e-39
3.2770152 -0.13389908 -1.2440065 5.6942422e-39
3.3070664 -0.13524771 -1.2690734 1.5576346e-38
3.2770152 -0.10201835 -1.2440065 7.7404784e-39
3.3080513 -0.11163303 -1.2648942 1.1698426e-38
3.2469053 -0.34084404 -1.2191898 2.6635965e-39
3.2799406 -0.34431189 -1.2315943 6.3665305e-39
3.2483535 -0.32190827 -1.2130462 3.5895199e-39
3.2814033 -0.30605504 -1.2253882 3.4061936e-39
3.2498014 -0.27772477 -1.2069026 2.216281e-39
3.2814033 -0.29330274 -1.2253882 3.220373e-39
3.2814033 -0.21678898 -1.2253882 1.4740357e-39
3.2809155 -0.19553517 -1.2274568 2.7640612e-39
3.3159308 -0.19321102 -1.2314616 3.3154245e-39
3.3529255 -0.18868624 -1.2314262 2.487131e-39
3.3909273 -0.19722936 -1.2314773 4.7008841e-39
3.2818911 -0.16152905 -1.2233195 3.0406495e-39
3.3188858 -0.16744953 -1.2189244 2.2119664e-39
3.2814033 -0.13389908 -1.2253882 3.1317577e-39
3.2799406 -0.10839449 -1.2315943 2.3048641e-39
3.3159308 -0.10948624 -1.2314616 2.4871282e-39
3.2526972 -0.27772477 -1.1946154 2.1215631e-39
3.2526972 -0.26510093 -1.1946154 5.3314978e-39
3.3559108 -0.18217981 -1.2187604 4.6987247e-39
3.3218405 -0.16744953 -1.2063872 4.4224797e-39
