# .PCD v0.7 - Point Cloud Data file format
VERSION 0.7
FIELDS x y z rgb
SIZE 4 4 4 4
TYPE F F F F
COUNT 1 1 1 1
WIDTH 192
HEIGHT 1
VIEWPOINT 0 0 0 1 0 0 0
POINTS 192
DATA ascii
2.9133487 0.52133948 -1.4007994 8.8353199e-39
3.0378809 0.26456514 -1.3955197 1.3540472e-38
3.0369611 0.28059939 -1.3994213 7.3785329e-39
2.9481571 0.35075232 -1.3795271 1.8345833e-38
2.9759173 0.34225324 -1.392517 9.4950737e-39
2.9463689 0.37803304 -1.3871137 7.1819265e-39
2.9732101 0.36585689 -1.4040041 1.5590813e-38
2.9213219 0.40548626 -1.3669702 8.1989581e-39
2.9449387 0.40219599 -1.3931831 5.7175906e-39
2.9427929 0.42090276 -1.402287 4.2374341e-39
2.8927779 0.47078529 -1.3660226 8.3678103e-39
2.9160063 0.47499815 -1.389523 1.2441632e-38
2.9427929 0.46766973 -1.402287 8.2028495e-39
2.8918998 0.50140554 -1.3697481 8.9527011e-39
2.9193285 0.49237615 -1.3754275 1.0964107e-38
2.9427929 0.49105325 -1.402287 1.5488863e-38
2.9181325 0.52829063 -1.3805019 1.0316581e-38
2.9427929 0.55535781 -1.402287 9.3942026e-39
2.9759176 0.55468625 -1.3925171 9.8530087e-39
3.005044 0.57177252 -1.3997097 8.2914956e-39
3.0358119 0.58625227 -1.4042984 1.1603323e-38
3.0661533 0.60715598 -1.4150567 1.25267e-38
3.0118754 0.2620624 -1.3707241 1.3447922e-38
3.0406396 0.28260368 -1.3838147 7.560015e-39
2.9562035 0.3273688 -1.3453872 6.0741174e-39
3.0703316 0.30357799 -1.3973278 2.3952675e-39
2.9528508 0.34490645 -1.3596122 9.7583622e-39
2.9253082 0.37652296 -1.3500557 4.3213718e-39
2.9508393 0.36244404 -1.3681471 8.1272228e-39
2.9813321 0.36585689 -1.3695427 6.4336107e-39
2.9255741 0.40316921 -1.3489281 7.3620592e-39
2.9266372 0.43444955 -1.3444175 7.1766366e-39
2.9508393 0.42090276 -1.3681471 4.5060994e-39
2.898046 0.47078529 -1.3436699 6.7245427e-39
2.9266372 0.45762017 -1.3444175 5.2468888e-39
2.8987987 0.49539086 -1.3404768 6.0759433e-39
2.896729 0.51671559 -1.3492581 8.7341168e-39
2.9253082 0.52713215 -1.3500557 9.3935384e-39
2.9548624 0.53782022 -1.3510772 7.2751549e-39
2.9562035 0.54951197 -1.3453872 1.1513189e-38
2.9813321 0.55468625 -1.3695427 9.1111473e-39
3.0136971 0.57574314 -1.3629947 1.3170964e-38
3.0406396 0.58925873 -1.3838147 1.2894405e-38
3.0717244 0.60715598 -1.3914182 1.2432675e-38
2.9881005 0.2596404 -1.3408251 1.2805407e-38
2.9615676 0.29229358 -1.3226274 4.333891e-39
2.9878297 0.28088367 -1.3419738 6.0845472e-39
2.9346101 0.32438898 -1.3105884 4.5103888e-39
2.9599583 0.3133387 -1.3294554 5.806524e-39
2.9323952 0.35142139 -1.3199853 6.7266923e-39
2.9588854 0.34490645 -1.3340073 5.1608225e-39
2.8799446 0.38691378 -1.298417 1.30964e-38
2.9059484 0.37892476 -1.3101408 1.6215602e-38
2.9319525 0.37536442 -1.3218647 9.4936542e-39
2.9043679 0.4041864 -1.3168467 1.2444628e-38
2.9059484 0.43633759 -1.3101408 2.9485043e-39
2.930181 0.43638042 -1.3293823 9.5850847e-39
2.8799446 0.47226238 -1.298417 5.7128935e-39
2.9046314 0.46504402 -1.315729 5.0715037e-39
2.9292948 0.45762017 -1.3331411 4.2392263e-39
2.8799446 0.49502206 -1.298417 6.9096738e-39
2.9033144 0.49375048 -1.3213172 6.6456383e-39
2.9059484 0.51671559 -1.3101408 6.554135e-39
2.9292948 0.52133948 -1.3331411 4.2309783e-39
2.9588854 0.53782022 -1.3340073 4.6039913e-39
2.9346101 0.54451013 -1.3105884 3.8682648e-39
2.9588854 0.54951197 -1.3340073 7.1664505e-39
2.989454 0.56648809 -1.3350815 6.6164913e-39
2.989454 0.57828993 -1.3350815 1.1511792e-38
3.0191624 0.58368444 -1.3398061 7.5463538e-39
2.9642496 0.26306424 -1.3112475 9.9549462e-39
2.9663954 0.28761688 -1.3021435 5.8969456e-39
2.9966738 0.27537617 -1.3044493 7.4671328e-39
2.9392612 0.31569999 -1.2908547 5.1589966e-39
2.9660378 0.30788258 -1.3036608 4.9792997e-39
2.9385965 0.34755966 -1.2936738 4.3303388e-39
2.9385967 0.37652296 -1.2936739 4.3321478e-39
2.9696138 0.37413579 -1.2884876 4.3328793e-39
2.9108403 0.40517062 -1.2893847 3.7764349e-39
2.9385967 0.39390093 -1.2936739 4.4261147e-39
2.8851657 0.44381285 -1.2762643 4.4221658e-39
2.9108403 0.43305683 -1.2893848 4.1455888e-39
2.857821 0.46235961 -1.2702286 4.0533651e-39
2.8838603 0.46657249 -1.2818024 4.2381585e-39
2.9138508 0.45930272 -1.2766118 5.0646584e-39
2.8838603 0.49502206 -1.2818024 4.6036718e-39
2.8851657 0.51209176 -1.2762643 4.9742943e-39
2.910558 0.52819818 -1.2905823 4.4192722e-39
2.9372678 0.54451013 -1.299312 4.1448138e-39
2.9696138 0.56120372 -1.2884876 4.3285255e-39
2.9948688 0.56648809 -1.3121073 4.6029474e-39
3.0255384 0.58368438 -1.3127528 3.4965956e-39
2.974978 0.26891011 -1.2657276 8.2972171e-39
2.9736369 0.2864477 -1.2714176 4.5183524e-39
3.0002835 0.2714422 -1.2891331 6.8235598e-39
2.9455729 0.31425184 -1.2640734 4.328894e-39
2.9452407 0.34611151 -1.2654829 4.4225344e-39
2.9457724 0.37768146 -1.2632277 4.4221841e-39
2.972296 0.36244404 -1.2771076 4.4221771e-39
2.9182408 0.40954494 -1.2579845 4.515809e-39
2.9445765 0.39679727 -1.2683021 4.3313981e-39
2.8903866 0.43243301 -1.2541116 4.6987513e-39
2.9182408 0.44016513 -1.2579845 4.2384949e-39
2.9478986 0.4402422 -1.2542067 4.5147216e-39
2.8886464 0.47415903 -1.2614958 4.7920176e-39
2.9173629 0.46313024 -1.26171 4.6984052e-39
2.9470129 0.46341285 -1.2579654 4.0497988e-39
2.974978 0.47936147 -1.2657276 2.2045382e-39
2.8877761 0.49502206 -1.265188 5.1561183e-39
2.9164848 0.49949175 -1.2654355 4.5122007e-39
2.9465694 0.49816886 -1.2598448 9.6744497e-39
2.8886464 0.52347153 -1.2614959 4.7930994e-39
2.9164848 0.52245688 -1.2654355 4.3224466e-39
2.9461269 0.52520126 -1.2617242 1.2077632e-38
2.974978 0.53782022 -1.2657276 1.300574e-38
2.945241 0.54451013 -1.2654829 3.6885875e-39
2.9736369 0.55535781 -1.2714176 6.7223931e-39
3.004796 0.55468625 -1.2699879 1.2630433e-38
3.0328255 0.57971376 -1.2818348 3.9561262e-39
3.0654678 0.58925873 -1.2784699 3.6874581e-39
3.0627089 0.60128438 -1.290175 3.4998158e-39
2.9798057 0.26423341 -1.2452438 9.0308165e-39
2.9803421 0.28644773 -1.2429678 3.5931058e-39
2.9532139 0.3185963 -1.2316538 4.5147202e-39
2.9792693 0.31100035 -1.2475197 4.1470237e-39
2.9518847 0.34755966 -1.2372919 4.2384991e-39
2.951885 0.37652296 -1.2372921 3.8722319e-39
2.9830244 0.38582754 -1.2315878 4.2377732e-39
2.9238603 0.40877944 -1.2341417 4.880993e-39
2.9523282 0.39776269 -1.2354127 3.9637044e-39
2.9830244 0.40336514 -1.2315878 3.96261e-39
2.9217529 0.42485502 -1.2430828 4.6069186e-39
2.951885 0.43444952 -1.2372921 4.0555441e-39
2.9830244 0.43844038 -1.2315878 4.3295947e-39
2.979001 0.46766973 -1.2486577 1.1701264e-38
3.0111129 0.46617246 -1.2431847 4.4120807e-39
2.9505563 0.49816883 -1.2429302 1.9442477e-38
2.9794481 0.4949505 -1.2467611 1.7877655e-38
3.0111132 0.49567708 -1.2431848 1.7878333e-38
2.978554 0.52223122 -1.2505543 1.8803202e-38
3.0102108 0.5232147 -1.2470138 1.5759295e-38
3.041934 0.5241248 -1.2431873 2.9391969e-39
3.0084054 0.54288441 -1.2546717 1.7145096e-38
3.0378351 0.55986059 -1.2605786 6.6362511e-39
3.036469 0.57177252 -1.2663758 4.7876763e-39
3.0682266 0.58324587 -1.2667649 4.0576699e-39
3.0682266 0.60128438 -1.2667649 6.5386688e-39
2.9572005 0.26066974 -1.2147393 8.6566684e-39
2.9857063 0.2864477 -1.2202078 3.7814614e-39
2.9558716 0.3185963 -1.2203776 4.0569692e-39
2.9870474 0.31567708 -1.2145178 5.0678884e-39
2.9577696 0.3492147 -1.212323 4.4210854e-39
2.9883885 0.34490645 -1.2088279 4.4235896e-39
2.9572005 0.37073028 -1.2147393 4.6069004e-39
2.9874945 0.38193026 -1.2126212 3.1360891e-39
2.9558716 0.41707155 -1.2203776 4.514716e-39
2.9866004 0.40141654 -1.2164146 4.0533609e-39
3.0178812 0.41306421 -1.2144668 3.6856518e-39
3.0792613 0.40887338 -1.219945 4.1473866e-39
2.9857063 0.42090276 -1.2202078 4.2338131e-39
3.0138202 0.43666789 -1.2316976 4.1423279e-39
3.0765028 0.43492904 -1.23165 4.2341747e-39
3.1093307 0.4492954 -1.2318578 4.4200008e-39
3.0765026 0.45697612 -1.2316499 4.1426895e-39
3.1093307 0.46143851 -1.2318578 4.1433873e-39
3.0737438 0.52913028 -1.2433549 4.6072578e-39
2.9678311 0.35914496 -1.1696339 8.3998749e-39
2.9921434 0.37647414 -1.1928959 4.9760431e-39
3.0246496 0.37765872 -1.1857492 3.9532704e-39
2.9910705 0.39751929 -1.1974479 3.8679145e-39
3.0528646 0.39309359 -1.1968102 4.7934483e-39
3.08202 0.40887338 -1.2082399 4.6097857e-39
3.1149018 0.41286606 -1.2082192 4.8842034e-39
3.1135089 0.4371523 -1.2141289 4.0494373e-39
3.145025 0.46590093 -1.2199035 4.141965e-39
2.9480941 0.34447706 -1.1313192 8.4057309e-39
2.9727037 0.35528317 -1.1489606 6.4576794e-39
2.9744754 0.37073028 -1.1414429 5.4366583e-39
3.0017989 0.37413579 -1.1519281 4.6944353e-39
3.0287106 0.38946056 -1.1685184 6.4543975e-39
3.0610623 0.39309359 -1.1620274 7.000363e-39
3.1190803 0.41286606 -1.1904902 4.0565881e-39
3.1193588 0.43229502 -1.1893083 3.4994823e-39
3.1520562 0.44137982 -1.1900694 5.2512105e-39
3.183666 0.46417427 -1.1954439 4.2370543e-39
2.977133 0.35914496 -1.1301665 9.4004328e-39
3.12883 0.42500916 -1.1491227 3.2146712e-39
3.1576812 0.44137982 -1.1662023 5.4478827e-39
3.1619 0.45364037 -1.148302 6.1630914e-39
3.1902916 0.46623728 -1.1673322 5.6134825e-39
3.1316156 0.43108073 -1.1373035 1.1161805e-38
3.1647127 0.45364037 -1.1363684 6.8920315e-39
