# .PCD v0.7 - Point Cloud Data file format
VERSION 0.7
FIELDS x y z rgb
SIZE 4 4 4 4
TYPE F F F F
COUNT 1 1 1 1
WIDTH 113
HEIGHT 1
VIEWPOINT 0 0 0 1 0 0 0
POINTS 113
DATA ascii
2.5204003 -0.21728808 -1.3441107 1.0599989e-38
2.5133245 -0.19303644 -1.3482251 9.031569e-39
2.5204003 -0.17180917 -1.3441107 1.0137556e-38
2.5414498 -0.16135474 -1.3553361 8.7560653e-39
2.5423446 -0.13451889 -1.351359 7.9270445e-39
2.5425682 -0.10190826 -1.3503648 8.0113144e-39
2.5630867 -0.078748621 -1.3593926 1.0139325e-38
2.5146613 -0.2139523 -1.3217877 9.765918e-39
2.5470428 -0.22929358 -1.3304806 1.3175702e-38
2.5098619 -0.19086605 -1.3165447 8.9418971e-39
2.524838 -0.16928256 -1.324391 9.6762349e-39
2.5481615 -0.15541008 -1.3255094 8.7539395e-39
2.5226192 -0.12127706 -1.3342508 9.2116527e-39
2.5492802 -0.14267156 -1.3205383 9.0344529e-39
2.5680263 -0.13059554 -1.337442 8.935077e-39
2.5226192 -0.11117064 -1.3342508 7.8466815e-39
2.5481617 -0.1006344 -1.3255094 1.0134297e-38
2.5683486 -0.11298716 -1.3360103 8.4740666e-39
2.5481613 -0.081526607 -1.3255093 1.07847e-38
2.5683486 -0.066765137 -1.3360103 9.4003347e-39
2.5683486 -0.04622202 -1.3360105 9.2159602e-39
2.5917268 -0.031067891 -1.3368853 8.9375601e-39
2.5917273 -0.015533946 -1.3368855 8.936858e-39
2.5972943 0.011650459 -1.3383362 9.1237562e-39
2.6151421 0.031321101 -1.3375957 9.5811386e-39
2.6348915 0.031585321 -1.3591511 8.7560555e-39
2.522907 -0.21874915 -1.2919779 9.0333627e-39
2.4908764 -0.19897246 -1.2794477 9.2192029e-39
2.5152633 -0.18789043 -1.2849509 1.004428e-38
2.5290513 -0.16440316 -1.2920032 1.0139008e-38
2.5548735 -0.15286238 -1.2956828 9.5883357e-39
2.5337131 -0.12633027 -1.2849516 9.9528358e-39
2.5548732 -0.13927461 -1.2956828 1.0325187e-38
2.5728586 -0.13353027 -1.3159685 9.2188525e-39
2.5337131 -0.11117064 -1.2849516 8.5609149e-39
2.5548732 -0.098511308 -1.2956828 9.1287757e-39
2.5736103 -0.099291742 -1.3126281 8.6602543e-39
2.5751138 -0.071900919 -1.3059475 8.4791183e-39
2.5753956 -0.042370182 -1.304695 8.8468176e-39
2.5985479 -0.015533946 -1.3065755 8.937951e-39
2.5762413 0.020543119 -1.3009371 9.767332e-39
2.5985479 0.0051779817 -1.3065755 9.6744231e-39
2.5571108 0.030572476 -1.2857406 9.7683941e-39
2.5962741 0.031067891 -1.3166789 9.9495666e-39
2.527915 -0.2139523 -1.2628918 4.8870872e-39
2.4974289 -0.19399816 -1.25033 5.2519461e-39
2.5187967 -0.19055778 -1.2555841 5.8022094e-39
2.4985209 -0.17907523 -1.245477 7.0936867e-39
2.5230806 -0.1683 -1.2604611 7.7400945e-39
2.5611382 -0.1569387 -1.2678447 3.4051399e-39
2.5274084 -0.12794548 -1.2583103 6.263189e-39
2.5593481 -0.14267156 -1.2757984 1.9289462e-39
2.5284739 -0.10569358 -1.260408 9.6765769e-39
2.562145 -0.094265133 -1.2633706 7.0911854e-39
2.5627046 -0.071335785 -1.2608852 2.9437834e-39
2.5796239 -0.071900912 -1.2859056 9.858066e-39
2.5632637 -0.040763304 -1.2583996 3.4061992e-39
2.5805259 -0.041086238 -1.2818973 9.3971033e-39
2.5830064 -0.01540734 -1.2708741 6.6326721e-39
2.5615854 0.020381652 -1.2658563 1.0318708e-38
2.5818789 0.017119266 -1.2758846 9.4882255e-39
2.6058233 0.0041423854 -1.2742449 4.9763878e-39
2.5615854 0.030572476 -1.2658563 9.6765671e-39
2.5796239 0.030814679 -1.2859056 9.7694647e-39
2.6076419 0.031067891 -1.2661623 4.2248252e-39
2.4835014 -0.21717432 -1.2165679 5.1597183e-39
2.5035136 -0.19755124 -1.2232921 3.8707647e-39
2.5254023 -0.18052845 -1.2262301 2.1183527e-39
2.5436978 -0.15664954 -1.2405822 2.7601138e-39
2.5660603 -0.16305321 -1.2459719 3.0381328e-39
2.5232005 -0.13038164 -1.2360148 3.955071e-39
2.535105 -0.10065962 -1.2309412 8.942609e-39
2.5448072 -0.080851376 -1.2356523 2.6653888e-39
2.5660603 -0.066240363 -1.2459719 2.3942025e-39
2.5668058 -0.033969417 -1.2426578 2.7597578e-39
2.5705349 -0.020381652 -1.2260875 2.6725845e-39
2.5881929 -0.014380182 -1.247826 2.5767959e-39
2.588644 0.0068477062 -1.2458217 2.0243382e-39
2.6110525 0.015533945 -1.2510073 2.9462959e-39
2.6267645 0.038182873 -1.2510281 6.1713212e-39
2.5094419 -0.19897246 -1.1969476 2.6733173e-39
2.5320079 -0.18721467 -1.1968762 3.2214661e-39
2.5116258 -0.15917797 -1.1872416 1.6592187e-39
2.5406265 -0.17115413 -1.2064044 2.2076981e-39
2.5298061 -0.10029358 -1.2066609 1.0053986e-38
2.5750093 -0.030572476 -1.206203 3.8646368e-39
2.5745621 -0.016305322 -1.2081915 5.2562327e-39
2.5976641 -0.010271559 -1.2057379 1.4743313e-38
2.5772469 0.020381652 -1.1962608 1.4751975e-38
2.5951273 0.008987614 -1.2170116 5.2519209e-39
2.6167364 0.031067891 -1.225749 7.3512958e-40
2.498672 -0.19743119 -1.1491528 2.6711411e-39
2.5155573 -0.20295194 -1.169771 3.5005599e-39
2.5138099 -0.15917797 -1.1775357 7.5704967e-39
2.5806029 -0.030572476 -1.1813475 2.2998545e-39
2.6044295 -0.030814679 -1.175675 2.3952703e-39
2.581274 -0.014267156 -1.1783649 1.4747657e-39
2.6044295 -0.020543119 -1.175675 2.2123112e-39
2.5603387 0.020212844 -1.1666334 1.0152239e-39
2.5821691 0.0081526609 -1.1743881 2.57967e-39
2.5999193 0.0051357797 -1.195717 9.1876134e-40
2.5603387 0.030319266 -1.1666334 1.3839994e-39
2.5008392 -0.21717432 -1.139522 7.0904063e-39
2.5203624 -0.22881836 -1.1484179 5.986965e-39
2.5008392 -0.20236698 -1.139522 3.5044891e-39
2.6281042 -0.031067891 -1.1752325 2.8530128e-39
2.5873148 -0.010190826 -1.151521 1.6588151e-39
2.6089394 -0.020543119 -1.1556331 1.6606354e-39
2.6281042 -0.020711927 -1.1752325 2.8512206e-39
2.5604374 0.012613761 -1.1422811 2.2090952e-39
2.5861962 0.005095413 -1.156492 1.9335803e-39
2.5636668 0.030319266 -1.1518435 2.028657e-39
2.549623 0 -1.1185988 4.0519246e-39
