# .PCD v0.7 - Point Cloud Data file format
VERSION 0.7
FIELDS x y z rgb
SIZE 4 4 4 4
TYPE F F F F
COUNT 1 1 1 1
WIDTH 127
HEIGHT 1
VIEWPOINT 0 0 0 1 0 0 0
POINTS 127
DATA ascii
2.5204003 -0.21728808 -1.3441107 9.9718389e-39
2.5133245 -0.19303644 -1.3482252 8.0185031e-39
2.5196607 -0.16844036 -1.3473973 8.4809133e-39
2.5418227 -0.15965627 -1.3536789 7.4628378e-39
2.5204003 -0.12127706 -1.3441107 6.9925102e-39
2.5418971 -0.13451889 -1.3533475 8.9354273e-39
2.5418971 -0.10394643 -1.3533475 7.916958e-39
2.5638385 -0.051357798 -1.3560524 8.6616921e-39
2.5237286 -0.21223487 -1.329321 9.8631149e-39
2.5485346 -0.22419818 -1.3238524 1.2343776e-38
2.5683486 -0.2311101 -1.3360103 1.3267172e-38
2.5190227 -0.19302543 -1.3229034 9.4003655e-39
2.5481613 -0.19022875 -1.3255093 8.8457638e-39
2.5481617 -0.16305321 -1.3255094 9.308893e-39
2.5226192 -0.12127706 -1.3342508 9.3974578e-39
2.5503988 -0.14267156 -1.3155673 8.8572615e-39
2.5677042 -0.13353027 -1.3388735 8.294025e-39
2.5226192 -0.11117064 -1.3342508 9.3170906e-39
2.5481617 -0.096812844 -1.3255094 1.0778585e-38
2.5672212 -0.11298716 -1.3410208 7.648657e-39
2.548609 -0.077450275 -1.323521 1.0233697e-38
2.5677848 -0.06419725 -1.3385156 9.397846e-39
2.5481615 -0.050954126 -1.3255094 9.8573626e-39
2.5683486 -0.03980229 -1.3360105 9.3978208e-39
2.5940006 -0.031067891 -1.3267821 8.7542618e-39
2.5660934 -0.020543119 -1.3460314 8.5727488e-39
2.5952508 -0.015548013 -1.3386878 9.1226884e-39
2.6041222 0.011425322 -1.334185 9.4003445e-39
2.6162882 0.031321101 -1.3325028 1.0225784e-38
2.6348915 0.031585321 -1.3591511 9.3996186e-39
2.6615946 0.042466052 -1.3498057 1.0775364e-38
2.521843 -0.21644038 -1.2898748 9.2181182e-39
2.5259767 -0.19014888 -1.2920012 9.6776657e-39
2.5337131 -0.16675596 -1.2849516 1.087298e-38
2.5545008 -0.15965627 -1.2973399 9.8645568e-39
2.5548732 -0.14267156 -1.2956828 9.9596588e-39
2.5728586 -0.13353027 -1.3159685 9.1252262e-39
2.5551934 -0.098996587 -1.2942625 9.6747692e-39
2.5537548 -0.081526607 -1.3006539 7.8355537e-39
2.5751138 -0.070188992 -1.3059475 8.5695034e-39
2.5996845 -0.062135782 -1.3015239 9.1262926e-39
2.5746627 -0.047249176 -1.3079517 9.2148883e-39
2.5993059 -0.037971865 -1.3032078 9.0308557e-39
2.5985479 -0.015533946 -1.3065755 8.7556954e-39
2.6067441 0.010370031 -1.3050735 9.8602437e-39
2.5996845 0.031067891 -1.3015239 9.9524435e-39
2.4941525 -0.19897246 -1.2648889 1.0138279e-38
2.5338626 -0.1588679 -1.2603737 5.8969204e-39
2.5301661 -0.13095412 -1.2597208 6.6305225e-39
2.5593481 -0.1222899 -1.2757984 8.6394296e-39
2.561306 -0.1006344 -1.2670991 8.8450183e-39
2.582201 -0.074835643 -1.2744532 4.8820426e-39
2.6030948 -0.062135782 -1.286369 8.7477682e-39
2.5830064 -0.041086238 -1.2708741 5.8979854e-39
2.5830064 -0.01540734 -1.2708741 8.384745e-39
2.5830064 0.010271559 -1.2708741 9.5854462e-39
2.6076419 0.010355963 -1.2661623 1.0127226e-39
2.5615854 0.030572476 -1.2658563 9.5847512e-39
2.5841339 0.030814679 -1.2658637 9.5864776e-39
2.6076419 0.031067891 -1.2661623 4.8683659e-39
2.5028892 -0.15917797 -1.2260652 2.8534052e-39
2.4842236 -0.13820183 -1.2133577 2.4853247e-39
2.5028892 -0.14922936 -1.2260652 2.3038145e-39
2.5028892 -0.11938348 -1.2260652 6.9935555e-39
2.5448072 -0.10611743 -1.2356523 1.0503435e-38
2.5668058 -0.095114373 -1.2426578 6.7313292e-39
2.567179 -0.081526607 -1.2410008 1.2907486e-39
2.5863891 -0.066765137 -1.2558427 2.1197652e-39
2.5877421 -0.036977611 -1.2498301 2.4856695e-39
2.5881929 -0.016434494 -1.247826 2.3023628e-39
2.6121893 -0.010355963 -1.2459557 2.4874673e-39
2.5863891 0.010271559 -1.2558427 1.5641097e-39
2.6176198 0.010380079 -1.2517555 3.2243009e-39
2.6287665 0.035446607 -1.2561003 5.3415676e-39
2.6568503 0.0526422 -1.261571 1.4830841e-38
2.5772469 -0.030572476 -1.1962608 6.9798578e-39
2.5942817 -0.030814679 -1.2207694 1.8438958e-39
2.5765009 -0.01698471 -1.1995749 9.9596363e-39
2.5939057 -0.013695412 -1.2224395 1.9332524e-39
2.5761282 0.020381652 -1.201232 5.6246957e-39
2.5954092 0.0068477062 -1.2157589 4.6991325e-39
2.5954092 0.030814679 -1.2157589 1.286853e-39
2.5170863 -0.19399816 -1.1629769 2.2112504e-39
2.518178 -0.16912659 -1.1581237 1.5630335e-39
2.5364118 -0.15545505 -1.1773068 5.2587298e-39
2.5181782 -0.14922936 -1.1581239 2.304511e-39
2.5483725 -0.13592294 -1.1719825 2.0250725e-39
2.5832129 -0.1290838 -1.1697483 4.8871055e-39
2.5603387 -0.10106421 -1.1666334 8.9408391e-39
2.5839589 -0.091717429 -1.1664343 5.2601998e-39
2.5592294 -0.030319266 -1.1715633 2.3927494e-39
2.5839589 -0.035667889 -1.1664343 1.9360914e-39
2.5817218 -0.01528624 -1.1763766 2.8508801e-39
2.5817218 0.0087349936 -1.1763765 3.7782117e-39
2.5999193 0.010271559 -1.195717 1.0509891e-38
2.5588596 0.037056882 -1.1732066 6.813818e-39
2.5817215 0.030572476 -1.1763765 4.5955583e-40
2.5008392 -0.19743121 -1.139522 3.4994865e-39
2.5203624 -0.19897246 -1.1484179 2.4849506e-39
2.5021396 -0.16979083 -1.1337435 2.1212282e-39
2.5203624 -0.15917797 -1.1484179 2.3935033e-39
2.5538969 -0.15101835 -1.1474332 2.761913e-39
2.5203624 -0.14922936 -1.1484179 2.0286542e-39
2.5636668 -0.1364367 -1.1518435 2.0254564e-39
2.587986 -0.12636623 -1.1485384 5.6228586e-39
2.5642216 -0.10864404 -1.1493785 1.1523385e-38
2.587986 -0.099870093 -1.1485384 8.9419069e-39
2.6111946 -0.092444032 -1.1456121 6.8260625e-39
2.5517178 -0.068415418 -1.1475521 2.2116091e-39
2.5873148 -0.076431192 -1.151521 2.8555366e-39
2.6096911 -0.071900912 -1.1522927 3.2236072e-39
2.644526 -0.070177063 -1.15464 3.5009214e-39
2.6788092 -0.084227525 -1.1639911 3.9564709e-39
2.5008392 -0.049357798 -1.139522 2.1183359e-39
2.5203624 -0.049743116 -1.1484179 2.3016594e-39
2.5625575 -0.050532106 -1.1567736 2.9444938e-39
2.5861962 -0.050954126 -1.156492 2.4838842e-39
2.6066844 -0.03595046 -1.1656541 2.2098042e-39
2.6481757 -0.049486239 -1.1646121 2.4853289e-39
2.6764977 -0.036849543 -1.1742626 2.3027271e-39
2.5861962 0.005095413 -1.156492 2.8530227e-39
2.5736516 -0.11117064 -1.1074742 1.1707067e-38
2.5929081 -0.11209908 -1.1266655 1.1707056e-38
2.4963682 -0.11753394 -1.0637374 1.1427921e-38
2.5160098 -0.10858716 -1.072107 1.1704931e-38
2.5356514 -0.099486232 -1.0804766 1.1148092e-38
2.4902284 -0.11219633 -1.0454723 1.1980764e-38
