# .PCD v0.7 - Point Cloud Data file format
VERSION 0.7
FIELDS x y z rgb
SIZE 4 4 4 4
TYPE F F F F
COUNT 1 1 1 1
WIDTH 139
HEIGHT 1
VIEWPOINT 0 0 0 1 0 0 0
POINTS 139
DATA ascii
3.6899686 -0.081246488 -1.3986171 1.0962642e-38
3.734591 -0.072513759 -1.4052935 8.7579472e-39
3.6889191 -0.05735046 -1.4032798 1.3089619e-38
3.6920669 0 -1.389292 1.4189883e-38
3.6483192 0.056719266 -1.3878355 1.3728531e-38
3.6889191 0.078856885 -1.4032798 1.3086747e-38
3.6920669 0.1003633 -1.389292 1.2434167e-38
3.734591 0.13052477 -1.4052935 8.9418733e-39
3.7377751 -0.10151926 -1.3911445 7.8420137e-39
3.786113 -0.11003669 -1.3858666 8.2068684e-39
3.739367 -0.079765141 -1.38407 9.9481513e-39
3.739367 -0.050759632 -1.38407 1.1525196e-38
3.6973133 -0.019116821 -1.365979 1.170637e-38
3.7377751 -0.029005503 -1.3911445 8.5814397e-39
3.6545453 0.021269724 -1.3601677 1.2813072e-38
3.6967883 0.014337615 -1.3683102 1.133691e-38
3.7409589 0.0072513758 -1.3769956 1.4470427e-38
3.6535077 0.051992666 -1.364779 1.2807656e-38
3.6983624 0.050181653 -1.3613163 1.1151752e-38
3.6529889 0.077988997 -1.3670846 1.2901995e-38
3.6983624 0.078856885 -1.3613163 1.1243216e-38
3.6967883 0.1003633 -1.3683102 1.1513662e-38
3.739367 0.11602201 -1.38407 1.2158338e-38
3.739367 0.13052477 -1.38407 1.2074777e-38
3.786113 0.14671558 -1.3858666 1.2347052e-38
3.8306222 0.16328441 -1.4021587 1.2992411e-38
3.877727 0.1802422 -1.4114705 1.2996002e-38
3.7457349 -0.10151926 -1.3557723 6.4620514e-39
3.7030838 -0.071688071 -1.3403345 1.1896829e-38
3.7457349 -0.087016515 -1.3557723 7.348e-39
3.7046578 -0.050181653 -1.3333406 1.4285645e-38
3.744143 -0.050759632 -1.3628467 1.2075869e-38
3.7030838 -0.02867523 -1.3403345 1.3462748e-38
3.7457349 -0.014502752 -1.3557723 1.3457354e-38
3.7457349 0.014502752 -1.3557723 1.3275485e-38
3.7025595 0.052571256 -1.3426659 1.2903826e-38
3.7473269 0.043508258 -1.3486978 1.3088954e-38
3.7025595 0.076467283 -1.3426659 1.2353182e-38
3.7473269 0.087016515 -1.3486978 1.2442149e-38
3.70151 0.1003633 -1.3473284 1.1983668e-38
3.7462656 0.11118776 -1.3534141 1.2258839e-38
3.7462656 0.135359 -1.3534141 1.2167706e-38
3.7941656 0.16138716 -1.3500825 1.5030423e-38
3.8355105 0.17070642 -1.3804359 1.1891468e-38
3.7093792 -0.1003633 -1.312359 6.91545e-39
3.7093792 -0.078856885 -1.312359 4.3256626e-39
3.7088549 -0.052571256 -1.3146904 5.9862335e-39
3.753695 -0.043508258 -1.3203999 6.4321701e-40
3.7093792 -0.02867523 -1.312359 7.4534407e-39
3.7521029 -0.014502752 -1.3274744 7.9334989e-39
3.7093792 0.02867523 -1.312359 6.7263111e-39
3.7521029 0.0072513758 -1.3274744 6.1713437e-39
3.7093792 0.050181653 -1.312359 7.3752847e-39
3.7109532 0.071688071 -1.3053651 1.6581733e-39
3.7515724 0.082182266 -1.3298326 1.14243e-38
3.7109532 0.11470092 -1.3053651 8.3575136e-39
3.7515724 0.10635351 -1.3298326 1.4466097e-38
3.7109532 0.13620734 -1.3053651 1.2711464e-38
3.7505109 0.13777614 -1.3345488 1.6777106e-38
3.753695 0.15953028 -1.3203999 1.1796708e-38
3.7156746 -0.078856885 -1.2843833 3.5034606e-39
3.7161996 -0.052571256 -1.282052 2.0275906e-39
3.7568789 -0.043508258 -1.306251 2.9444868e-39
3.7600629 -0.021754125 -1.292102 3.408367e-39
3.673224 0.028359633 -1.2771646 2.3931417e-39
3.7172487 0.02867523 -1.2773894 1.7534952e-39
3.7600629 0.0096685011 -1.2921021 2.578242e-39
3.8070498 0.014671559 -1.2928281 3.4033056e-39
3.673224 0.04962936 -1.2771646 3.9608234e-39
3.7172487 0.050181653 -1.2773894 2.3978165e-39
3.7156746 0.078856878 -1.2843833 2.7615585e-39
3.7156746 0.10753211 -1.2843833 1.5658978e-39
3.7151504 0.13381773 -1.2867147 1.9314419e-39
3.7616549 0.13777614 -1.2850276 3.2236058e-39
3.8518052 0.14844036 -1.3080266 2.3981612e-39
3.7584708 0.15953028 -1.2991766 2.126619e-39
3.6810067 -0.085078903 -1.2425798 3.4994739e-39
3.7219701 -0.071688071 -1.2564077 5.3513584e-39
3.7219701 -0.050181653 -1.2564077 5.4450086e-39
3.7696147 -0.058011007 -1.2496552 1.9728119e-38
3.7685535 -0.024171254 -1.2543716 1.6318318e-38
3.7664309 0.029005503 -1.2638042 2.2044849e-39
3.8134918 0.029343119 -1.2642008 1.487788e-38
3.7203963 0.050181653 -1.2634016 3.5930932e-39
3.7664309 0.043508258 -1.2638042 5.7165747e-39
3.8124182 0.053795721 -1.268972 1.3085709e-38
3.7203963 0.078856885 -1.2634016 3.1274445e-39
3.7664309 0.079765141 -1.2638042 7.4092255e-40
3.8134918 0.073357791 -1.2642008 1.8355607e-38
3.7203963 0.10753211 -1.2634016 2.6715041e-39
3.7664309 0.10151926 -1.2638042 2.4871114e-39
3.7727988 -0.10151926 -1.2355064 3.67378e-39
3.7266917 -0.078856885 -1.2354259 1.216303e-38
3.7743907 -0.079765141 -1.2284319 1.6682362e-38
3.7266917 -0.043012846 -1.2354259 2.0007566e-38
3.7727988 -0.058011007 -1.2355064 2.2220226e-38
3.8183236 -0.051350459 -1.2427305 1.8523746e-38
3.8648407 -0.044532113 -1.2500989 1.4808977e-38
3.9123514 -0.030040367 -1.2576064 7.9076337e-39
3.8167129 -0.029343119 -1.2498872 1.8812606e-38
3.8615818 -0.014844037 -1.2645808 1.8892268e-38
3.9123514 -0.015020183 -1.2576064 9.8609499e-39
3.8177867 0.024452599 -1.245116 1.2264237e-38
3.8632114 0.0074220183 -1.25734 1.6298865e-38
3.9129012 0.0050067278 -1.255164 9.9621671e-39
3.8183236 0.044014677 -1.2427305 1.6403625e-38
3.8632114 0.059376147 -1.25734 1.6586651e-38
3.8632114 0.074220181 -1.25734 9.5891022e-39
3.9140003 0.090121098 -1.2502795 2.5757631e-39
3.8263762 -0.10270091 -1.2069465 3.5866304e-39
3.7791667 -0.079765141 -1.2072085 1.2860753e-39
3.8263762 -0.080693573 -1.2069465 6.167008e-39
3.869729 -0.051954128 -1.2283762 8.0174479e-39
3.9189467 -0.030040367 -1.2282989 7.1880642e-39
3.9189467 -0.015020183 -1.2282989 6.9889284e-39
3.869729 0.029688073 -1.2283762 1.8725455e-38
3.9189465 0.0075100916 -1.2282989 1.6962911e-38
3.869729 0.051954128 -1.2283762 1.3823631e-38
3.8702722 0.079168193 -1.2259625 5.9034028e-39
3.9172978 0.10514128 -1.2356257 1.8478376e-39
3.8295972 -0.11737248 -1.1926328 2.5782462e-39
3.87679 -0.10885626 -1.1969987 4.2360272e-39
3.8306708 -0.078248315 -1.1878617 1.2158265e-38
3.8778763 -0.089064226 -1.1921715 1.0965072e-38
3.8312078 -0.051350459 -1.1854761 1.6865291e-38
3.8778763 -0.029688073 -1.1921715 1.2346668e-38
3.9708688 -0.015200001 -1.22076 9.0297781e-39
3.8762469 0.029688073 -1.1994123 1.7540186e-38
3.923893 0.015020183 -1.2063184 1.8706676e-38
3.9708688 0 -1.22076 1.2335856e-38
3.8312078 0.051350459 -1.1854761 1.1407436e-38
3.8312078 0.080693573 -1.1854761 1.364314e-38
3.8360393 -0.10270091 -1.1640055 8.0339496e-39
3.7919025 -0.072513759 -1.1506128 1.5582051e-38
3.8360393 -0.088029355 -1.1640055 8.9084299e-39
3.7919025 -0.058011007 -1.1506128 1.6493625e-38
3.8811352 0.029688073 -1.1776896 7.6698558e-39
3.8376498 0.051350459 -1.1568488 8.5630028e-39
3.8376498 0.073357791 -1.1568488 1.5756088e-38
