# .PCD v0.7 - Point Cloud Data file format
VERSION 0.7
FIELDS x y z
SIZE 4 4 4
TYPE F F F
COUNT 1 1 1
WIDTH 184
HEIGHT 1
VIEWPOINT 0 0 0 1 0 0 0
POINTS 184
DATA ascii
2.2581987 -0.075155966 -1.3470963
2.2653732 -0.023064218 -1.3428417
2.2308362 0.022733945 -1.332461
2.2308362 0.036374312 -1.332461
2.2823074 0.049555961 -1.3494427
2.2826645 0.069688082 -1.3479359
2.228739 0.10912293 -1.3413094
2.2508435 -0.095260188 -1.326097
2.2675009 -0.083031192 -1.3338648
2.2890933 -0.07897982 -1.320812
2.3044715 -0.074891746 -1.3383143
2.2858789 -0.046458714 -1.334374
2.3094835 -0.049252294 -1.3377643
2.251266 0.022899084 -1.3243145
2.2887361 0.018583488 -1.322319
2.2594354 0.044631191 -1.3232962
2.2573817 0.076517433 -1.3245271
2.2642069 0.092036694 -1.3217473
2.2858789 0.10220918 -1.334374
2.2434196 -0.068201832 -1.2793704
2.2738841 -0.064579815 -1.3069339
2.2325556 -0.045269724 -1.2731749
2.2576034 -0.041218348 -1.2975764
2.2388213 -0.018137615 -1.2792591
2.2576034 -0.009159633 -1.2975764
2.2418466 0.02046055 -1.2860067
2.2590117 0.009159633 -1.2916346
2.2314036 0.04525321 -1.2812885
2.2304635 0.072396331 -1.282002
2.2267072 0.10110827 -1.271834
2.2356429 0.13420184 -1.2809622
2.2271235 0.16700917 -1.2700772
2.2518086 -0.090935774 -1.2439766
2.2382376 -0.073360726 -1.2544051
2.2312875 -0.045137618 -1.252509
2.2367265 -0.018091744 -1.2555782
2.2172468 0.020918654 -1.2380377
2.2362621 0.011055658 -1.2575374
2.217109 0.044825688 -1.2386193
2.2297261 0.045137614 -1.259097
2.216459 0.071721114 -1.2413609
2.2292056 0.072220184 -1.2612931
2.217936 0.11206423 -1.2351298
2.230871 0.10201101 -1.2542657
2.1994224 0.14244404 -1.2395291
2.21561 0.13335644 -1.2449437
2.2152777 0.15624955 -1.2463458
2.2312875 0.17152293 -1.252509
2.2507598 0.18187155 -1.2484009
2.2823949 0.18912661 -1.2710259
2.3030224 0.19512662 -1.262044
2.2508574 -0.095317423 -1.228477
2.223105 -0.062755965 -1.2133212
2.2375336 -0.073724769 -1.2261565
2.2375336 -0.045137618 -1.2261564
2.2220712 -0.0089651383 -1.2176831
2.2375336 -0.022568807 -1.2261564
2.2220714 0.013447708 -1.217683
2.2218127 0.044825692 -1.2187734
2.2218413 0.07670173 -1.2186522
2.2223296 0.10870231 -1.2165926
2.2354517 0.094788991 -1.2349405
2.2220712 0.13447708 -1.217683
2.2225881 0.16137248 -1.2155021
2.2364926 0.17152293 -1.2305485
2.2375336 0.18055046 -1.2261565
2.2423916 -0.093284406 -1.2056601
2.2994165 -0.096869722 -1.19921
2.3354175 -0.09829542 -1.2077506
2.3918278 -0.10531744 -1.2212358
2.2268956 -0.068732731 -1.1973282
2.2523139 -0.07372687 -1.197246
2.2994165 -0.073805504 -1.19921
2.318023 -0.074333951 -1.1987551
2.3354175 -0.074891746 -1.2077506
2.2272403 -0.049308255 -1.1958743
2.2458615 -0.042880736 -1.1910197
2.282953 -0.041218348 -1.190624
2.318023 -0.055750459 -1.1987551
2.2282741 -0.019050919 -1.1915126
2.2469027 -0.015798166 -1.1866276
2.2148213 0.013354129 -1.1745585
2.2280157 0.014568349 -1.192603
2.2427385 0.009027523 -1.2041961
2.2120838 0.044513762 -1.1861088
2.2279787 0.044825692 -1.1927588
2.2123122 0.073200412 -1.1851465
2.227447 0.077100188 -1.195002
2.2148213 0.11573578 -1.1745585
2.2280157 0.10646102 -1.1926031
2.2137949 0.12463854 -1.17889
2.2279787 0.13703854 -1.1927588
2.2107151 0.16024955 -1.191884
2.2282743 0.16495855 -1.1915127
2.2479436 0.17152293 -1.1822356
2.2551267 0.18121099 -1.1909529
2.3201659 -0.069688082 -1.1897138
2.3397355 -0.065530278 -1.1895324
2.3973482 -0.067020178 -1.1979452
2.446672 -0.073183484 -1.2066431
2.4786072 -0.074036703 -1.2063209
2.3015442 -0.041515596 -1.1902331
2.3201659 -0.037166975 -1.1897138
2.3493278 -0.048888806 -1.1984917
2.3888483 -0.046346527 -1.1966407
2.4179509 -0.053062387 -1.1977408
2.438587 -0.053466052 -1.1973935
2.2574468 -0.016315598 -1.1733594
2.2954288 -0.016078899 -1.1770113
2.3228445 -0.018583488 -1.1784123
2.3495364 -0.028188992 -1.1893737
2.3892636 -0.028612845 -1.1886955
2.2164712 0.015579818 -1.1583852
2.2355106 0.0089651383 -1.1609806
2.2706835 0.009093578 -1.1643407
2.288234 0 -1.1683421
2.2168746 0.053416517 -1.1658958
2.2351661 0.044825688 -1.1624345
2.2541895 0.045137614 -1.1558831
2.2189281 0.074189603 -1.1572331
2.2355106 0.076203674 -1.1609806
2.2191849 0.10794587 -1.1561502
2.2370613 0.10534037 -1.154438
2.2189281 0.12908992 -1.1572331
2.2365444 0.13895965 -1.1566188
2.2351661 0.15938023 -1.1624345
2.2541895 0.16700917 -1.1558831
2.2521076 0.18055046 -1.1646672
2.4808838 -0.069100916 -1.1967155
2.422401 -0.038590826 -1.1789656
2.4536896 -0.052743483 -1.1857057
2.3440535 -0.014042202 -1.1713141
2.422401 -0.02894312 -1.1789656
2.4419498 -0.019442201 -1.183205
2.3079274 0 -1.1633021
2.2624736 0.051288072 -1.1469473
2.2178419 0.079958409 -1.1372449
2.2423339 0.086065322 -1.1321931
2.2422304 0.1008578 -1.1326293
2.2620778 0.11391853 -1.138211
2.2406797 0.14344221 -1.1391718
2.2580066 0.13240369 -1.1397789
2.2406797 0.15240735 -1.1391718
2.2562716 0.16249542 -1.147099
2.2468824 0.089651376 -1.1130016
2.2468824 0.098616518 -1.1130016
2.3206935 0.20296514 -1.1094402
2.440201 0.086829357 -1.1038646
2.4194293 0.11010459 -1.1047832
2.4390886 0.096477062 -1.1085584
2.4101558 0.13356331 -1.1005487
2.440201 0.14471559 -1.1038646
2.418546 0.16467816 -1.1085097
2.3249488 0.20296514 -1.0914862
2.4008822 0.18051742 -1.0963142
2.3249488 0.21219082 -1.0914862
2.4249494 0.086168803 -1.0814927
2.4241214 0.10651422 -1.0849862
2.4234037 0.12829578 -1.088014
2.4424262 0.14471559 -1.0944769
2.4216373 0.1627633 -1.095467
2.4437611 0.16787009 -1.0888444
2.3306227 0.19988991 -1.0675477
2.350167 0.19884333 -1.0631362
2.385438 0.18862385 -1.0790915
2.4134595 0.18600182 -1.0866101
2.4446511 0.18330641 -1.0850893
2.4610066 0.18470091 -1.1028031
2.331332 0.21219082 -1.0645553
2.3515956 0.21990459 -1.0571088
2.4282615 0.086168803 -1.0675184
2.4138451 0.10465688 -1.0560765
2.4282615 0.12446605 -1.0675184
2.3419704 0.17528807 -1.0196704
2.3576672 0.17189725 -1.0314919
2.3414385 0.19604588 -1.0219147
2.3555243 0.19512662 -1.0405331
2.3721206 0.18722937 -1.0528958
2.3419704 0.21680367 -1.0196704
2.3555243 0.21835597 -1.0405331
2.3126283 0.17277797 -0.9873721
2.3392079 0.16874127 -1.0053104
2.3423622 0.19351928 -1.0050095
2.3455167 0.21834128 -1.0047088
