# .PCD v0.7 - Point Cloud Data file format
VERSION 0.7
FIELDS x y z rgb
SIZE 4 4 4 4
TYPE F F F F
COUNT 1 1 1 1
WIDTH 152
HEIGHT 1
VIEWPOINT 0 0 0 1 0 0 0
POINTS 152
DATA ascii
3.3984618 0.079728439 -1.3913041 1.2696009e-38
3.4370742 0.08056514 -1.392805 1.049124e-38
3.5589299 -0.048537616 -1.3978946 5.7143452e-39
3.5193133 -0.018289907 -1.3871891 5.1572338e-39
3.4776812 0.022617737 -1.3899977 1.0325915e-38
3.5188115 0.0068587153 -1.3894196 8.0181626e-39
3.4781778 0.047497246 -1.387791 1.151906e-38
3.4414959 0.067137614 -1.3731551 1.1887153e-38
3.4781778 0.081423856 -1.3877912 1.198114e-38
3.4781778 0.094994493 -1.3877912 1.20683e-38
3.5193133 0.10516697 -1.3871891 1.2070817e-38
3.5188115 0.13031559 -1.3894196 1.2806206e-38
3.5191123 0.1618657 -1.3880812 1.1513657e-38
3.5203173 0.19204402 -1.3827282 1.2074047e-38
3.6000233 0.2243523 -1.4065909 1.2441044e-38
3.5629895 -0.046226304 -1.3798552 7.188046e-39
3.5248346 -0.020576145 -1.362654 1.0133252e-38
3.485626 0.027141282 -1.3546922 1.0974216e-38
3.5248346 0.0068587153 -1.362654 1.1888245e-38
3.485626 0.047497246 -1.3546922 1.1611295e-38
3.485626 0.074638531 -1.3546922 1.2264942e-38
3.4866192 0.1040416 -1.350279 1.124719e-38
3.5263405 0.09602201 -1.3559626 1.2166254e-38
3.4871156 0.12213577 -1.3480724 1.1798193e-38
3.5248346 0.13717431 -1.362654 1.1882826e-38
3.5248344 0.16460918 -1.362654 1.1981501e-38
3.5248346 0.19204402 -1.362654 1.2446407e-38
3.5657802 0.19761744 -1.3674531 1.1704577e-38
3.6077194 0.21033029 -1.3723911 1.1245026e-38
3.6467626 0.22687706 -1.3947524 1.1796037e-38
3.6920669 0.22940184 -1.389292 1.3647163e-38
3.6889191 0.24373946 -1.4032798 1.2261664e-38
3.5293519 -0.041152295 -1.3425798 7.6562114e-39
3.4945641 -0.020355962 -1.3149735 7.1836837e-39
3.5293519 -0.020576145 -1.3425798 1.0405864e-38
3.4930744 0.027141284 -1.3215933 1.2347383e-38
3.5308578 0.0068587153 -1.3358885 1.1981109e-38
3.4930744 0.047497246 -1.3215933 1.3087105e-38
3.4930744 0.074638531 -1.3215933 1.2813389e-38
3.5308578 0.10288073 -1.3358885 1.3272942e-38
3.5308578 0.13031559 -1.3358885 1.3732471e-38
3.5311587 0.16186568 -1.3345501 1.5212671e-38
3.5726306 0.19415046 -1.3370116 1.4654422e-38
3.6128502 0.21500431 -1.3495913 1.4564725e-38
3.4975433 -0.040711928 -1.301734 7.2031463e-39
3.5398924 -0.041152295 -1.2957401 4.9702725e-39
3.499033 -0.020355964 -1.2951142 3.59458e-39
3.5413983 -0.020576145 -1.2890488 4.23669e-39
3.499033 0.027141284 -1.2951142 4.230209e-39
3.5377841 0.008230458 -1.3051081 1.8410315e-39
3.5802422 0 -1.3031877 2.2098281e-39
3.499033 0.047497246 -1.2951142 2.9502714e-39
3.4606576 0.067137614 -1.2880056 1.8409278e-40
3.4995296 0.076900303 -1.2929076 2.0239963e-39
3.5413983 0.082304589 -1.2890488 1.7542281e-39
3.4975433 0.094994493 -1.301734 9.187249e-40
3.5389888 0.10425247 -1.299755 3.4044126e-39
3.5383866 0.13031559 -1.3024316 3.7728308e-39
3.5383863 0.16460919 -1.3024315 4.6969465e-39
3.5413983 0.19204402 -1.2890488 3.4065678e-39
3.5782125 0.20339572 -1.3122075 2.116559e-39
3.5787199 0.22188625 -1.3099525 2.8598652e-39
3.5444098 -0.041152295 -1.275666 4.8812929e-39
3.5863314 -0.04160367 -1.2761286 4.5135978e-39
3.5454137 -0.022862384 -1.2712051 3.8693298e-39
3.5863314 -0.01386789 -1.2761286 3.6780862e-40
3.5049918 0.027141284 -1.2686352 4.1437475e-39
3.5459156 0.020576145 -1.2689747 2.8520025e-39
3.5853164 0.0046226303 -1.2806385 1.288316e-39
3.5049918 0.04749725 -1.2686352 3.4026329e-39
3.5035021 0.067853205 -1.2752548 1.751368e-39
3.5444098 0.075445876 -1.275666 3.2214506e-39
3.5863314 0.076273397 -1.2761286 9.1881038e-40
3.5444098 0.10288073 -1.275666 2.9491854e-39
3.5863314 0.11094312 -1.2761286 1.8673283e-40
3.6261899 0.098154128 -1.2903116 1.0106305e-39
3.5459156 0.13031559 -1.2689747 1.3818863e-39
3.5456142 0.16186568 -1.2703128 2.6700733e-39
3.5474215 0.19204402 -1.2622833 3.6824414e-39
3.5848091 0.19761743 -1.2828934 3.3136449e-39
3.6231115 0.2243523 -1.3039916 1.9350152e-39
3.5908983 -0.04160367 -1.2558343 2.4867555e-39
3.5519388 -0.020576145 -1.2422092 1.2623272e-38
3.5154195 0.027141284 -1.2222966 1.9734568e-38
3.5514369 0.0091449535 -1.2444396 1.8536034e-38
3.5908983 0.01386789 -1.2558343 1.8813323e-38
3.5116954 0.044104591 -1.2388461 1.0606532e-38
3.5519388 0.054869723 -1.2422092 1.8072188e-38
3.5534446 0.068587154 -1.2355177 1.8538195e-38
3.5908983 0.076273397 -1.2558343 1.3717033e-38
3.6323469 0.084132113 -1.2629519 1.0304e-38
3.5519388 0.10973945 -1.2422092 1.4855727e-38
3.5908983 0.097075231 -1.2558343 1.4024903e-38
3.6354253 0.098154128 -1.2492719 1.6161947e-38
3.5519388 0.12345687 -1.2422092 1.4554383e-38
3.5908983 0.13867889 -1.2558343 9.799374e-39
3.6354253 0.13320917 -1.2492719 1.1703844e-38
3.589376 0.15948074 -1.2625991 3.4105012e-39
3.6323469 0.15424222 -1.2629517 1.1942216e-39
3.5903907 0.18490522 -1.2580892 4.2381221e-39
3.7235441 -0.1003633 -1.2494137 8.5810165e-39
3.7696147 -0.10151926 -1.2496552 9.3189431e-39
3.6825631 -0.070899084 -1.2356629 4.5107447e-39
3.7235441 -0.086025693 -1.2494137 4.5971782e-39
3.7696147 -0.079765141 -1.2496552 4.5089469e-39
3.6815255 -0.047266055 -1.2402742 3.680261e-39
3.7696147 -0.058011007 -1.2496552 3.2221807e-39
3.5564561 -0.020576145 -1.2221349 1.9733058e-38
3.5985098 -0.020801835 -1.2220104 1.0124262e-38
3.5183988 0.027141284 -1.2090571 1.7873398e-38
3.5579619 0.010288073 -1.2154436 1.5848641e-38
3.5985098 0.01386789 -1.2220104 1.2155049e-38
3.5564561 0.041152295 -1.2221349 1.9167741e-38
3.5969875 0.048537616 -1.2287753 1.77905e-38
3.6405561 0.051414069 -1.226472 4.7974252e-39
3.5954652 0.069339447 -1.23554 1.3930563e-38
3.640043 0.07011009 -1.228752 9.3755948e-39
3.6810067 0.085078903 -1.2425798 1.6141827e-38
3.5954652 0.11094312 -1.23554 1.5979927e-38
3.6385038 0.11217615 -1.2355919 1.4639071e-38
3.6815255 0.10398532 -1.2402742 1.6326565e-38
3.6395299 0.13554616 -1.231032 4.6173471e-39
3.6825631 0.12761834 -1.2356629 7.4391152e-39
3.6415823 0.15424222 -1.221912 1.2000258e-39
3.7727988 -0.079765141 -1.2355064 4.8784286e-39
3.8199341 -0.073357791 -1.2355736 4.4153009e-39
3.7282655 -0.043012846 -1.2284321 1.6581004e-39
3.8167129 -0.058686238 -1.2498872 3.0374321e-39
3.6039901 -0.022188624 -1.1976572 3.4022448e-39
3.6037288 0.011886763 -1.1988168 8.5734803e-39
3.6477392 0.021033028 -1.1945522 1.4100175e-38
3.6461999 0.049077064 -1.2013922 9.1162074e-39
3.6461999 0.077121101 -1.2013922 1.945007e-38
3.6076436 0.11094312 -1.1814218 1.0377798e-38
3.6456869 0.10282814 -1.2036721 1.5588996e-38
3.6066287 0.13405627 -1.1859316 1.3271097e-38
3.6446607 0.12619817 -1.208232 8.3868792e-39
3.6076436 0.15254679 -1.1814218 9.7828107e-39
3.6446607 0.15424222 -1.208232 7.8463227e-39
3.5685024 -0.013717431 -1.1686039 1.2529941e-38
3.6122105 -0.01386789 -1.1611274 1.3175643e-38
3.6508174 -0.028044038 -1.1808722 8.9371719e-39
3.6127179 0.0046226303 -1.1588725 1.5940077e-38
3.6508174 0.021033028 -1.1808722 1.4839141e-38
3.6508174 0.049077064 -1.1808722 9.8544507e-39
3.6523566 0.11217615 -1.1740323 7.7145474e-39
3.6106882 0.13174495 -1.1678922 1.511285e-38
3.6538959 0.13320917 -1.1671923 1.5020644e-38
3.6106882 0.15254679 -1.1678922 1.290775e-38
3.6167774 0 -1.1408331 1.5656321e-38
3.6981285 0.11343853 -1.1664935 5.6941693e-39
3.6981285 0.13470826 -1.1664935 1.4191244e-38
