# .PCD v0.7 - Point Cloud Data file format
VERSION 0.7
FIELDS x y z rgb
SIZE 4 4 4 4
TYPE F F F F
COUNT 1 1 1 1
WIDTH 224
HEIGHT 1
VIEWPOINT 0 0 0 1 0 0 0
POINTS 224
DATA ascii
2.7468882 0.14278533 -1.3921739 3.5952905e-39
2.6026757 0.17226607 -1.3588996 1.0876199e-38
2.6210084 0.17371926 -1.3857346 1.0781504e-38
2.647805 0.15924771 -1.3766599 9.4910828e-39
2.6014781 0.19314678 -1.3639805 1.1886772e-38
2.6234233 0.21583302 -1.3754869 1.1519786e-38
2.6465871 0.2335633 -1.3818265 9.3946244e-39
2.6246314 0.25794679 -1.370363 1.161161e-38
2.647805 0.25125751 -1.3766598 1.022903e-38
2.623826 0.2842679 -1.3737788 1.1147766e-38
2.6496315 0.28929999 -1.3689097 1.096664e-38
2.5990832 0.30277064 -1.3741425 1.2618568e-38
2.6229405 0.31374753 -1.3775364 1.2067559e-38
2.6484137 0.31849542 -1.3740764 1.1333604e-38
2.6705894 0.3407627 -1.3846073 1.1425787e-38
2.6938901 0.37787151 -1.3947225 1.1426146e-38
2.6946332 0.4037827 -1.3915701 1.2070082e-38
2.69678 0.42465565 -1.3824629 1.161017e-38
2.8564496 0.10810826 -1.3981041 6.6323176e-39
2.7255239 0.14154495 -1.3694825 4.7906008e-39
2.8006585 0.13413578 -1.3950669 7.1941612e-39
2.6078649 0.17052601 -1.3368821 1.0229742e-38
2.6282542 0.17898348 -1.3549914 1.1525908e-38
2.6563289 0.16455597 -1.340493 6.5430002e-39
2.6746821 0.16056882 -1.3672422 4.42753e-39
2.7085557 0.15517552 -1.3688251 4.3234654e-39
2.6078649 0.20184709 -1.3368821 1.0136843e-38
2.6294618 0.18951192 -1.3498677 1.1330737e-38
2.6086633 0.21924771 -1.3334948 1.0969119e-38
2.6297033 0.22530863 -1.3488429 1.0601777e-38
2.6306691 0.24741834 -1.3447437 1.041021e-38
2.6551111 0.26541284 -1.3456596 1.1524103e-38
2.6551111 0.27602935 -1.3456596 1.1707442e-38
2.6765237 0.29170001 -1.3594279 1.1155706e-38
2.6771376 0.31578535 -1.3568232 1.1797827e-38
2.7013202 0.30229723 -1.3631974 1.1247168e-38
2.6551111 0.34503666 -1.3456596 1.2164801e-38
2.6771376 0.33184221 -1.3568231 1.2248002e-38
2.6551111 0.36096144 -1.3456596 1.0790169e-38
2.6771376 0.37599862 -1.3568231 1.1797102e-38
2.6771376 0.40677431 -1.3568231 1.1705274e-38
2.7025588 0.40306297 -1.3579433 1.188715e-38
2.7112532 0.42682496 -1.3646427 1.1883529e-38
2.8332448 0.11277064 -1.3745037 2.3009853e-39
2.6403303 0.14739816 -1.3037531 4.6911703e-39
2.6624174 0.13801467 -1.3146595 7.1829887e-39
2.682049 0.14451192 -1.3359848 6.723793e-39
2.6158483 0.17226607 -1.3030089 8.386896e-39
2.6367075 0.16319083 -1.3191247 7.2823575e-39
2.6092315 0.20222239 -1.3110311 9.5840197e-39
2.6134534 0.21924771 -1.3131708 1.142938e-38
2.6388812 0.22530863 -1.3099017 8.6591949e-39
2.6382599 0.24967444 -1.3125368 1.0504537e-38
2.659982 0.26541284 -1.3249928 1.2994535e-38
2.6403303 0.27373946 -1.3037531 9.8548332e-39
2.6609561 0.28876916 -1.3208596 1.2165143e-38
2.6609561 0.31637213 -1.3208596 1.2899471e-38
2.6611998 0.33972842 -1.3198261 1.4658718e-38
2.6849957 0.34468776 -1.3234819 1.2433825e-38
2.659982 0.36096144 -1.3249928 1.189401e-38
2.6838908 0.37198442 -1.3281705 1.3177515e-38
2.7087502 0.38326973 -1.3316721 1.4284551e-38
2.682049 0.39606974 -1.3359848 1.1795328e-38
2.7083378 0.40306297 -1.3334236 1.4657676e-38
2.6475761 0.14739816 -1.2730101 4.8676414e-39
2.6697237 0.13801467 -1.2836593 1.0542281e-38
2.6203389 0.16835091 -1.2839552 4.0508638e-39
2.6463683 0.1579266 -1.278134 5.9847636e-39
2.6200397 0.19053669 -1.2852255 4.9742382e-39
2.6439531 0.20004036 -1.2883817 3.4919195e-39
2.6448586 0.21978119 -1.2845387 3.7836138e-39
2.6451604 0.25268257 -1.2832577 3.0381328e-39
2.6446776 0.27795082 -1.2853074 3.6806337e-39
2.6678972 0.29460824 -1.2914094 4.8813489e-39
2.64661 0.31374753 -1.2771093 3.2196626e-39
2.6656647 0.31849542 -1.3008816 4.5064329e-39
2.6475763 0.34743854 -1.2730103 3.1321263e-39
2.6664765 0.34326729 -1.2974371 5.8036289e-39
2.6672883 0.36096144 -1.2939926 4.9670201e-39
2.6930993 0.40142202 -1.2890989 3.862874e-39
2.7124653 0.39946419 -1.3159095 2.5728554e-39
2.6175005 0.16766515 -1.2458673 4.6025844e-39
2.6548216 0.17898348 -1.2422671 1.8371934e-39
2.6254671 0.19687203 -1.2496635 3.4973117e-39
2.6548216 0.19477615 -1.2422671 1.103545e-39
2.6278236 0.22272784 -1.2521992 2.9553006e-39
2.6530104 0.22372936 -1.2499529 2.0294137e-39
2.6770301 0.2335633 -1.252659 7.463488e-39
2.6505949 0.25005046 -1.2602005 2.3949228e-39
2.6758122 0.2601046 -1.2578257 3.130313e-39
2.6992385 0.24620551 -1.263051 5.8126407e-39
2.6524065 0.28005651 -1.2525147 3.1274642e-39
2.6745946 0.2919541 -1.2629925 3.7742657e-39
2.6524062 0.31760797 -1.2525147 3.4029777e-39
2.6745946 0.31495658 -1.2629924 3.496611e-39
2.6511986 0.34743848 -1.2576386 3.4973033e-39
2.6770301 0.33972842 -1.252659 2.7640542e-39
2.6992385 0.3532514 -1.263051 2.9473707e-39
2.7248487 0.3562789 -1.2633674 3.1274586e-39
2.6524065 0.3684954 -1.2525148 5.6069987e-39
2.6762183 0.37865564 -1.2561035 4.7012484e-39
2.6992385 0.36395597 -1.263051 2.3027299e-39
2.6745946 0.39281097 -1.2629925 2.6693741e-39
2.6984198 0.40320611 -1.2665241 3.1278201e-39
2.8327115 0.11177981 -1.2590683 3.6860413e-39
2.6843364 0.14863119 -1.2216588 2.7637067e-39
2.6326137 0.16182569 -1.2318753 5.0635556e-39
2.6584444 0.16845505 -1.2268956 1.0873315e-38
2.6843364 0.15924771 -1.2216588 7.7160398e-39
2.6584446 0.19477615 -1.2268956 1.604027e-38
2.6843364 0.19640549 -1.2216588 2.0280889e-38
2.6572368 0.21583304 -1.2320194 1.1341196e-38
2.681901 0.22294676 -1.2319922 1.7698359e-38
2.7066054 0.23014864 -1.2317936 1.9544055e-38
2.6825099 0.25745046 -1.229409 1.2821362e-38
2.7041497 0.24620551 -1.2422128 1.4938268e-38
2.7322788 0.24831559 -1.2318422 2.0005394e-38
2.6584446 0.27900368 -1.2268956 4.9652657e-39
2.6806831 0.2919541 -1.2371589 2.5775204e-39
2.7057867 0.28902385 -1.2352667 3.0363419e-39
2.7322788 0.2915009 -1.2318422 4.0490589e-39
2.6794655 0.31849542 -1.2423257 2.6686468e-39
2.7041497 0.31578535 -1.2422128 4.3263619e-39
2.7349102 0.31355229 -1.2388411 3.8643033e-39
2.7029219 0.3371945 -1.2474222 2.8573204e-39
2.7301116 0.3468321 -1.241037 3.7738901e-39
2.701694 0.37466058 -1.2526319 5.1583184e-39
2.7298019 0.37787154 -1.2423506 4.5136216e-39
2.701694 0.40142202 -1.2526319 3.6777751e-39
2.7293067 0.4037827 -1.2444524 3.3136673e-39
2.8131087 0.10709602 -1.2245436 4.3281317e-39
2.6867719 0.14863119 -1.2113254 2.7561439e-39
2.7115166 0.14986421 -1.2109554 7.0727695e-39
2.7527459 0.13571866 -1.2176551 4.3270583e-39
2.7872021 0.12081835 -1.2211246 3.7771285e-39
2.8088729 0.1218679 -1.2425159 4.6032977e-39
2.6628728 0.17196453 -1.2081083 2.0194813e-38
2.6867719 0.15924771 -1.2113254 1.0968808e-38
2.7123351 0.16770519 -1.2074823 1.4651866e-38
2.7458181 0.15517552 -1.2107226 2.3913214e-39
2.6867719 0.18578897 -1.2113254 1.8161491e-38
2.7115166 0.19000642 -1.2109554 1.5297268e-38
2.7470398 0.20149064 -1.2128036 7.3630569e-39
2.7090609 0.22479634 -1.2213745 1.8713942e-38
2.73985 0.22699817 -1.2152849 1.3357561e-38
2.7090609 0.2622624 -1.2213745 1.2898072e-38
2.7485578 0.25884038 -1.2172612 7.1905234e-39
2.7090609 0.27831927 -1.2213745 2.8501654e-39
2.7508862 0.28515229 -1.2151654 3.40836e-39
2.7604921 0.31575415 -1.2211145 3.40513e-39
2.7572749 0.34670186 -1.2211419 3.0395817e-39
2.7514627 0.37849447 -1.2185584 3.5905947e-39
2.7872021 0.36245504 -1.2211246 2.8580659e-39
2.7347555 0.39946419 -1.2213339 4.0476254e-39
2.770483 0.10888074 -1.1787237 3.6817015e-39
2.7922413 0.10434312 -1.1997435 3.1278075e-39
2.7692342 0.13065688 -1.1840225 3.4062189e-39
2.7914014 0.13363242 -1.203307 3.4980319e-39
2.7588358 0.16602568 -1.1970049 3.0374027e-39
2.794131 0.16200644 -1.1917256 2.0272136e-39
2.759043 0.19287339 -1.2000186 3.8646607e-39
2.7922413 0.19770277 -1.1997435 3.4058419e-39
2.8190389 0.19388074 -1.1993822 2.8541283e-39
2.8468149 0.20120366 -1.1992288 3.0410349e-39
2.7570667 0.22791561 -1.1947806 2.9463141e-39
2.8190389 0.22711743 -1.1993822 2.9509874e-39
2.8459604 0.22355963 -1.2028555 3.1317816e-39
2.8720491 0.21426421 -1.2098588 3.2214394e-39
2.7667363 0.25586975 -1.1946203 3.9590073e-39
2.7947609 0.25262019 -1.1890529 3.5906045e-39
2.8468149 0.24591561 -1.1992288 3.5927625e-39
2.7661119 0.28036788 -1.1972697 3.5912953e-39
2.7930813 0.28557062 -1.19618 3.2236058e-39
2.8190389 0.28805137 -1.1993822 3.5895255e-39
2.8468149 0.29062751 -1.1992288 4.2337893e-39
2.9008288 0.27311561 -1.2098063 3.5938415e-39
2.7654874 0.31575415 -1.1999191 3.681354e-39
2.7922413 0.30753762 -1.1997435 3.7724566e-39
2.8164973 0.32128808 -1.2101656 3.1296081e-39
2.8455324 0.31298348 -1.2046688 3.2228842e-39
2.7654874 0.33753029 -1.1999191 3.2225381e-39
2.7909815 0.35147157 -1.2050889 2.6733005e-39
2.8173447 0.3434459 -1.2065712 3.0377937e-39
2.8455327 0.34092844 -1.2046688 2.3931501e-39
2.7922413 0.36794677 -1.1997435 2.4896463e-39
2.7729807 0.11432477 -1.168126 4.6065249e-39
2.7729807 0.13065688 -1.168126 4.0508582e-39
2.7989602 0.13912416 -1.1712353 4.4207239e-39
2.7754784 0.16332111 -1.1575283 5.3505625e-39
2.7982883 0.16475229 -1.1740861 3.9626114e-39
2.8215804 0.18834129 -1.1885988 3.2222228e-39
2.8215804 0.26035413 -1.1885988 3.4072908e-39
2.8746362 0.25373393 -1.1988825 5.4348786e-39
2.9034393 0.25604588 -1.19873 4.1502565e-39
2.8215804 0.27697247 -1.1885988 3.5920212e-39
2.8493791 0.29062751 -1.188349 2.670802e-39
2.877223 0.28944466 -1.1879061 4.0530176e-39
2.9296553 0.27558166 -1.2095537 3.7796677e-39
2.8516226 0.31438074 -1.1788291 3.5924052e-39
2.8798101 0.30448073 -1.1769298 4.5140364e-39
2.8023198 0.34048808 -1.1569812 5.6159853e-39
2.824122 0.35175505 -1.1778153 3.9572122e-39
2.8525844 0.34092844 -1.1747491 3.9590409e-39
2.7972806 0.37343854 -1.1783624 2.3928012e-39
2.8215804 0.36560369 -1.1885988 3.3140092e-39
2.7804739 0.11976882 -1.1363329 5.3458892e-39
2.7804739 0.13610092 -1.1363329 5.8979826e-39
2.7778683 0.163158 -1.1352788 5.3426942e-39
2.7699983 0.18431742 -1.1262913 4.6965947e-39
2.8317463 0.31574863 -1.145465 5.6206852e-39
2.8596361 0.31857246 -1.1448294 4.880972e-39
2.829205 0.3434459 -1.1562485 3.2239646e-39
2.8583539 0.34092844 -1.1502693 4.8835041e-39
2.8841217 0.36462507 -1.158636 4.790954e-39
2.7854693 0.11976881 -1.1151375 4.7041449e-39
2.7854693 0.13610092 -1.1151375 4.6959053e-39
2.8123982 0.13729358 -1.1142188 6.0791817e-39
2.7802262 0.16295412 -1.110139 5.621795e-39
2.8123982 0.15376881 -1.1142188 5.2537356e-39
2.7619991 0.1835376 -1.1057413 5.9848406e-39
2.8634822 0.31857246 -1.1285095 6.0791648e-39
2.8927448 0.32703486 -1.1220481 6.6287569e-39
2.8644438 0.34512019 -1.1244295 5.5234926e-39
2.8622003 0.36887339 -1.1339495 4.1502593e-39
