# .PCD v0.7 - Point Cloud Data file format
VERSION 0.7
FIELDS x y z rgb
SIZE 4 4 4 4
TYPE F F F F
COUNT 1 1 1 1
WIDTH 125
HEIGHT 1
VIEWPOINT 0 0 0 1 0 0 0
POINTS 125
DATA ascii
3.3486991 0.019722935 -1.4106489 1.1979266e-38
3.3486991 0.03944587 -1.4106489 8.0274924e-39
3.3486991 0.1117633 -1.4106489 1.0589215e-38
3.3471909 0.13806054 -1.4170479 1.1249663e-38
3.3471909 0.16435778 -1.4170479 4.9684957e-39
3.3103871 0.19519266 -1.4119141 4.0476072e-39
3.3486991 0.18408072 -1.4106489 7.7307114e-39
3.3476937 0.22790946 -1.414915 5.7103935e-39
3.3476937 0.2585896 -1.414915 7.9252775e-39
3.3111334 0.2862826 -1.4087477 2.39279e-39
3.3476937 0.28488684 -1.414915 6.2596311e-39
3.3111334 0.31230825 -1.4087477 6.5555979e-39
3.3171036 0.026025688 -1.3834161 1.2710349e-38
3.3517153 0.013148624 -1.397851 1.1426447e-38
3.3200889 0.045544952 -1.3707502 7.5661457e-39
3.3517153 0.04602018 -1.397851 6.9107374e-39
3.3200889 0.071570635 -1.3707502 6.4540528e-39
3.3517153 0.072317429 -1.397851 8.7510529e-39
3.3188949 0.10670532 -1.3758166 5.248321e-39
3.3517153 0.09204036 -1.397851 7.3709574e-39
3.3185964 0.13663486 -1.3770831 4.7880631e-39
3.3200889 0.15615413 -1.3707502 5.9704493e-39
3.3527207 0.16654922 -1.393585 6.0719678e-39
3.2804728 0.19321102 -1.3819084 5.989783e-39
3.3171036 0.2049523 -1.3834161 8.3901554e-39
3.3537264 0.18846361 -1.3893189 5.1489255e-39
3.3532236 0.2301009 -1.391452 5.9855315e-39
3.3532236 0.25639814 -1.391452 8.47191e-39
3.3141186 0.29929543 -1.3960818 5.1468221e-39
3.3532236 0.28269541 -1.391452 6.3618642e-39
3.2863824 0.019321101 -1.3568339 1.2617433e-38
3.3250644 0.021688074 -1.3496406 1.3833312e-38
3.357748 0.013148624 -1.372255 1.1116515e-38
3.2922921 0.038642202 -1.3317595 8.3095191e-39
3.3240693 0.04771376 -1.3538625 4.3339163e-39
3.2922921 0.070844039 -1.3317595 4.5107742e-39
3.3230741 0.071570635 -1.3580844 4.2349005e-39
3.290519 0.10304587 -1.3392818 4.6040222e-39
3.2913072 0.13310091 -1.3359386 7.556055e-39
3.3230741 0.14314128 -1.3580844 9.9517933e-39
3.3245666 0.16266054 -1.3517514 1.3643862e-38
3.3253129 0.19844587 -1.348585 1.3088512e-38
3.357748 0.19065504 -1.372255 1.2533918e-38
3.3245666 0.22772476 -1.3517516 4.69662e-39
3.3245666 0.25375044 -1.3517516 3.3158085e-39
3.3250644 0.27760735 -1.3496406 3.2239786e-39
3.357748 0.28926972 -1.372255 2.4946574e-39
3.3290443 0.026025688 -1.3327527 1.5219514e-38
3.3657916 0.017531497 -1.338127 1.4572295e-38
3.2653136 0.051009174 -1.2936554 2.9499449e-39
3.296232 0.042935777 -1.3150432 5.8065717e-39
3.2653136 0.063761465 -1.2936554 3.6770842e-39
3.296232 0.072990827 -1.3150432 5.1629483e-39
3.2594628 0.10201835 -1.3184798 2.9452295e-39
3.2964287 0.10046972 -1.3142073 2.8548275e-39
3.3320293 0.11711559 -1.3200868 2.6722145e-39
3.3305368 0.13663486 -1.3264198 1.7524274e-39
3.2982018 0.15456881 -1.306685 2.9491741e-39
3.3300395 0.16482936 -1.3285308 9.2161718e-40
3.2982018 0.18033028 -1.306685 2.3981359e-39
3.3302383 0.19779523 -1.3276864 9.2125285e-40
3.3305368 0.22772476 -1.3264198 3.2225212e-39
3.3305368 0.25375044 -1.3264198 3.5923954e-39
3.3305366 0.28628257 -1.3264198 4.7016016e-39
3.2697017 0.051009174 -1.2750371 3.6021526e-39
3.302634 0.038642202 -1.2878791 6.8128091e-39
3.2711644 0.070137613 -1.2688309 2.7644578e-39
3.3011568 0.070844039 -1.2941477 3.1325172e-39
3.302634 0.09660551 -1.2878792 2.7626319e-39
3.3365071 0.11711559 -1.3010881 2.1201281e-39
3.3041115 0.14168808 -1.2816105 2.3945514e-39
3.33601 0.13446605 -1.3031992 2.6722313e-39
3.302634 0.16100916 -1.2878791 2.488203e-39
3.3021417 0.18462385 -1.2899687 1.9364572e-39
3.3385968 0.20300035 -1.2922221 2.1204855e-39
3.3379996 0.22772478 -1.2947552 2.7633452e-39
3.3379996 0.25375044 -1.2947552 2.6711453e-39
3.3370044 0.28411379 -1.2989771 2.8562554e-39
3.3743377 0.28926972 -1.3018662 3.2257512e-39
3.3454626 0.026025688 -1.2630907 1.2739559e-38
3.2425616 0.050495416 -1.2376206 1.9318006e-39
3.2770152 0.03825688 -1.2440065 5.0707723e-39
3.2425616 0.069431193 -1.2376206 2.7615571e-39
3.2755525 0.089266047 -1.2502126 2.6697272e-39
3.3085437 0.10948624 -1.2628047 2.3030943e-39
3.2770152 0.13389908 -1.2440065 2.7619256e-39
3.3070664 0.13524771 -1.2690734 2.6715209e-39
3.3094299 0.16229723 -1.2590435 2.6700789e-39
3.3100212 0.18033028 -1.2565361 1.5694613e-39
3.3451641 0.19779524 -1.2643573 2.5785896e-39
3.3449655 0.22555596 -1.2652018 2.8523108e-39
3.3439701 0.25375044 -1.2694236 1.470482e-39
3.3439701 0.28628257 -1.2694236 3.4127027e-39
3.3788621 0.27612111 -1.2826692 1.2872216e-39
3.3848946 0.026297247 -1.2570732 1.172791e-38
3.2809155 0.04675841 -1.2274568 2.8555548e-39
3.3179009 0.042935777 -1.2231034 3.1288977e-39
3.2469053 0.069431193 -1.2191898 2.6722397e-39
3.282866 0.076513752 -1.219182 2.7633578e-39
3.3188858 0.077284403 -1.2189244 4.0486652e-39
3.2822809 0.10966972 -1.2216645 2.5793126e-39
3.3188858 0.09660551 -1.2189244 3.9640435e-39
3.282866 0.13389908 -1.2191821 2.3956655e-39
3.3159308 0.13524771 -1.2314616 2.6697398e-39
3.282866 0.15302752 -1.219182 2.6707866e-39
3.3159308 0.16100916 -1.2314616 2.3938382e-39
3.3159308 0.18033028 -1.2314616 2.2098028e-39
3.3499403 0.19519266 -1.244092 3.0399264e-39
3.2584891 0.050495416 -1.170041 3.4958921e-39
3.2916422 0.03825688 -1.1819454 1.930716e-39
3.3218405 0.045082569 -1.2063872 2.7583327e-39
3.2584891 0.069431193 -1.170041 4.8899557e-39
3.2916422 0.089266047 -1.1819454 6.1795973e-39
3.3218405 0.070844039 -1.2063872 3.1296502e-39
3.2584891 0.10099083 -1.170041 4.8863698e-39
3.2896917 0.11051986 -1.1902202 3.5916807e-39
3.3218405 0.090165138 -1.2063872 3.3111898e-39
3.2887168 0.12752293 -1.1943576 2.6762208e-39
3.3559108 0.14314128 -1.2187604 2.6754683e-39
3.2628329 0.044183489 -1.1516101 2.9516965e-39
3.2945676 0.03825688 -1.1695333 1.745966e-39
3.2305839 0.062495407 -1.1402279 3.2225675e-39
3.2628329 0.082055047 -1.1516101 3.0370804e-39
3.2628329 0.10099083 -1.1516101 1.93543e-39
3.2671769 0.082055047 -1.1331793 5.1636994e-39
