# .PCD v0.7 - Point Cloud Data file format
VERSION 0.7
FIELDS x y z rgb
SIZE 4 4 4 4
TYPE F F F F
COUNT 1 1 1 1
WIDTH 126
HEIGHT 1
VIEWPOINT 0 0 0 1 0 0 0
POINTS 126
DATA ascii
2.5204003 -0.21728808 -1.3441107 1.0616492e-38
2.5160878 -0.19176513 -1.3473325 9.2170392e-39
2.5196607 -0.16844036 -1.3473973 8.9375839e-39
2.5423446 -0.16101505 -1.3513591 8.2958018e-39
2.5204003 -0.12127706 -1.3441107 5.8912003e-39
2.5431275 -0.13502842 -1.3478794 8.940451e-39
2.5425682 -0.10190825 -1.3503649 8.0084445e-39
2.5105352 -0.2144991 -1.3241816 9.0301551e-39
2.5481613 -0.21740429 -1.3255093 1.0775027e-38
2.5683486 -0.22939818 -1.3360103 1.1980773e-38
2.5205617 -0.19167949 -1.3221384 8.9408237e-39
2.5259473 -0.17180917 -1.3194611 9.3992809e-39
2.5481617 -0.15795779 -1.3255094 8.2082893e-39
2.5503988 -0.14267156 -1.3155673 7.1109409e-39
2.5677848 -0.13866606 -1.3385156 8.4830924e-39
2.5894535 -0.13462752 -1.3469888 9.1266597e-39
2.5226192 -0.11117064 -1.3342508 7.0187257e-39
2.5478423 -0.098996587 -1.3269298 1.0503084e-38
2.5683486 -0.11298716 -1.3360103 7.7275753e-39
2.5492802 -0.081526607 -1.3205383 1.0876891e-38
2.5683486 -0.070188992 -1.3360103 9.8609569e-39
2.5689929 -0.039618872 -1.3331473 9.30743e-39
2.5964065 -0.016586423 -1.337044 8.7549835e-39
2.5694761 0.020543119 -1.3309999 9.2166791e-39
2.6020868 0.0089006554 -1.3357465 9.3999802e-39
2.6151421 0.031321101 -1.3375957 9.4903583e-39
2.6348915 0.031585321 -1.3591511 9.6733132e-39
2.6615946 0.042466052 -1.3498057 1.1146672e-38
2.5229437 -0.21142569 -1.2849824 8.2958088e-39
2.4919684 -0.19897246 -1.2745947 1.0042141e-38
2.5178859 -0.18771558 -1.2915158 9.5843938e-39
2.5290139 -0.16485322 -1.2898917 1.0321971e-38
2.5526361 -0.15286238 -1.305625 9.4864403e-39
2.5337131 -0.13138348 -1.2849516 9.3993075e-39
2.5541275 -0.13587767 -1.2989969 9.5894329e-39
2.5728586 -0.1283945 -1.3159685 9.3985719e-39
2.5544262 -0.095793761 -1.2976712 9.4914611e-39
2.5526361 -0.081526607 -1.305625 8.6620564e-39
2.5753956 -0.070616968 -1.304695 8.3876387e-39
2.5751138 -0.041086238 -1.3059475 8.9375881e-39
2.5762413 -0.020543119 -1.3009371 8.7589436e-39
2.5985475 -0.010355963 -1.3065754 8.5652085e-39
2.5985479 0.0088765398 -1.3065755 9.3092279e-39
2.5974109 0.031067891 -1.3116271 9.6780006e-39
2.6418259 0.042113762 -1.3283364 1.0962995e-38
2.5237803 -0.2178679 -1.2653232 7.0979761e-39
2.5615854 -0.22419816 -1.2658563 5.7150837e-39
2.4963367 -0.19897246 -1.2551829 7.0018246e-39
2.5165949 -0.18554312 -1.2653688 9.030462e-39
2.5316522 -0.15884863 -1.2701961 9.5839917e-39
2.5281966 -0.1308922 -1.2616405 7.8297972e-39
2.4963367 -0.10943487 -1.2551829 8.7474193e-39
2.5381508 -0.10611743 -1.265232 9.7655299e-39
2.5627043 -0.096812844 -1.2608851 7.5600206e-39
2.5796239 -0.092444032 -1.2859056 9.3999816e-39
2.563077 -0.074732721 -1.259228 1.749203e-39
2.5811272 -0.070188992 -1.279225 7.3695183e-39
2.563823 -0.045858715 -1.255914 1.1024169e-39
2.5812347 -0.039618876 -1.2787478 8.9379258e-39
2.58233 -0.016434494 -1.2738805 8.5691447e-39
2.5826306 0.013695412 -1.2725444 9.5825708e-39
2.6030948 0 -1.286369 9.1266401e-39
2.5615854 0.030572476 -1.2658563 9.9520904e-39
2.5818789 0.030814679 -1.2758846 9.9491911e-39
2.4835014 -0.13326606 -1.2165679 1.6605961e-39
2.500705 -0.12933211 -1.2357711 2.5732226e-39
2.5028892 -0.11938348 -1.2260652 5.6149567e-39
2.5470259 -0.10106421 -1.2257924 1.0422403e-38
2.5686707 -0.098511316 -1.2343726 7.558957e-39
2.5668058 -0.078129664 -1.2426578 1.6580808e-39
2.5668058 -0.03736636 -1.2426578 2.1197652e-39
2.5897715 -0.030814679 -1.2408112 1.6609479e-39
2.588644 -0.015407339 -1.2458217 2.1194079e-39
2.5878923 0.011983487 -1.2491621 2.2112532e-39
2.6114311 0.0069039757 -1.2493234 3.1299627e-39
2.588644 0.034238532 -1.2458217 5.3372614e-39
2.6185281 0.041564524 -1.2527084 8.6602515e-39
2.5761282 -0.1222899 -1.201232 6.4522437e-39
2.5746369 -0.1053052 -1.2078602 8.944411e-39
2.5954092 -0.097579814 -1.2157589 7.2812785e-39
2.5761282 -0.030572476 -1.201232 3.8610537e-39
2.5931542 -0.030814679 -1.2257799 2.5807434e-39
2.5761282 -0.020381652 -1.201232 7.1945003e-39
2.5948453 -0.01283945 -1.2182641 5.2558698e-39
2.5750093 0.020381652 -1.206203 4.8835125e-39
2.5954092 0.0051357797 -1.2157589 4.8824349e-39
2.5750096 0.030572476 -1.2062031 1.2861201e-39
2.5931542 0.030814679 -1.2257799 2.5725289e-39
2.5516179 -0.12768073 -1.1735028 3.0395747e-39
2.5794842 -0.1222899 -1.1863186 7.098688e-39
2.5397146 -0.10530826 -1.1626297 9.6809111e-39
2.5794842 -0.11209908 -1.1863186 1.2630818e-38
2.5817213 -0.030572476 -1.1763763 2.392406e-39
2.5806029 -0.015286239 -1.1813475 1.3807652e-39
2.5999193 -0.010271559 -1.195717 2.0208111e-39
2.5808265 0.012228991 -1.1803533 4.7912833e-39
2.5999193 0 -1.195717 6.1817413e-39
2.5603387 0.035372477 -1.1666334 3.1234915e-39
2.5538969 -0.15101835 -1.1474332 2.8508647e-39
2.5203621 -0.13928074 -1.1484178 1.9350236e-39
2.5498376 -0.13063212 -1.1415588 4.8842076e-39
2.5884335 -0.13248073 -1.1465498 4.5107882e-39
2.5218184 -0.10280245 -1.1419473 1.1153513e-38
2.5589969 -0.10751926 -1.1407119 1.1522308e-38
2.5884335 -0.096812844 -1.1465498 8.5727657e-39
2.6111946 -0.092444032 -1.1456121 6.6399014e-39
2.5549979 -0.065460548 -1.1425409 3.0374083e-39
2.6100669 -0.071900919 -1.1506226 3.4097866e-39
2.648484 -0.065953515 -1.1545113 3.2282876e-39
2.563297 -0.047163296 -1.153487 2.4849618e-39
2.5884335 -0.035667889 -1.1465498 2.6682727e-39
2.6093154 -0.041086238 -1.1539629 2.3016453e-39
2.5625575 -0.010106422 -1.1567736 2.3945458e-39
2.5625575 0 -1.1567736 2.4871254e-39
2.5705452 -0.12734091 -1.121278 5.711792e-39
2.5648913 -0.11088807 -1.1145191 1.1615593e-38
2.5940268 -0.10190825 -1.1216943 1.0694315e-38
2.6145771 -0.092444032 -1.1305807 6.5495107e-39
2.6157045 -0.082172476 -1.1255702 2.8552325e-39
2.6349249 -0.082847707 -1.1449226 3.410483e-39
2.4963682 -0.11753394 -1.0637374 1.1887484e-38
2.5170934 -0.10365137 -1.0672916 1.1612681e-38
2.5356514 -0.099486232 -1.0804766 1.133249e-38
2.5562286 -0.090264216 -1.0892447 9.7677089e-39
2.4631915 -0.11577248 -1.0289706 1.2348431e-38
2.4867482 -0.11044159 -1.0457542 1.1340439e-38
