# .PCD v0.7 - Point Cloud Data file format
VERSION 0.7
FIELDS x y z rgb
SIZE 4 4 4 4
TYPE F F F F
COUNT 1 1 1 1
WIDTH 136
HEIGHT 1
VIEWPOINT 0 0 0 1 0 0 0
POINTS 136
DATA ascii
2.6185932 1.0423155 -1.3959821 6.1746017e-39
2.6185932 1.052844 -1.3959821 8.4799016e-39
2.6429341 1.0988091 -1.3973266 1.2347362e-38
2.7180307 0.80571741 -1.4012756 1.9292783e-39
2.7701149 0.82260823 -1.4069636 4.3274142e-39
2.7968123 0.83834863 -1.4113867 3.4933628e-39
2.6976051 0.86370635 -1.37896 1.1151725e-38
2.7732918 0.84199631 -1.3934844 2.2105904e-39
2.7052841 0.87963438 -1.3899701 1.2818425e-38
2.7161832 0.91658193 -1.3935457 6.1738744e-39
2.7035882 0.93831187 -1.3899014 7.000796e-39
2.6038733 0.98139453 -1.3538187 6.8048721e-39
2.6234238 0.98967338 -1.3754869 8.7488949e-39
2.647805 1.0138769 -1.3766598 1.1152787e-38
2.6234238 1.0423155 -1.375487 5.5231506e-39
2.647805 1.0298017 -1.3766598 1.0234801e-38
2.6697707 1.0454813 -1.3880805 7.2784549e-39
2.5990832 1.0649174 -1.3741425 1.001046e-38
2.6230209 1.0616179 -1.3771948 1.0136483e-38
2.6502404 1.0722679 -1.3663263 1.209524e-38
2.6714079 1.0668906 -1.3811344 7.5391945e-39
2.692652 1.0580404 -1.3999768 7.5596633e-39
2.647805 1.0828843 -1.3766599 1.0480073e-38
2.6697707 1.0972202 -1.3880805 9.6700903e-39
2.7027698 1.1115426 -1.3933744 9.4839025e-39
2.7025585 0.77733576 -1.3579432 1.6301654e-38
2.7140307 0.78603673 -1.3637575 1.3093177e-38
2.7494078 0.80179453 -1.3814833 1.2081571e-38
2.7280216 0.8329376 -1.3588848 4.6944592e-39
2.7531872 0.812778 -1.3654475 6.5390206e-39
2.7783749 0.83091748 -1.3719174 4.1412433e-39
2.8006585 0.83834863 -1.3950669 4.4116995e-39
2.7110465 0.85532594 -1.3582572 8.0202869e-39
2.754447 0.84572846 -1.3601022 4.7902309e-39
2.7158697 0.88224006 -1.3620088 6.9078661e-39
2.7158363 0.91691369 -1.3669952 1.2715116e-38
2.6575465 0.95017797 -1.3353262 1.6955309e-38
2.6795933 0.94200373 -1.346404 2.0754368e-38
2.7009077 0.9428795 -1.3649489 1.142408e-38
2.6070666 0.96747404 -1.3402693 7.443399e-39
2.6314743 0.98089981 -1.3413279 3.7778866e-39
2.6551111 0.96610272 -1.3456596 8.5954275e-39
2.7000818 0.96627152 -1.3684516 1.5499653e-38
2.6330845 1.005466 -1.3344961 3.8715368e-39
2.6526756 1.013877 -1.355993 4.7906219e-39
2.6086633 1.0335963 -1.3334948 4.424321e-39
2.6318769 1.0265229 -1.33962 4.8867607e-39
2.6526756 1.0404183 -1.355993 4.5179586e-39
2.6575465 1.0616513 -1.3353262 6.9182904e-39
2.67591 1.0704588 -1.3620327 4.4167765e-39
2.6771376 1.0811634 -1.3568231 8.0084445e-39
2.723026 1.1105834 -1.3800802 1.2525226e-38
2.6379151 0.7580477 -1.3140008 1.5748853e-38
2.7075119 0.77733576 -1.3369263 1.5838172e-38
2.7245085 0.79622632 -1.3374648 1.1152444e-38
2.7338495 0.82930827 -1.3341569 6.5444786e-39
2.7569666 0.82376152 -1.3494116 3.3183378e-39
2.7202575 0.85650331 -1.3373376 4.5147314e-39
2.6857324 0.89918536 -1.3203562 2.3016636e-39
2.70875 0.88529903 -1.3316721 3.7757357e-39
2.6849957 0.91631269 -1.3234819 4.0555525e-39
2.6387203 0.95457858 -1.310585 5.5288763e-39
2.6605909 0.94486976 -1.3224095 2.024739e-39
2.6849957 0.93558091 -1.3234819 4.6015489e-39
2.6379149 0.97914493 -1.3140008 4.7934805e-39
2.659982 0.96610272 -1.3249928 2.5764638e-39
2.6140521 1.0101055 -1.3106303 5.8051171e-39
2.6373112 1.002834 -1.3165628 5.8890367e-39
2.6110582 1.0335963 -1.3233328 3.9673856e-39
2.6379151 1.0317872 -1.3140008 7.0965566e-39
2.7344277 0.82436657 -1.3044589 5.15618e-39
2.6943271 0.86707157 -1.2838893 4.3303079e-39
2.7149417 0.85291004 -1.3054011 4.6054711e-39
2.6918714 0.88848072 -1.2943084 4.5140041e-39
2.7141168 0.88170028 -1.3089039 4.5125608e-39
2.6697237 0.92363667 -1.2836593 4.6069102e-39
2.6913805 0.91417181 -1.2963922 4.6054655e-39
2.644356 0.95106912 -1.2866738 3.6874889e-39
2.6677754 0.9448697 -1.291926 4.331052e-39
2.6894159 0.93665141 -1.3047276 4.8831468e-39
2.6451604 0.97914493 -1.2832577 4.4214568e-39
2.6681001 0.97318047 -1.2905482 4.4218085e-39
2.5782659 1.0168843 -1.2619456 4.8838643e-39
2.6206384 1.0057553 -1.282685 4.7888002e-39
2.6456437 1.0044131 -1.2812083 4.696613e-39
2.6124306 1.0241981 -1.2673793 5.2519083e-39
2.6427455 1.0265229 -1.2935055 4.8831342e-39
2.7471709 0.79845876 -1.2776357 1.169479e-38
2.7746041 0.80179453 -1.2745776 1.5024965e-38
2.729692 0.82402933 -1.2739534 4.6080004e-39
2.7695649 0.812778 -1.2959588 9.5563132e-39
2.6745946 0.85993761 -1.2629925 4.6033271e-39
2.6980107 0.85636693 -1.2682606 4.3285451e-39
2.7223721 0.84481281 -1.2738758 4.2381249e-39
2.6980107 0.88848072 -1.2682606 4.5122049e-39
2.6548216 0.91597426 -1.2422671 4.2395991e-39
2.6741889 0.91478962 -1.2647147 4.2377774e-39
2.6992385 0.90988994 -1.263051 4.4203568e-39
2.6742902 0.94354266 -1.2642841 4.3292612e-39
2.6511989 0.98440915 -1.2576387 4.5143615e-39
2.672971 0.97318047 -1.2698814 4.8806203e-39
2.6980107 0.96876514 -1.2682606 4.513644e-39
2.7240233 0.97886723 -1.2668703 4.1466664e-39
2.6254284 1.0127156 -1.2623612 4.5161762e-39
2.6499913 1.005466 -1.2627624 4.4186009e-39
2.6745946 1.013877 -1.2629925 2.8473586e-39
2.7236104 0.99326235 -1.2686217 5.1554359e-39
2.6191518 1.0273308 -1.255572 6.8145523e-39
2.6499913 1.0265229 -1.2627624 3.4902029e-39
2.6745946 1.0298017 -1.2629925 1.2064712e-38
2.6967828 1.0490496 -1.2734702 2.0179624e-38
2.7236102 1.0364476 -1.2686216 1.8705621e-38
2.6745946 1.0510348 -1.2629925 2.1842408e-38
2.7351875 1.0679569 -1.2739894 2.1007284e-38
2.742223 0.80050826 -1.2441413 7.4617111e-39
2.7352891 0.82359082 -1.2463145 3.499862e-39
2.7041497 0.85636705 -1.2422128 4.0530316e-39
2.7304213 0.84481281 -1.2397236 3.8697334e-39
2.7041497 0.88848072 -1.2422128 4.3285381e-39
2.6584446 0.91597426 -1.2268956 4.3274857e-39
2.6806831 0.91302019 -1.2371589 4.7895176e-39
2.7041497 0.90988994 -1.2422128 4.5122105e-39
2.6806831 0.93425322 -1.2371589 4.2392249e-39
2.7029219 0.95270824 -1.2474222 4.4210882e-39
2.7273254 0.97166973 -1.252859 5.2458155e-39
2.701694 1.0062312 -1.2526319 1.6867805e-38
2.7273254 1.014855 -1.252859 1.3911419e-38
2.7505012 1.039811 -1.2635055 1.8796039e-38
2.7427759 1.0640036 -1.2599566 2.0824653e-38
2.7355814 0.80252713 -1.217831 4.9674377e-39
2.7455454 0.82546937 -1.2191443 4.0544693e-39
2.7090609 0.86171925 -1.2213745 3.5924346e-39
2.7450502 0.8536315 -1.2212461 4.6076375e-39
2.6892073 0.88117063 -1.2009921 4.6054851e-39
2.7096748 0.88580459 -1.2187698 4.4218267e-39
2.7347555 0.87450272 -1.2213339 5.1536142e-39
