# .PCD v0.7 - Point Cloud Data file format
VERSION 0.7
FIELDS x y z rgb
SIZE 4 4 4 4
TYPE F F F F
COUNT 1 1 1 1
WIDTH 155
HEIGHT 1
VIEWPOINT 0 0 0 1 0 0 0
POINTS 155
DATA ascii
3.1186225 0.069476455 -1.3594749 8.7546248e-39
3.1493981 0.078393877 -1.3684705 7.5568173e-39
3.1829548 0.081244037 -1.3696649 7.0919001e-39
3.1815827 0.10624219 -1.375762 6.3611509e-39
3.1815827 0.13748991 -1.375762 8.105647e-39
3.1484923 0.16916573 -1.3724958 7.821538e-39
3.1829548 0.16248807 -1.3696649 1.0511015e-38
3.2165756 0.172526 -1.3751268 1.1064569e-38
3.1466806 0.18566972 -1.3805465 1.1230565e-38
3.1802106 0.19373578 -1.3818591 9.6715476e-39
3.2156518 0.19777371 -1.3792322 1.0506345e-38
3.2502358 0.1912844 -1.3849709 9.8678415e-39
3.1493981 0.21042567 -1.3684705 1.1514722e-38
3.1815827 0.22498347 -1.375762 1.1698044e-38
3.2147281 0.2398532 -1.3833375 1.2065736e-38
3.215421 0.25563303 -1.3802586 1.050308e-38
3.2161138 0.2840367 -1.3771795 9.5814946e-39
3.248836 0.31243119 -1.3911915 9.2123645e-39
3.1870708 0.074994497 -1.3513737 7.2834562e-39
3.2230425 0.063119262 -1.3463899 3.8582203e-39
3.1870708 0.10624219 -1.3513737 9.2141722e-39
3.1870708 0.13748991 -1.3513737 9.3974957e-39
3.2211947 0.172526 -1.3546004 1.0414194e-38
3.2216568 0.19566974 -1.3525479 1.0326659e-38
3.1870708 0.22498347 -1.3513737 1.0781496e-38
3.2216568 0.258789 -1.3525478 1.0136856e-38
3.2216568 0.2840367 -1.3525479 1.0505266e-38
3.2230425 0.3029725 -1.3463899 1.0232642e-38
3.2530355 0.31243119 -1.3725297 1.0041785e-38
3.1329782 0.073563308 -1.2956806 8.390105e-39
3.1629856 0.074267887 -1.3080906 8.6570313e-39
3.1911869 0.081244037 -1.3330824 8.6681703e-39
3.1629856 0.10521284 -1.3080906 1.1059897e-38
3.1930163 0.10832537 -1.3249531 9.7666201e-39
3.1939311 0.13748991 -1.3208884 1.1152081e-38
3.1944797 0.16748771 -1.3184495 1.0695064e-38
3.1953032 0.18748623 -1.3147912 1.1525524e-38
3.2271998 0.20198166 -1.3279161 1.1798527e-38
3.1939311 0.22498345 -1.3208883 1.1979339e-38
3.1953032 0.24998163 -1.3147912 1.2262782e-38
3.2271998 0.26510093 -1.3279161 1.1802518e-38
3.2271998 0.2840367 -1.3279161 1.179639e-38
3.1069696 0.060715593 -1.2655003 6.2560255e-39
3.1374648 0.07765016 -1.2757449 3.3136799e-39
3.1657031 0.086645864 -1.2960145 7.8290279e-39
3.1689641 0.10397504 -1.2815233 3.4058447e-39
3.1684206 0.1361578 -1.2839385 2.7756079e-39
3.2010655 0.13748991 -1.2891835 3.0370762e-39
3.2007914 0.16873762 -1.290403 1.9321622e-39
3.2012486 0.1916526 -1.2883706 3.3122001e-39
3.2313571 0.20198166 -1.3094423 6.53545e-39
3.2007914 0.22498347 -1.290403 5.8011248e-39
3.2007914 0.25623119 -1.290403 7.098332e-39
3.2007914 0.27497983 -1.290403 7.1897906e-39
3.2341282 0.29034865 -1.2971264 6.5408366e-39
3.3055949 0.30913761 -1.2983885 4.2366662e-39
3.1109686 0.060715593 -1.2477301 6.2614345e-39
3.1437449 0.077066317 -1.2478348 3.7807453e-39
3.2103956 0.062495407 -1.2477235 5.0660947e-39
3.1752143 0.10521284 -1.2537485 2.3013132e-39
3.1752143 0.12377981 -1.2537485 3.2257961e-39
3.2080436 0.14106108 -1.2581756 2.580791e-39
3.2062795 0.16873762 -1.2660147 2.0268773e-39
3.2424428 0.17042202 -1.2601788 2.4856765e-39
3.2071025 0.19498569 -1.2623564 3.4058363e-39
3.2424428 0.1893578 -1.2601788 2.9455714e-39
3.1752143 0.21042567 -1.2537485 3.776802e-39
3.2062795 0.231233 -1.2660147 2.487124e-39
3.2424426 0.22722936 -1.2601787 3.4962509e-39
3.2049074 0.25623119 -1.2721118 1.2943472e-39
3.2405951 0.26089299 -1.2683893 1.752796e-39
3.2768328 0.25504586 -1.2667798 2.57644e-39
3.2049074 0.27497983 -1.2721118 2.4892554e-39
3.2410572 0.27772477 -1.2663367 2.1201169e-39
3.2754326 0.29330274 -1.2730004 3.3186657e-39
3.2754328 0.30605504 -1.2730004 3.3157973e-39
3.3112507 0.30913761 -1.2732555 3.4029664e-39
3.1806493 0.080456875 -1.2295966 4.0577091e-39
3.2151978 0.071869723 -1.2263837 1.0137931e-38
3.1806493 0.10521284 -1.2295966 2.7648712e-39
3.2158837 0.10624219 -1.2233351 2.2128397e-38
3.2145116 0.1374899 -1.2294322 1.2536557e-38
3.2470617 0.16831803 -1.2396523 9.7810843e-39
3.3520687 0.19779524 -1.2558457 1.6672016e-38
3.2452142 0.22722936 -1.2478628 5.5186216e-40
3.2819653 0.22529049 -1.2439709 1.7429301e-38
3.3169065 0.21897247 -1.2481225 1.6072881e-38
3.3537829 0.22121835 -1.2482284 1.9098165e-38
3.2452145 0.26510093 -1.2478629 3.135048e-39
3.2810321 0.25504586 -1.2481179 6.5462204e-39
3.3169065 0.2511743 -1.2481225 3.0356301e-39
3.3537829 0.26025686 -1.2482284 2.952037e-39
3.2452145 0.27772477 -1.2478629 3.0593667e-39
3.2810323 0.28055045 -1.248118 7.2927748e-39
3.3140786 0.2962569 -1.260689 3.3118498e-39
3.3537829 0.27326974 -1.2482284 2.7661968e-39
3.3140786 0.30913761 -1.260689 2.4878429e-39
3.2195425 0.079160862 -1.2070763 2.1115327e-38
3.2553763 0.07995107 -1.2027047 1.3172119e-38
3.2186279 0.10624219 -1.211141 2.0468537e-38
3.2544525 0.10519878 -1.20681 1.6682022e-38
3.2894313 0.11477064 -1.2107944 1.363663e-38
3.2195425 0.13332355 -1.2070763 1.95448e-38
3.2535288 0.12623852 -1.2109153 1.7788753e-38
3.2894313 0.14027523 -1.2107944 1.6219556e-38
3.323976 0.12880734 -1.2167063 7.1890605e-39
3.252836 0.15464221 -1.2139943 1.8812236e-38
3.2880313 0.17215595 -1.217015 1.3806044e-38
3.3253901 0.16744953 -1.2104231 9.3017211e-39
3.3253901 0.18033028 -1.2104231 1.8176228e-38
3.3580682 0.20169909 -1.2291853 1.7501764e-38
3.3225622 0.2318532 -1.2229896 5.9937963e-39
3.3575923 0.22555596 -1.2313013 9.8731832e-39
3.3197343 0.24473393 -1.235556 1.8377959e-39
3.3585446 0.25158164 -1.2270695 3.038158e-39
3.3916638 0.26297247 -1.248425 3.4983921e-39
3.3580682 0.27977616 -1.2291853 3.134636e-39
3.2950308 0.044633027 -1.1859121 3.4980375e-39
3.22686 0.074994497 -1.1745586 6.3395709e-39
3.2599955 0.07995107 -1.1821783 6.451176e-39
3.2950306 0.063761465 -1.1859121 2.9463211e-39
3.3310459 0.064403668 -1.1852901 2.5717863e-39
3.2609193 0.10519878 -1.178073 8.9397419e-39
3.2922308 0.11477064 -1.1983533 1.1028093e-39
3.2950304 0.1317737 -1.1859121 4.322783e-39
3.3296318 0.14168808 -1.1915734 6.7317159e-39
3.2922308 0.15302752 -1.1983533 9.2223656e-41
3.3296318 0.16100916 -1.1915734 1.5120455e-38
3.328218 0.18033028 -1.1978565 1.8064294e-38
3.3640676 0.19779523 -1.202525 1.6044223e-38
3.3296318 0.22541285 -1.1915733 1.0221119e-38
3.328218 0.24473393 -1.1978565 6.3672578e-39
3.3642583 0.25591925 -1.2016789 6.6344882e-39
3.3623536 0.27326974 -1.2101424 3.0413768e-39
3.2673862 0.037871562 -1.149336 3.678501e-39
3.3024962 0.04675841 -1.1527356 6.2707742e-39
3.2350924 0.081244037 -1.1379762 1.5752816e-38
3.2664621 0.07995107 -1.1534413 1.2991609e-38
3.3020298 0.063761465 -1.1548092 8.2825105e-39
3.2337203 0.099992655 -1.1440732 1.5938684e-38
3.267386 0.11361468 -1.149336 1.4101942e-38
3.3024962 0.1317737 -1.1527356 1.0781142e-38
3.3680673 0.14314128 -1.1847516 8.4740652e-39
3.3690197 0.16049173 -1.1805198 1.3083471e-38
3.3338737 0.20609175 -1.1727237 6.7962037e-39
3.3690197 0.19519265 -1.1805198 1.2535402e-38
3.3020298 0.22316512 -1.1548092 1.4008318e-38
3.3352876 0.2511743 -1.1664404 1.0325199e-38
3.373781 0.25375044 -1.1593609 1.2808695e-38
3.2738528 0.046287466 -1.1205989 6.9114535e-39
3.2396657 0.083327211 -1.1176527 1.529761e-38
3.2743149 0.069431193 -1.1185464 8.3765082e-39
3.2396657 0.10415902 -1.1176527 1.5104951e-38
3.3062294 0.22316512 -1.1361475 1.4835551e-38
3.1814291 0.098084405 -1.080375 1.5750323e-38
