# .PCD v0.7 - Point Cloud Data file format
VERSION 0.7
FIELDS x y z
SIZE 4 4 4
TYPE F F F
COUNT 1 1 1
WIDTH 120
HEIGHT 1
VIEWPOINT 0 0 0 1 0 0 0
POINTS 120
DATA ascii
2.3845754 0.10612477 -1.3385551
2.3845754 0.12542018 -1.3385551
2.4215021 0.16650641 -1.3561982
2.3912504 0.02894312 -1.3103923
2.4094417 0.01458165 -1.3203611
2.3912504 0.057886239 -1.3103923
2.411283 0.050623119 -1.3299363
2.3912504 0.06753394 -1.3103923
2.425374 0.068561465 -1.3398602
2.3887076 0.10612476 -1.321121
2.4071996 0.11665321 -1.32982
2.3897672 0.12863608 -1.3166507
2.4064524 0.13285504 -1.3329731
2.427633 0.16160917 -1.3303298
2.4094417 0.20414312 -1.3203611
2.427351 0.22649769 -1.331521
2.425374 0.24486238 -1.3398602
2.4490104 0.24678899 -1.3311915
2.4981816 -0.066862382 -1.310182
2.4351625 -0.045707643 -1.2985616
2.4581172 -0.049357798 -1.2927698
2.3774753 -0.028722936 -1.2817911
2.3979256 -0.024119265 -1.2822294
2.3739252 0.013646133 -1.2843801
2.3934755 0.019295413 -1.3010046
2.3672585 0.047688071 -1.2815362
2.3648572 0.077637218 -1.2854722
2.3760033 0.10212599 -1.288002
2.3934755 0.11577248 -1.3010046
2.3763711 0.13404037 -1.2864492
2.3729684 0.16573454 -1.2863524
2.3934755 0.1543633 -1.3010046
2.3763711 0.19148622 -1.2864491
2.3971839 0.21546544 -1.2853587
2.4184675 0.22782604 -1.2996246
2.4344096 0.24486238 -1.3017384
2.4001505 -0.038590826 -1.2728418
2.4400568 -0.03917798 -1.2779123
2.3818915 -0.01196789 -1.2631587
2.4031172 -0.022511316 -1.260325
2.3786097 0.014314285 -1.258422
2.4046006 0 -1.2540666
2.3636322 0.047504585 -1.2534757
2.3419361 0.075449541 -1.2626306
2.3676882 0.076154128 -1.2556355
2.37783 0.10512987 -1.2610228
2.3676879 0.13325749 -1.2556354
2.3793776 0.16340683 -1.2579975
2.3814752 0.19137003 -1.2576877
2.3863077 0.21063487 -1.2445264
2.4023757 0.21996769 -1.2634542
2.4297895 0.22932661 -1.2778716
2.3911655 -0.022978349 -1.2240306
2.4075673 -0.01607951 -1.2415497
2.3538992 0.028293578 -1.2121574
2.3734477 0.012215465 -1.2244526
2.3702059 0.047504585 -1.2257413
2.3549867 0.080165133 -1.2075689
2.3695798 0.074650064 -1.2283826
2.3702059 0.10451008 -1.2257413
2.37767 0.13426355 -1.2257838
2.3879554 0.16050519 -1.2279392
2.3835111 0.19098471 -1.2274195
2.3904786 0.22340065 -1.2269291
2.3604245 -0.014146789 -1.1846265
2.3859682 -0.019111928 -1.2025985
2.3599584 0.014820446 -1.1865931
2.3759029 0.013301283 -1.2017047
2.3600619 0.047155961 -1.186156
2.3751359 0.049879819 -1.2049404
2.3586118 0.075449534 -1.192274
2.3771446 0.076007336 -1.1964661
2.3767793 0.10451008 -1.1980069
2.3826516 0.13195963 -1.1980097
2.3823278 0.16178471 -1.1938685
2.4179509 0.17365871 -1.1977408
2.438587 0.17497981 -1.1973935
2.4786072 0.17768808 -1.2063209
2.3783982 0.19207266 -1.1998496
2.4179509 0.19777799 -1.1977408
2.4518349 0.19309266 -1.2065384
2.4786072 0.18755963 -1.2063209
2.3911037 0.2257344 -1.2026098
2.4172091 0.22189724 -1.20087
2.4518306 0.2273 -1.2065563
2.348012 -0.015602447 -1.1546142
2.3608294 0.013161835 -1.1582036
2.3849964 0.016626604 -1.1633389
2.3298092 0.037166975 -1.1490282
2.3554273 0.04802569 -1.1599418
2.3877354 0.047504589 -1.151783
2.3658621 0.066018343 -1.1616842
2.3848138 0.07917431 -1.1641093
2.3844488 0.10451009 -1.1656502
2.3856587 0.13075688 -1.1713848
2.4017644 0.15797615 -1.1793128
2.4615161 0.16977124 -1.1873729
2.4808838 0.17768808 -1.1967155
2.5048401 0.17410091 -1.1866969
2.4592574 0.20078716 -1.1969033
2.4817944 0.19545689 -1.1928732
2.4592574 0.2154789 -1.1969033
2.3337379 -0.021680735 -1.1324525
2.3526895 -0.0093614683 -1.1348778
2.3702123 0.014146789 -1.1433302
2.3961406 0.016318742 -1.1410979
2.3745625 0.047155961 -1.1249764
2.3908029 0.047504585 -1.1388402
2.3734751 0.070733942 -1.1295649
2.4002616 0.085838526 -1.1422931
2.4083886 0.095743112 -1.1513642
2.3805442 -0.018862385 -1.0997397
2.3445954 0.020441836 -1.0866436
2.3697515 0.010991436 -1.1040839
2.3591666 0.065530278 -1.1075504
2.3832629 -0.018862385 -1.0882685
2.3480241 0.02787523 -1.0721775
2.3759007 0.017220797 -1.0781392
2.3480241 0.037166975 -1.0721775
2.3844724 0.045748882 -1.0713969
