# .PCD v0.7 - Point Cloud Data file format
VERSION 0.7
FIELDS x y z rgb
SIZE 4 4 4 4
TYPE F F F F
COUNT 1 1 1 1
WIDTH 115
HEIGHT 1
VIEWPOINT 0 0 0 1 0 0 0
POINTS 115
DATA ascii
4.0890865 -0.22071192 -1.3968823 5.3336881e-39
4.090817 -0.18918166 -1.389192 1.1704927e-38
4.0890865 -0.16553394 -1.3968823 1.0415284e-38
4.090817 -0.14188623 -1.389192 1.1899749e-38
4.1422377 -0.11174311 -1.4066539 1.1341573e-38
4.1404853 -0.071834862 -1.4144408 1.1888962e-38
4.1991134 -0.080844037 -1.4089882 1.1433772e-38
4.1410694 -0.042568807 -1.4118452 1.2074047e-38
4.1422377 -0.015963303 -1.4066539 1.0853235e-38
4.090817 0.015765138 -1.389192 1.0975986e-38
4.1410694 0.037247706 -1.4118452 1.2078031e-38
4.0942783 -0.22071192 -1.3738115 6.8981776e-39
4.0965858 -0.19443671 -1.3635578 1.1060257e-38
4.1457424 -0.20752293 -1.39108 9.0064367e-39
4.0960088 -0.16553394 -1.3661212 1.2905976e-38
4.0960088 -0.13400367 -1.3661212 1.2450786e-38
4.1480789 -0.10642201 -1.3806975 1.2900973e-38
4.1480789 -0.069174312 -1.3806975 1.2170964e-38
4.1474948 -0.039908256 -1.3832932 1.1616694e-38
4.1474948 -0.015963303 -1.3832932 1.2253088e-38
4.0960088 0.015765138 -1.3661212 1.1435539e-38
4.1474948 0 -1.3832932 1.1616345e-38
4.1474948 0.031926606 -1.3832932 1.170531e-38
4.0019159 -0.19229357 -1.3105371 8.8403534e-39
4.0019159 -0.16921835 -1.3105371 1.2063217e-38
4.0506034 -0.15570642 -1.3264811 1.2712168e-38
4.1046615 -0.15765136 -1.32767 1.0105506e-39
4.102931 -0.13400367 -1.3353602 8.2968822e-39
4.102931 -0.10247339 -1.3353602 7.2809338e-39
4.1012006 -0.063060552 -1.3430505 1.4568286e-38
4.1550879 -0.074495412 -1.3495498 5.8958526e-39
4.102354 -0.042040367 -1.3379236 1.1333947e-38
4.1562562 -0.031926606 -1.3443586 5.4187091e-39
4.102931 -0.015765138 -1.3353602 1.3455196e-38
4.102931 0.007882569 -1.3353602 1.4010866e-38
4.102931 0.031530276 -1.3353602 1.4387183e-38
4.0052934 -0.19229357 -1.295529 3.13252e-39
4.0574403 -0.19463304 -1.2960997 5.6253515e-39
4.0563006 -0.16608685 -1.3011633 1.9328796e-39
4.1115837 -0.16553394 -1.296909 2.7629752e-39
4.0574403 -0.14013578 -1.2960997 4.0505163e-39
4.1081228 -0.1261211 -1.3122895 3.8697376e-39
4.1098533 -0.10247339 -1.3045992 2.7622718e-39
4.1081228 -0.070943117 -1.3122895 4.2344998e-39
4.1632657 -0.071834862 -1.3132108 3.4062161e-39
4.1098533 -0.031530276 -1.3045992 2.3913411e-39
4.1615133 -0.047889907 -1.3209977 3.7717518e-39
4.1098533 -0.015765138 -1.3045992 1.5648272e-39
4.0574403 0.015570642 -1.2960997 4.5957125e-40
4.1104302 0.0052550458 -1.3020358 1.2918318e-39
4.0574403 0.031141285 -1.2960997 2.2962714e-39
4.1115837 0.031530276 -1.296909 4.053005e-39
4.2239614 -0.25870094 -1.2985679 6.7349095e-39
3.9641948 -0.21280001 -1.2504183 3.9622639e-39
4.0625677 -0.19463304 -1.2733135 3.4080265e-39
4.1167755 -0.16553394 -1.2738382 5.5408154e-39
4.0625677 -0.13235046 -1.2733135 1.7517744e-39
4.118506 -0.14188623 -1.2661479 1.0894253e-38
4.1702747 -0.12770642 -1.2820631 1.1996277e-38
4.1150451 -0.11035596 -1.2815285 7.3510296e-40
4.1702747 -0.11174311 -1.2820631 8.9455587e-39
4.1667705 -0.063853212 -1.297637 1.1943309e-39
4.1150451 -0.031530276 -1.2815285 2.0208223e-39
4.1667705 -0.047889907 -1.297637 1.0106403e-39
4.1150451 -0.015765138 -1.2815285 2.757611e-39
4.1667705 0.0079816515 -1.297637 2.7619453e-39
4.1772842 -0.27137613 -1.2509154 1.0048609e-38
4.1755319 -0.25541285 -1.2587024 6.0777047e-39
4.0676956 -0.21798898 -1.2505274 4.8845537e-39
4.1219673 -0.2285945 -1.2507674 3.4115858e-39
4.0676956 -0.19463304 -1.2505274 5.4438638e-39
4.1219673 -0.19706422 -1.2507674 1.1150629e-38
4.1219673 -0.17341653 -1.2507674 1.8351665e-38
4.1755319 -0.15963301 -1.2587024 1.7518616e-38
4.2292862 -0.14551927 -1.2749064 1.686858e-38
4.2839994 -0.13102385 -1.2913997 1.7793424e-38
4.2298779 -0.10779205 -1.2722774 1.492961e-38
4.2822018 -0.098267883 -1.2993889 1.2809088e-38
4.231061 -0.080844037 -1.2670193 1.349261e-38
4.2839994 -0.065511927 -1.2913997 1.5841438e-38
4.1825409 -0.27137613 -1.2275547 1.0789391e-38
4.1825409 -0.25541285 -1.2275547 5.5274512e-39
4.1254282 -0.2285945 -1.2353868 3.6828043e-39
4.1825409 -0.23146789 -1.2275547 3.5012647e-39
4.1265821 -0.19443671 -1.23026 1.0508455e-38
4.183125 -0.20220183 -1.224959 3.5848242e-39
4.1254282 -0.17341653 -1.2353868 1.8908296e-38
4.1825409 -0.16761467 -1.2275547 7.4624847e-39
4.2369771 -0.14012967 -1.2407287 5.5184479e-39
4.2893929 -0.13102385 -1.2674321 5.5188515e-39
4.1842933 -0.095779814 -1.2197678 1.6237968e-38
4.2357941 -0.10779205 -1.2459868 8.1006836e-39
4.1842933 -0.079816505 -1.2197678 1.8804726e-38
4.2363858 -0.072759636 -1.2433578 1.4486272e-38
4.2893929 -0.065511927 -1.2674321 1.3176858e-38
4.2381606 -0.048506424 -1.2354707 8.5411622e-39
4.2911906 -0.040944953 -1.2594428 8.030337e-39
4.2417102 -0.25061652 -1.2196963 4.6998219e-39
4.243485 -0.2263633 -1.211809 3.6846092e-39
4.187798 -0.19954127 -1.2041939 4.1423448e-39
4.187798 -0.16761467 -1.2041939 1.5121134e-38
4.187798 -0.14366972 -1.2041939 8.5717119e-39
4.2440767 -0.13474007 -1.20918 8.9264604e-39
4.187798 -0.11174311 -1.2041939 1.5851167e-38
4.2417102 -0.097012848 -1.2196963 2.0930591e-38
4.2417102 -0.072759636 -1.2196963 1.4922432e-38
4.243485 -0.048506424 -1.211809 1.2536752e-38
4.2983823 -0.032755964 -1.227486 1.5110353e-38
4.3542433 -0.016590826 -1.2434381 7.9392905e-39
4.1913028 -0.19954127 -1.1886201 9.2173994e-39
4.1930552 -0.16761467 -1.1808332 1.612665e-38
4.3037758 -0.14740182 -1.2035184 1.1241412e-38
4.1913028 -0.063853212 -1.1886201 6.8880223e-39
4.2488098 -0.048506424 -1.1881475 1.3822477e-38
4.3037758 -0.016377982 -1.2035184 1.2543268e-38
