# .PCD v0.7 - Point Cloud Data file format
VERSION 0.7
FIELDS x y z rgb
SIZE 4 4 4 4
TYPE F F F F
COUNT 1 1 1 1
WIDTH 117
HEIGHT 1
VIEWPOINT 0 0 0 1 0 0 0
POINTS 117
DATA ascii
4.0827413 -0.19443671 -1.4250798 1.0407665e-38
4.0821643 -0.16553394 -1.4276433 1.1333595e-38
4.090817 -0.22071192 -1.389192 4.9595498e-39
4.1387334 -0.22348623 -1.4222277 5.8940351e-39
4.0896635 -0.19443671 -1.3943188 9.4036235e-39
4.1387334 -0.20752293 -1.4222277 6.7217106e-39
4.0890865 -0.16553394 -1.3968823 1.0413849e-38
4.090817 -0.13400367 -1.389192 1.2172379e-38
4.1387334 -0.13568807 -1.4222277 1.0592495e-38
4.1422377 -0.11174311 -1.4066539 1.2353201e-38
4.1955633 -0.097012848 -1.4247626 1.2351776e-38
4.1404853 -0.063853212 -1.4144408 1.2260601e-38
4.1955633 -0.080844037 -1.4247626 1.1243593e-38
4.1404853 -0.039908256 -1.4144408 1.2444263e-38
4.1404853 -0.015963303 -1.4144408 1.0957613e-38
4.1410694 0.010642202 -1.4118452 1.143193e-38
4.1387334 0.031926606 -1.4222277 1.2266336e-38
4.1973386 0.040422022 -1.4168755 1.2444639e-38
4.045476 -0.21798898 -1.3492672 6.6427951e-39
4.0471849 -0.18684772 -1.3416719 1.1897185e-38
4.0954318 -0.19969173 -1.3686846 9.5729186e-39
4.0471849 -0.16349176 -1.3416719 1.2899894e-38
4.0942783 -0.16553394 -1.3738115 1.2629757e-38
4.045476 -0.14013578 -1.3492672 1.2819559e-38
4.0960088 -0.1261211 -1.3661212 1.2357887e-38
4.0977392 -0.10247339 -1.358431 1.2811293e-38
4.1457424 -0.10376146 -1.39108 1.2906348e-38
4.0977392 -0.063060552 -1.358431 1.3280541e-38
4.1469107 -0.074495412 -1.3858887 1.1524507e-38
4.1474948 -0.039908256 -1.3832932 1.1984396e-38
4.1474948 -0.015963303 -1.3832932 1.2440704e-38
4.0960088 0.015765138 -1.3661212 1.1161473e-38
4.1474948 0 -1.3832932 1.1522367e-38
4.2026629 0.032337617 -1.3932139 1.160918e-38
3.9541836 -0.19 -1.2949058 8.6531021e-39
4.0019159 -0.16921835 -1.3105371 1.2250475e-38
4.0506034 -0.15570642 -1.3264811 1.2898344e-38
4.0506034 -0.14013578 -1.3264811 1.3266776e-38
4.102931 -0.1261211 -1.3353602 8.3076764e-39
4.102931 -0.10247339 -1.3353602 7.6508052e-39
4.102931 -0.070943117 -1.3353602 8.294018e-39
4.1545038 -0.039908256 -1.3521454 9.950654e-39
4.1545038 -0.015963303 -1.3521454 1.3271884e-38
4.102931 0.015765138 -1.3353602 1.4103403e-38
4.1545038 0 -1.3521454 1.41924e-38
4.1046615 0.031530276 -1.32767 1.3551613e-38
4.1527519 0.031926606 -1.3599323 1.5679388e-38
4.0069823 -0.19229357 -1.2880249 4.4218281e-39
4.0052934 -0.16921835 -1.295529 5.5137311e-40
4.0563006 -0.16089664 -1.3011632 2.1183387e-39
4.1115837 -0.15765136 -1.296909 3.1292452e-39
4.0540218 -0.14013578 -1.3112904 3.4908573e-39
4.1098533 -0.13400367 -1.3045992 3.501992e-39
4.1098533 -0.11035596 -1.3045992 2.5803818e-39
4.159761 -0.095779814 -1.3287847 3.2232303e-39
4.1615133 -0.063853212 -1.3209977 4.0504854e-39
4.1615133 -0.039908256 -1.3209977 3.2196556e-39
4.1615133 -0.015963303 -1.3209977 1.9332258e-39
4.1098533 0.007882569 -1.3045992 1.2900438e-39
4.1098533 0.031530276 -1.3045992 2.7612054e-39
4.0137367 -0.21536879 -1.2580086 4.0544469e-39
4.0619984 -0.19722813 -1.2758453 3.8718591e-39
4.1173525 -0.19443671 -1.2712747 4.1477622e-39
4.0608587 -0.17127708 -1.2809089 2.4874659e-39
4.1167755 -0.16553394 -1.2738382 6.0893046e-39
4.1150451 -0.13400367 -1.2815285 5.5973886e-40
4.1702747 -0.13568807 -1.2820631 1.1811892e-38
4.1667705 -0.11174311 -1.297637 1.1024519e-39
4.3378525 -0.09954495 -1.3162754 1.3538368e-38
4.1685224 -0.031926606 -1.28985 3.6021652e-39
4.1667705 -0.015963303 -1.297637 2.3002062e-39
4.1150451 0.007882569 -1.2815285 2.3928264e-39
4.1702747 0 -1.2820631 6.0967581e-39
4.231061 -0.25061652 -1.2670193 5.3422878e-39
4.0204916 -0.23075229 -1.2279922 4.3285101e-39
4.0676956 -0.21798898 -1.2505274 5.3401397e-39
4.1219673 -0.22071192 -1.2507674 3.043525e-39
4.1772842 -0.22348623 -1.2509154 3.2239632e-39
4.1219673 -0.20494679 -1.2507674 7.5319792e-39
4.176116 -0.19688071 -1.2561067 1.5766491e-38
4.1755319 -0.16761467 -1.2587024 1.853383e-38
4.2275114 -0.13743487 -1.2827936 1.7708436e-38
4.2857971 -0.13921285 -1.2834104 1.6686315e-38
4.2275114 -0.11318165 -1.2827936 1.8545025e-38
4.2857971 -0.10645688 -1.2834104 1.4180148e-38
4.231061 -0.072759636 -1.2670193 1.5023602e-38
4.3487797 -0.28204402 -1.2677172 1.1525519e-38
4.2346106 -0.24253212 -1.2512449 3.3215356e-39
4.2893929 -0.26204771 -1.2674321 5.5223813e-39
4.3487797 -0.2571578 -1.2677172 4.7012625e-39
4.1825409 -0.22348623 -1.2275547 3.5016165e-39
4.1288896 -0.18918166 -1.2200063 1.0106179e-39
4.183125 -0.20220183 -1.224959 3.0370538e-39
4.1825409 -0.16761467 -1.2275547 7.6465214e-39
4.2363858 -0.13743487 -1.2433578 6.4328582e-39
4.2363858 -0.10509725 -1.2433578 1.0781537e-38
4.1842933 -0.063853212 -1.2197678 1.3939167e-38
4.2357941 -0.075454436 -1.2459868 1.5313143e-38
4.2363858 -0.048506424 -1.2433578 8.3818682e-39
4.2965841 -0.24566972 -1.2354753 3.6849651e-39
4.3524218 -0.26545322 -1.2515312 6.0813481e-39
4.187798 -0.22348623 -1.2041939 3.7699455e-39
4.187798 -0.19954127 -1.2041939 4.8791825e-39
4.187798 -0.16761467 -1.2041939 1.5393771e-38
4.187798 -0.14366972 -1.2041939 8.7561157e-39
4.2440767 -0.13474007 -1.20918 9.3906307e-39
4.187798 -0.11174311 -1.2041939 1.6307478e-38
4.2417102 -0.097012848 -1.2196963 2.1299371e-38
4.187798 -0.063853212 -1.2041939 1.1663577e-38
4.243485 -0.072759636 -1.211809 1.2810153e-38
4.2452602 -0.048506424 -1.2039219 1.4193775e-38
4.2977829 -0.038215291 -1.2301491 1.3546256e-38
4.3560643 -0.016590826 -1.2353451 8.4989186e-39
4.4101844 -0.016811009 -1.2681408 7.2903113e-39
4.1392727 -0.19706422 -1.1738648 9.6754937e-39
4.1427341 -0.16553394 -1.1584843 1.5848251e-38
4.1913028 -0.16761467 -1.1886201 1.7045718e-38
