# .PCD v0.7 - Point Cloud Data file format
VERSION 0.7
FIELDS x y z rgb
SIZE 4 4 4 4
TYPE F F F F
COUNT 1 1 1 1
WIDTH 133
HEIGHT 1
VIEWPOINT 0 0 0 1 0 0 0
POINTS 133
DATA ascii
2.5107911 -0.21647891 -1.3389862 9.9661089e-39
2.5096817 -0.1912899 -1.3439161 9.8609597e-39
2.5198457 -0.16422936 -1.3465757 9.4893171e-39
2.5204003 -0.12127706 -1.3441107 6.1566482e-39
2.5425682 -0.13757613 -1.3503649 8.75678e-39
2.5421951 -0.10190826 -1.3520219 8.1978426e-39
2.5148478 -0.21815045 -1.3209599 1.1516169e-38
2.5492802 -0.22419816 -1.3205383 9.2275055e-39
2.516283 -0.19134556 -1.3198943 8.9415426e-39
2.5237286 -0.16675596 -1.329321 8.758959e-39
2.5488009 -0.16159737 -1.3226689 9.9524533e-39
2.5033836 -0.1203523 -1.3240769 8.5648413e-39
2.5503988 -0.14267156 -1.3155673 8.4870468e-39
2.5680666 -0.13224633 -1.3372631 8.5702447e-39
2.5226192 -0.10611743 -1.3342508 8.2921879e-39
2.5481617 -0.1006344 -1.3255095 1.0226495e-38
2.5683486 -0.11298716 -1.3360103 7.54354e-39
2.5481613 -0.081526607 -1.3255093 1.1243156e-38
2.5683486 -0.066765137 -1.3360105 9.4003333e-39
2.5686305 -0.039802294 -1.3347578 9.2148784e-39
2.5912724 -0.014498348 -1.338906 8.9382775e-39
2.5706036 0.020543119 -1.3259895 9.0304886e-39
2.5914025 0.0073971166 -1.3383288 9.2145169e-39
2.591727 0.031067891 -1.3368855 8.8479064e-39
2.532234 -0.21560366 -1.2915249 6.8231969e-39
2.4912403 -0.20228867 -1.27783 8.6660403e-39
2.521843 -0.18623669 -1.2898748 9.7677047e-39
2.5337131 -0.16675596 -1.2849516 1.0231575e-38
2.5531955 -0.1605055 -1.3031394 8.6682151e-39
2.5541275 -0.13927461 -1.2989969 9.4979688e-39
2.5728586 -0.1283945 -1.3159685 9.7634055e-39
2.5541275 -0.098511316 -1.2989969 8.9443956e-39
2.5751138 -0.10014771 -1.3059475 9.3020308e-39
2.5751138 -0.071900912 -1.3059475 8.5713055e-39
2.5747917 -0.041086238 -1.3073791 9.1183864e-39
2.5985475 -0.041423853 -1.3065754 8.944418e-39
2.5756774 -0.01797523 -1.3034422 8.9408321e-39
2.5962741 -0.010355963 -1.3166789 8.5616253e-39
2.5548735 0.020381652 -1.2956829 1.0227237e-38
2.5758655 0.010271559 -1.3026072 9.7684152e-39
2.5751138 0.030814679 -1.3059475 9.49218e-39
2.5359321 -0.21728808 -1.2750918 6.0842095e-39
2.5610261 -0.21655504 -1.2683418 4.7931134e-39
2.4941525 -0.19897246 -1.2648889 1.0413409e-38
2.5262635 -0.19125137 -1.2702303 7.0097097e-39
2.537781 -0.16001834 -1.2668753 6.7299068e-39
2.5593481 -0.15286238 -1.2757984 3.131783e-39
2.5299621 -0.1370312 -1.2633599 6.9125072e-39
2.58233 -0.096552655 -1.2738805 8.2961423e-39
2.563823 -0.061144952 -1.255914 1.2875467e-39
2.5815971 -0.073184855 -1.2771373 5.8961945e-39
2.5638227 -0.0407633 -1.255914 1.2882501e-39
2.580977 -0.041086238 -1.279893 9.3985438e-39
2.5818789 -0.015407339 -1.2758846 7.8341006e-39
2.5812347 0.011738925 -1.2787478 9.4003501e-39
2.6065052 0.0051779817 -1.2712139 4.9702823e-39
2.5615854 0.030572476 -1.2658563 1.0226511e-38
2.5811272 0.034238532 -1.279225 1.0411231e-38
2.5326047 -0.21449907 -1.2261093 4.426451e-39
2.5448072 -0.20212843 -1.2356523 3.4040454e-39
2.484585 -0.13820183 -1.2117525 1.8431811e-39
2.500705 -0.12933211 -1.2357711 1.7481338e-39
2.5660603 -0.091717429 -1.2459719 5.4441959e-39
2.5660601 -0.071335778 -1.2459718 1.9321748e-39
2.588644 -0.061629359 -1.2458217 2.3034404e-39
2.5682974 -0.044160243 -1.2360296 1.9368229e-39
2.5881929 -0.036977611 -1.247826 2.1204897e-39
2.5705349 -0.020381652 -1.2260875 2.3030901e-39
2.5881929 -0.014380182 -1.247826 2.5775092e-39
2.5892079 0.015407339 -1.2433165 3.0370608e-39
2.6116209 0.0077669723 -1.2484815 2.7626249e-39
2.5682976 0.030572476 -1.2360296 3.0399405e-39
2.588644 0.030814679 -1.2458217 4.0433094e-39
2.4520514 -0.21872477 -1.1695735 6.2642568e-39
2.5072575 -0.21886973 -1.2066534 5.0740008e-39
2.4903646 -0.19743121 -1.1860706 3.4087146e-39
2.5072575 -0.19897246 -1.2066534 3.2221527e-39
2.5750096 -0.19362567 -1.2062031 4.1376798e-39
2.4878359 -0.13820183 -1.1973064 2.7608214e-39
2.5761282 -0.030572476 -1.201232 4.1340491e-39
2.5931542 -0.030814679 -1.2257799 2.2080218e-39
2.5755689 -0.017833944 -1.2037176 8.3937232e-39
2.5942817 -0.010271559 -1.2207694 1.8414421e-39
2.5750096 0.015286239 -1.2062031 3.6864281e-39
2.595973 0.0051357797 -1.2132536 7.6522205e-39
2.5772469 0.030572476 -1.1962608 6.8369142e-39
2.5942817 0.030814679 -1.2207694 1.0134597e-39
2.4734313 -0.21874373 -1.1656631 5.6199579e-39
2.4965048 -0.19940551 -1.1587836 2.4896379e-39
2.5159941 -0.19399816 -1.1678298 2.7619102e-39
2.5181782 -0.17410091 -1.1581239 6.4501908e-40
2.5408156 -0.10029358 -1.1577375 1.1522292e-38
2.5408156 -0.045132108 -1.1577375 3.2217954e-39
2.5817213 -0.030572476 -1.1763763 2.2105245e-39
2.5802298 -0.01698471 -1.1830045 1.7466919e-39
2.6033018 -0.015407339 -1.1806855 2.7622493e-39
2.5603387 0.020212844 -1.1666334 4.6097955e-40
2.5806029 0.015286239 -1.1813475 6.5415457e-39
2.6006711 0.0034238531 -1.1923766 3.4973271e-39
2.55812 0.040425688 -1.1764932 7.5308708e-39
2.5794842 0.030572476 -1.1863186 7.2989055e-39
2.5203624 -0.19399816 -1.1484179 3.0395719e-39
2.5030065 -0.17275229 -1.1298913 2.6744047e-39
2.5203624 -0.17410091 -1.1484179 2.6725915e-39
2.5203624 -0.12933211 -1.1484179 1.3825673e-39
2.5444853 -0.12369541 -1.1414297 5.2544194e-39
2.5218184 -0.11606728 -1.1419473 8.5709552e-39
2.5532863 -0.10347837 -1.143314 1.0783303e-38
2.5884333 -0.095114373 -1.1465498 7.7426505e-39
2.6111946 -0.092444032 -1.1456121 6.9139632e-39
2.5452192 -0.065190822 -1.1381681 2.4878233e-39
2.5876875 -0.071335778 -1.1498638 2.8569771e-39
2.6104429 -0.075324774 -1.1489525 2.9499084e-39
2.6445258 -0.067566976 -1.15464 3.5941946e-39
2.5225465 -0.054717429 -1.138712 1.7513596e-39
2.5538969 -0.045324769 -1.1474332 2.0261389e-39
2.5884335 -0.050954126 -1.1465498 2.3938564e-39
2.6078119 -0.03595046 -1.1606436 1.8417504e-39
2.6326513 -0.046601832 -1.1550258 2.3034558e-39
2.6281042 -0.020711927 -1.1752325 2.6689845e-39
2.5116754 -0.12833028 -1.0913684 4.8813195e-39
2.5269148 -0.12933211 -1.1193002 5.153645e-39
2.530555 -0.11606728 -1.1031237 8.8482301e-39
2.549623 -0.11032294 -1.1185988 1.1521947e-38
2.5929081 -0.10190825 -1.1266655 1.0873661e-38
2.6145771 -0.092444032 -1.1305807 6.6381176e-39
2.6356826 -0.079395719 -1.1415547 3.4083712e-39
2.4963682 -0.12732844 -1.0637374 1.2718636e-38
2.487015 -0.11219633 -1.0597519 1.2533934e-38
2.5334673 -0.11440918 -1.0901825 8.8450576e-39
2.4797959 -0.1263743 -1.0462824 1.2254427e-38
2.4631915 -0.11577248 -1.0289706 1.1889248e-38
2.4929943 -0.1107107 -1.0483634 1.1339003e-38
