# .PCD v0.7 - Point Cloud Data file format
VERSION 0.7
FIELDS x y z rgb
SIZE 4 4 4 4
TYPE F F F F
COUNT 1 1 1 1
WIDTH 107
HEIGHT 1
VIEWPOINT 0 0 0 1 0 0 0
POINTS 107
DATA ascii
3.2360599 -0.30605504 -1.4177775 2.0208027e-39
3.240448 -0.36981651 -1.3991592 1.1883447e-38
3.2092586 -0.35346788 -1.3789234 1.1333947e-38
3.2401555 -0.34176147 -1.4004004 1.1616648e-38
3.2389853 -0.30605504 -1.4053653 9.0341151e-39
3.2745631 -0.31557798 -1.4069829 1.1707042e-38
3.2419107 -0.28055045 -1.392953 9.6726588e-39
3.2745631 -0.2962569 -1.4069829 1.1514401e-38
3.240448 -0.26779816 -1.3991592 1.0678505e-38
3.2760406 -0.2511743 -1.4007143 1.1231303e-38
3.2419107 -0.21678898 -1.392953 1.4939286e-38
3.2760406 -0.2318532 -1.4007143 1.5946924e-38
3.2419107 -0.2040367 -1.392953 1.2160475e-38
3.275548 -0.18462385 -1.4028038 1.2163003e-38
3.3096409 -0.16916697 -1.4150805 1.1981853e-38
3.3456829 -0.15778348 -1.4234469 1.2436703e-38
3.3456829 -0.13806054 -1.4234469 1.2443184e-38
3.3486991 -0.10518899 -1.4106489 1.1156788e-38
3.2477617 -0.37619266 -1.3681288 1.2070395e-38
3.2136023 -0.34715596 -1.3604926 1.1143095e-38
3.2489316 -0.33921099 -1.3631638 1.0227985e-38
3.2477615 -0.31370643 -1.3681287 1.05078e-38
3.2804728 -0.30913761 -1.3819084 1.0607558e-38
3.24703 -0.2869266 -1.3712317 1.0132917e-38
3.2804728 -0.2962569 -1.3819084 9.6715588e-39
3.2477615 -0.26142201 -1.3681287 8.566635e-39
3.2819502 -0.24473393 -1.3756398 1.1427216e-38
3.2448361 -0.21678898 -1.3805408 1.4293183e-38
3.2819502 -0.22541285 -1.3756398 1.1884939e-38
3.3200889 -0.23423119 -1.3707502 1.05085e-38
3.2448361 -0.19766055 -1.3805408 1.1980417e-38
3.2819502 -0.19321102 -1.3756398 1.1246439e-38
3.2819502 -0.16744953 -1.3756398 1.023374e-38
3.3171039 -0.15615413 -1.3834161 1.1329635e-38
3.2834275 -0.12880734 -1.3693712 1.2069699e-38
3.3163574 -0.13988806 -1.3865825 1.1612719e-38
3.2834275 -0.10948624 -1.3693712 1.1798193e-38
3.3141186 -0.11711559 -1.3960818 1.2346677e-38
3.253612 -0.36981651 -1.3433043 1.1056988e-38
3.2208421 -0.35346788 -1.3297746 9.4832299e-39
3.2553673 -0.34176144 -1.3358569 1.0508123e-38
3.2550747 -0.30605504 -1.3370981 1.1615904e-38
3.2878599 -0.32201836 -1.3505653 1.1335029e-38
3.2208419 -0.27772477 -1.3297745 9.8631527e-39
3.2550747 -0.29330274 -1.3370981 1.1787365e-38
3.189008 -0.26248074 -1.3166314 6.9218749e-39
3.2208421 -0.26510093 -1.3297746 8.115735e-39
3.2550747 -0.25504586 -1.3370981 1.0856039e-38
3.2893372 -0.24473393 -1.3442967 1.1249641e-38
3.2565374 -0.21678898 -1.330892 1.2441349e-38
3.2893372 -0.22755963 -1.3442967 1.0035655e-38
3.2884929 -0.19137092 -1.3478788 1.0970195e-38
3.289928 -0.16229723 -1.3417892 1.1243541e-38
3.2878599 -0.12880734 -1.3505653 1.206399e-38
3.3250644 -0.13880366 -1.3496406 1.2534257e-38
3.2885985 -0.11270642 -1.3474309 1.23517e-38
3.2653136 -0.36981651 -1.2936554 6.0924351e-39
3.2295299 -0.35346788 -1.292913 4.6944339e-39
3.2609255 -0.33793578 -1.3122737 5.3430291e-39
3.2609255 -0.31243119 -1.3122737 3.1314537e-39
3.2594628 -0.2869266 -1.3184798 1.0105954e-39
3.3290443 -0.29929543 -1.3327527 2.5775358e-39
3.2952468 -0.24473393 -1.3192222 7.3932689e-39
3.2295299 -0.21460551 -1.292913 1.1956943e-39
3.2609255 -0.22316512 -1.3122737 4.7887581e-39
3.2623885 -0.19766055 -1.3060676 3.6856588e-39
3.2633631 -0.17428134 -1.3019301 1.3818526e-39
3.2972169 -0.15886237 -1.3108641 2.4867443e-39
3.3305368 -0.14314128 -1.3264198 2.3030831e-39
3.3652887 -0.13148624 -1.34026 2.3006e-39
3.2697017 -0.36981651 -1.2750371 6.4540276e-39
3.2338738 -0.34715596 -1.2744821 3.0384915e-39
3.2711644 -0.35706419 -1.2688309 5.4237453e-39
3.2331498 -0.31875229 -1.2775539 2.6704237e-39
3.2033446 -0.22498347 -1.2558026 1.3778926e-39
3.2333908 -0.21881346 -1.27653 2.2094553e-39
3.3409848 -0.22121835 -1.2820895 1.9364684e-39
3.2353218 -0.20198166 -1.2683386 2.6722243e-39
3.2697017 -0.19766055 -1.2750371 3.0366866e-39
3.3041115 -0.18677065 -1.2816105 2.8526541e-39
3.3409848 -0.20169908 -1.2820895 2.3963465e-39
3.2697017 -0.16577981 -1.2750371 2.3920767e-39
3.3011568 -0.15456881 -1.2941477 3.8639138e-39
3.302634 -0.14168808 -1.2878791 2.1154955e-39
3.3365071 -0.13012843 -1.3010881 2.0247446e-39
3.3041115 -0.1159266 -1.2816105 2.7596611e-40
3.2416928 -0.34589356 -1.2413068 4.5067776e-39
3.2382176 -0.32822019 -1.2560514 3.4054636e-39
3.2411134 -0.2230214 -1.2437642 2.3902494e-39
3.3100212 -0.21897247 -1.2565361 3.314019e-39
3.2770152 -0.2040367 -1.2440065 3.4072544e-39
3.3107598 -0.18677065 -1.2534018 2.5803846e-39
3.2758451 -0.16322935 -1.2489713 6.818155e-39
3.3129761 -0.16744953 -1.2439989 2.4903526e-39
3.2760398 -0.13602446 -1.2481438 9.9474142e-39
3.3070664 -0.12880734 -1.2690734 1.1987587e-38
3.2770152 -0.11477064 -1.2440065 1.1336405e-38
3.3070664 -0.1159266 -1.2690734 1.2629724e-38
3.2119465 -0.3624734 -1.2193054 7.469969e-39
3.2469053 -0.36609176 -1.2191898 8.2082375e-39
3.2469053 -0.34715596 -1.2191898 3.5016179e-39
3.2822809 -0.2218899 -1.2216645 2.1176198e-39
3.2828658 -0.2040367 -1.219182 2.5803776e-39
3.351433 -0.18868625 -1.2377591 1.8464125e-39
3.2828658 -0.15302752 -1.219182 2.579663e-39
3.3174083 -0.16744953 -1.225193 2.488189e-39
3.2814033 -0.13389908 -1.2253882 2.0254186e-39
