# .PCD v0.7 - Point Cloud Data file format
VERSION 0.7
FIELDS x y z rgb
SIZE 4 4 4 4
TYPE F F F F
COUNT 1 1 1 1
WIDTH 119
HEIGHT 1
VIEWPOINT 0 0 0 1 0 0 0
POINTS 119
DATA ascii
2.5068483 -0.2144991 -1.3405645 9.676944e-39
2.515753 -0.19468938 -1.3510978 8.0181457e-39
2.5204003 -0.17180917 -1.3441107 9.4943282e-39
2.5417695 -0.1630532 -1.3539158 8.2958032e-39
2.5423446 -0.13248071 -1.351359 8.6606313e-39
2.5427921 -0.10394643 -1.3493707 8.1085267e-39
2.5128496 -0.21529102 -1.3202736 1.1145949e-38
2.5481615 -0.22419816 -1.3255094 8.8601678e-39
2.5178957 -0.19270733 -1.3193715 9.2163302e-39
2.5270567 -0.17180917 -1.3145312 1.2249053e-38
2.5468192 -0.16101505 -1.3314748 9.0330207e-39
2.5492802 -0.14267156 -1.3205383 9.3110552e-39
2.5674465 -0.13353029 -1.3400187 8.6635292e-39
2.5894535 -0.12427156 -1.3469888 6.5322635e-39
2.5468192 -0.099870093 -1.3314748 1.0961178e-38
2.5698519 -0.10271559 -1.3293297 8.6606299e-39
2.5481613 -0.081526607 -1.3255093 1.106022e-38
2.5683486 -0.066765137 -1.3360103 9.4903947e-39
2.5683486 -0.041086242 -1.3360105 9.2148869e-39
2.5677848 -0.01797523 -1.3385156 9.1251911e-39
2.5917268 -0.010355963 -1.3368853 9.1179885e-39
2.6073351 0.0081015285 -1.337368 9.3074342e-39
2.6174343 0.031321101 -1.3274101 8.9407957e-39
2.6372032 0.035094801 -1.3488796 9.7669662e-39
2.526118 -0.2143569 -1.2947893 8.0221072e-39
2.5250602 -0.19150825 -1.2915202 9.8602577e-39
2.5293477 -0.16156575 -1.2937227 1.0045378e-38
2.5337131 -0.13138348 -1.2849516 9.6780566e-39
2.5526361 -0.14267156 -1.305625 9.4983247e-39
2.5559921 -0.096812844 -1.2907118 9.3099313e-39
2.5736103 -0.095867895 -1.3126281 9.3981837e-39
2.5751138 -0.071900912 -1.3059475 8.4783924e-39
2.5751138 -0.041086238 -1.3059475 8.7549961e-39
2.5739863 -0.020543119 -1.310958 8.9451215e-39
2.5990024 -0.014498348 -1.3045548 9.1190983e-39
2.5991976 0.011835387 -1.3036889 9.4010718e-39
2.5773687 0.03595046 -1.2959266 1.031978e-38
2.5165949 -0.2156312 -1.2653688 6.4519116e-39
2.5294864 -0.19150825 -1.2718507 7.1858403e-39
2.5295393 -0.15828677 -1.2625057 6.6326749e-39
2.5316958 -0.13106667 -1.2620327 6.8177963e-39
2.5274036 -0.10348939 -1.2583318 8.9372112e-39
2.5593481 -0.091717429 -1.2757984 9.7648068e-39
2.5618656 -0.072609633 -1.2646135 4.7887665e-39
2.5796239 -0.061629359 -1.2859056 9.5850945e-39
2.5627043 -0.045858715 -1.2608851 5.0657108e-39
2.580977 -0.036977615 -1.279893 8.1096211e-39
2.5830064 -0.020543119 -1.2708741 6.7227126e-39
2.6042316 -0.010355963 -1.2813172 7.736524e-39
2.6053686 0.010355963 -1.2762657 6.4482893e-39
2.5604668 0.030572476 -1.2708273 9.7680648e-39
2.6076419 0.031067891 -1.2661623 4.9595064e-39
2.5243015 -0.15044038 -1.2311225 1.9360872e-39
2.503617 -0.13596451 -1.2228298 2.577512e-39
2.5028892 -0.11938348 -1.2260652 6.0777061e-39
2.5334492 -0.09813302 -1.2382985 7.2819988e-39
2.5682976 -0.091717429 -1.2360296 5.3509423e-39
2.5448072 -0.075798169 -1.2356523 1.5684047e-39
2.5675516 -0.071335778 -1.2393436 1.8428308e-39
2.5668058 -0.044160247 -1.2426578 2.5771518e-39
2.588644 -0.030814679 -1.2458217 2.4874715e-39
2.588644 -0.015407339 -1.2458217 2.8544632e-39
2.590899 0 -1.2358007 2.3952675e-39
2.6108251 0.012427157 -1.2520177 3.0399194e-39
2.6299279 0.036499087 -1.2544318 5.2493621e-39
2.6556947 0.0526422 -1.2667068 1.4737944e-38
2.4878359 -0.13820183 -1.1973064 2.6704517e-39
2.5772469 -0.1222899 -1.1962608 7.8337391e-39
2.5536823 -0.040425688 -1.196213 2.4853219e-39
2.5750093 -0.030572476 -1.206203 3.5855416e-39
2.5754569 -0.016305322 -1.2042146 7.1948465e-39
2.5931542 -0.010271559 -1.2257799 3.0338182e-39
2.5765009 0.0067938841 -1.1995749 9.58797e-39
2.5946574 0.011983487 -1.2190993 3.7789432e-39
2.5961609 0.034238532 -1.2124186 5.0729246e-39
2.498672 -0.15794496 -1.1491528 6.4789735e-40
2.5149021 -0.15917797 -1.1726828 7.0180306e-39
2.5154481 -0.14674219 -1.1702563 2.9441505e-39
2.5445015 -0.13352241 -1.1686875 2.6722229e-39
2.5538311 -0.10078165 -1.163668 9.6805411e-39
2.544045 -0.037667889 -1.1672999 2.393478e-39
2.5794842 -0.030572476 -1.1863186 1.0155841e-39
2.5603387 -0.015159633 -1.1666334 2.4885421e-39
2.5794842 -0.015286239 -1.1863186 4.5956144e-40
2.5813489 0.011889297 -1.1780335 3.1303242e-39
2.5999193 0.010271559 -1.195717 4.5003597e-39
2.5817218 0.035667889 -1.1763766 4.6011285e-39
2.5015614 -0.1612355 -1.1363118 1.8442783e-39
2.5517383 -0.15082569 -1.1410834 3.2254135e-39
2.5203624 -0.14922936 -1.1484179 2.0279521e-39
2.544944 -0.13163531 -1.1393912 4.5132755e-39
2.5542583 -0.10233762 -1.1458275 1.0232283e-38
2.5861962 -0.091717429 -1.156492 5.5296148e-39
2.6089394 -0.092444032 -1.1556331 6.5462751e-39
2.6326513 -0.093203671 -1.1550258 6.7277951e-39
2.5473778 -0.070295416 -1.144518 2.3938424e-39
2.5884335 -0.061144952 -1.1465498 3.6842211e-39
2.6104429 -0.068477064 -1.1489525 3.8700641e-39
2.6464462 -0.076988623 -1.1565834 3.4994655e-39
2.5203624 -0.054717429 -1.1484179 2.3027103e-39
2.5567839 -0.04703486 -1.1505466 2.3019957e-39
2.5861962 -0.040763304 -1.156492 1.8431839e-39
2.6089394 -0.051357798 -1.1556331 2.3927634e-39
2.6315145 -0.046601832 -1.1600776 2.394571e-39
2.5625575 0.010106422 -1.1567736 2.9455658e-39
2.5861959 0.010190826 -1.156492 2.8533716e-39
2.5647762 0.030319266 -1.1469136 2.0304534e-39
2.529099 -0.12933211 -1.1095943 2.5797008e-39
2.5286622 -0.11540403 -1.1115355 8.6624179e-39
2.5518248 -0.10530826 -1.1088141 1.1153876e-38
2.5951455 -0.091717429 -1.1167233 5.717599e-39
2.6134496 -0.092444032 -1.1355911 6.8253521e-39
2.6157045 -0.077036694 -1.1255702 3.6853379e-39
2.4776618 -0.11665321 -1.0557663 1.2349157e-38
2.5160096 -0.10858715 -1.072107 9.8613409e-39
2.5341952 -0.10280245 -1.0869472 1.1428294e-38
2.5367436 -0.089537613 -1.0756236 1.1058069e-38
2.4621325 -0.11577248 -1.0336767 1.2162976e-38
2.4999518 -0.10447461 -1.0478115 1.0599308e-38
