# .PCD v0.7 - Point Cloud Data file format
VERSION 0.7
FIELDS x y z
SIZE 4 4 4
TYPE F F F
COUNT 1 1 1
WIDTH 152
HEIGHT 1
VIEWPOINT 0 0 0 1 0 0 0
POINTS 152
DATA ascii
2.3609145 0.019148624 -1.3516626
2.4433188 0.039486241 -1.3552052
2.3823502 0.086829357 -1.3479428
2.4231153 0.068561465 -1.3493906
2.3845754 0.10612477 -1.3385551
2.3845754 0.12542018 -1.3385551
2.4222116 0.16454752 -1.3532029
2.4490106 -0.039486241 -1.3311915
2.4170372 0.05204159 -1.3316753
2.3890254 0.080397554 -1.3197799
2.425374 0.073458716 -1.3398602
2.3883898 0.107503 -1.322462
2.3890254 0.12542018 -1.3197799
2.4193218 0.13680489 -1.3364897
2.4208164 0.16282569 -1.3301837
2.417408 0.20491377 -1.3301107
2.4279156 0.22527339 -1.3291385
2.427633 0.24486238 -1.3303298
2.3957005 -0.043414678 -1.291617
2.4229953 -0.04224709 -1.2920824
2.3774753 -0.0095743118 -1.2817911
2.3968129 -0.024119265 -1.2869233
2.3656635 0.017116331 -1.2795935
2.3934755 0.0096477065 -1.3010046
2.3672585 0.047688071 -1.2815362
2.3664329 0.077497706 -1.2850209
2.3755827 0.10258191 -1.2897764
2.3934755 0.11577248 -1.3010046
2.3755827 0.13130485 -1.2897764
2.3934755 0.14471559 -1.3010046
2.3733366 0.16254312 -1.2847997
2.3765919 0.18957135 -1.2855176
2.3934755 0.20260184 -1.3010046
2.3971839 0.22189724 -1.2853587
2.4139254 0.22358532 -1.301443
2.3818915 -0.0095743118 -1.2631588
2.4026935 -0.022051901 -1.2621131
2.3419361 0.018862385 -1.2626306
2.3738041 0.013908539 -1.2572564
2.4046006 0 -1.2540666
2.3636324 0.047504585 -1.2534757
2.3676879 0.076154128 -1.2556354
2.37783 0.10513803 -1.2610228
2.3697155 0.13336352 -1.2567192
2.3760581 0.16318667 -1.256237
2.3814752 0.19137003 -1.2576877
2.3836577 0.21925175 -1.2557057
2.3907239 -0.021542201 -1.2258939
2.4075673 -0.01607951 -1.2415497
2.3542616 0.022006115 -1.2106278
2.3728216 0.013572739 -1.2270941
2.3702059 0.047504585 -1.2257413
2.3702059 0.076007336 -1.2257413
2.3702059 0.10451008 -1.2257413
2.3804688 0.13352661 -1.2257997
2.3850422 0.16005778 -1.2281847
2.3835111 0.19100916 -1.2274195
2.3900928 0.22157691 -1.2285557
2.3567181 -0.018834496 -1.1837858
2.3745883 -0.019001834 -1.2072517
2.3599584 0.016167758 -1.1865931
2.3759029 0.0114011 -1.2017047
2.3600619 0.050299693 -1.186156
2.3753185 0.041170642 -1.2041701
2.3589745 0.072305806 -1.1907445
2.3775098 0.082341284 -1.1949253
2.3767793 0.10451008 -1.1980067
2.3839953 0.13336758 -1.1964693
2.3831906 0.16271959 -1.1946088
2.4778481 0.17439754 -1.2095226
2.3782513 0.19361334 -1.1996821
2.4179509 0.18330641 -1.1977408
2.446672 0.20003486 -1.2066432
2.4774687 0.18755963 -1.2111236
2.3905272 0.22519793 -1.2019452
2.4157257 0.23154496 -1.2071284
2.4466722 0.22442935 -1.2066432
2.3549345 -0.01876477 -1.1583599
2.3617318 0.016720079 -1.160803
2.3855441 0.00570055 -1.1610277
2.3600318 0.047062997 -1.1588213
2.3658621 0.066018343 -1.1616842
2.3844485 0.080757797 -1.1656501
2.3844488 0.10451009 -1.1656502
2.3911641 0.13246642 -1.172004
2.4246259 0.13989174 -1.169578
2.445313 0.1360954 -1.1690165
2.4017644 0.15797615 -1.1793128
2.422401 0.1543633 -1.1789656
2.4632103 0.16405779 -1.1802251
2.4808838 0.16781652 -1.1967155
2.5002513 0.17907523 -1.2060578
2.4592574 0.20078716 -1.1969033
2.4808836 0.19743121 -1.1967154
2.4592574 0.22527339 -1.1969033
2.4922671 -0.059229359 -1.1486882
2.3351665 -0.02787523 -1.126425
2.3614511 -0.014077065 -1.139104
2.3702123 0.023577981 -1.1433302
2.4000874 0.017986951 -1.1382116
2.429076 0.0096477065 -1.1508027
2.3715174 0.050928436 -1.1378241
2.3921177 0.044337615 -1.1332933
2.3723874 0.068376139 -1.1341532
2.3899264 0.085508257 -1.1425382
2.4083886 0.10053027 -1.1513642
2.4268508 0.11577248 -1.1601903
2.4660339 0.12732844 -1.1683121
2.5548432 -0.065576144 -1.139413
2.4669256 -0.043928437 -1.1211904
2.5151651 -0.059691742 -1.143135
2.5402019 -0.050146788 -1.1328937
2.6050994 -0.041086238 -1.1452602
2.3810878 -0.018862385 -1.0974455
2.3986912 -0.009500917 -1.105559
2.3458812 0.023229359 -1.0812187
2.3755994 0.014129358 -1.1000056
2.3964999 0.009500917 -1.1148038
2.3458812 0.037166975 -1.0812187
2.524725 -0.072956569 -1.1027998
2.5436716 -0.060176149 -1.1182551
2.52549 -0.059691742 -1.099573
2.5546007 -0.050339445 -1.117672
2.5869737 -0.035667889 -1.1263424
2.3832629 -0.0094311927 -1.0882685
2.5678785 -0.020212844 -1.1071796
2.5877569 -0.013587768 -1.123037
2.3490956 0.02787523 -1.0676569
2.3700113 0.014710879 -1.0735646
2.5613513 0.010055046 -1.1043655
2.375982 0.045629356 -1.071911
2.5580881 0.035256881 -1.1029584
2.589324 0.050954126 -1.1164262
2.4041691 0.066506423 -1.0824469
2.5104804 -0.069100916 -1.0718447
2.5300789 -0.069640361 -1.0802121
2.5104804 -0.059229359 -1.0718447
2.5277843 -0.059691742 -1.0898926
2.5702093 -0.020212844 -1.0973457
2.5916741 -0.010190826 -1.1065102
2.5648386 0.010055046 -1.0896521
2.5963748 0.010190826 -1.086678
2.5586946 0.036864221 -1.0852239
2.4602263 -0.077181652 -1.0193759
2.4976585 -0.068561465 -1.0348856
2.5150337 -0.074036703 -1.0526338
2.4987879 -0.053869724 -1.0301204
2.516855 -0.047383487 -1.0449494
2.4635639 -0.072357796 -1.0052946
2.4856682 -0.068047702 -0.99875367
2.4881179 -0.05600642 -1.0100979
2.5230019 -0.044422019 -1.0190147
